VERSION .7
FIELDS x y z doppler snr
SIZE 4 4 4 4 4
TYPE F F F F F
COUNT 1 1 1 1 1
WIDTH 290
HEIGHT 1
VIEWPOINT 0 0 0 1 0 0 0
POINTS 290
DATA ascii
-4.8400764 1.6074402 5.8436666 0.0 0.0
-4.1186404 2.090835 6.75972 0.0 1.49
2.5198221 0.68106556 9.113356 0.0 8.72
2.6349337 0.68144786 9.529676 0.0 15.65
2.750069 0.67916465 9.946082 0.0 17.16
2.864655 0.7074632 10.360502 0.0 13.8
0.68787616 1.9504058 11.886622 0.0 6.06
-7.51254 1.961721 11.912735 0.0 7.76
6.880937 2.1400592 13.737082 0.0 8.59
14.292935 1.9387044 14.216507 0.0 9.16
14.31459 1.9799534 14.797535 0.0 8.85
14.501902 2.3275938 15.762747 0.0 7.08
14.714763 0.7135111 16.30665 0.0 7.52
15.003287 0.7275015 16.626389 0.0 7.8
15.280054 0.6835534 17.53512 0.0 9.18
16.465496 0.9159718 17.021008 0.0 9.84
15.194969 1.1563011 18.709679 0.0 9.93
15.657149 0.8733709 18.90366 0.0 10.78
15.597528 0.811444 19.510735 0.0 8.22
16.022793 0.60929793 19.728985 0.0 12.87
16.293417 0.6795755 20.062204 0.0 14.19
16.563547 0.7721622 20.39482 0.0 11.49
16.137892 1.197655 21.257189 0.0 9.33
16.770275 1.2169719 21.312443 0.0 12.07
16.835148 0.89538646 21.8243 0.0 12.64
17.099833 0.8227958 22.167427 0.0 11.92
17.361246 0.92336726 22.50631 0.0 8.43
17.091352 0.9373577 23.248682 0.0 8.09
17.079205 2.1954877 23.707403 0.0 9.18
17.561321 2.2277744 23.887962 0.0 10.27
18.123373 1.1032053 25.1568 0.0 13.48
18.177956 1.1185277 25.647064 0.0 13.14
18.417448 1.5279694 25.98496 0.0 13.2
18.4628 1.5486176 26.479193 0.0 14.22
18.518852 -0.6836021 27.000788 0.0 13.79
19.201311 1.6105623 27.53836 0.0 11.59
19.231936 1.6312106 28.040476 0.0 12.47
19.50206 1.4568344 28.90951 0.0 14.1
20.214544 9.795791 29.473133 0.0 15.77
0.0 2.4100142 40.43284 0.0 17.28
-1.8117379 1.8351164 40.854195 0.0 14.95
-7.360106 1.7625897 41.54447 0.0 13.27
-7.191523 1.9123844 42.005043 0.0 13.29
0.0 2.4551115 43.451595 0.0 11.43
0.2536587 2.4794195 43.881077 0.0 12.25
-7.020411 2.692037 44.61537 0.0 13.64
-7.0872717 2.7176754 45.040283 0.0 13.18
-7.166571 0.39212885 45.544235 0.0 12.1
24.10424 2.1055546 40.256115 0.0 12.45
24.331667 1.8319436 40.635937 0.0 12.55
24.552862 1.8485976 41.005352 0.0 11.87
24.998137 1.7773863 43.247826 0.0 10.58
-5.660305 2.637511 51.32954 0.0 11.95
-5.5878353 2.5810294 53.509655 0.0 12.53
26.076221 0.12593573 47.6213 0.0 9.1
-5.677241 2.622326 54.36581 0.0 10.07
27.064358 1.3321939 48.534115 0.0 10.6
26.901207 0.82288456 49.12792 0.0 10.44
27.424246 1.8747154 50.777683 0.0 10.75
29.465212 0.9241627 55.576897 0.0 10.6
32.19742 2.6979532 61.878082 0.0 11.29
32.114834 2.5128565 62.89859 0.0 8.96
-20.994074 1.9367902 70.60322 0.0 8.64
34.18066 3.093525 65.689545 0.0 7.67
36.991856 2.8978016 65.15133 0.0 8.24
46.53917 3.3992803 66.74609 0.0 7.99
47.018085 2.4430707 68.55313 0.0 8.13
47.268528 2.0034542 68.91828 0.0 8.47
53.53077 2.812073 68.02938 0.0 6.44
53.797092 2.8260634 68.367836 0.0 7.13
49.757412 2.8260634 71.36167 0.0 4.72
-18.154642 2.310557 85.9774 0.0 7.68
-18.908997 2.321883 86.255684 0.0 7.91
-39.158386 3.1058717 87.22254 0.0 6.72
-38.665356 2.5257556 87.931984 0.0 6.13
-42.048073 2.3132668 86.8506 0.0 8.78
-42.23579 2.3235939 87.23833 0.0 8.46
0.11113463 -0.13716654 0.39307663 0.0 6.05
0.32307562 -0.2743331 0.7503751 0.0 1.08
0.45407784 -0.41149962 1.1382244 0.0 0.0
-4.1152563 2.1153057 6.7541656 0.0 1.37
2.5198221 0.68106556 9.113356 0.0 8.94
2.6354828 0.65086615 9.531662 0.0 15.79
2.750069 0.67916465 9.946082 0.0 17.22
2.8640583 0.7407042 10.358344 0.0 13.89
0.68787616 1.9504058 11.886622 0.0 6.03
-2.3503933 -0.61944705 12.696427 0.0 5.83
-7.51254 1.961721 11.912735 0.0 7.79
-3.8914428 2.1648297 18.429234 0.0 8.46
13.709216 1.4528964 13.635908 0.0 9.18
14.0138645 1.4851829 13.938929 0.0 10.22
14.292935 1.9387044 14.216507 0.0 9.36
14.31459 1.9799534 14.797535 0.0 9.06
14.714763 0.7135111 16.30665 0.0 7.77
14.840849 0.7967594 16.768394 0.0 8.39
15.280054 0.6835534 17.53512 0.0 9.59
15.383459 0.9892085 18.001026 0.0 9.71
15.192642 1.2308384 18.706814 0.0 10.01
15.657149 0.8733709 18.90366 0.0 10.57
16.022793 0.60929793 19.728985 0.0 12.87
16.293417 0.6795755 20.062204 0.0 14.23
16.563547 0.7721622 20.39482 0.0 11.53
16.303432 1.1151078 21.13501 0.0 9.55
16.772522 1.1330934 21.315298 0.0 12.2
16.835148 0.89538646 21.8243 0.0 12.79
17.099833 0.8227958 22.167427 0.0 12.0
17.361246 0.92336726 22.50631 0.0 8.18
17.076038 1.539485 23.227852 0.0 7.81
17.079205 2.1954877 23.707403 0.0 8.84
17.561321 2.2277744 23.887962 0.0 10.39
18.123373 1.1032053 25.1568 0.0 13.6
18.177956 1.1185277 25.647064 0.0 13.35
18.414627 1.6264651 25.98098 0.0 13.42
18.45997 1.6484443 26.475138 0.0 14.64
18.519958 -0.58233935 27.002401 0.0 14.39
19.201311 1.6105623 27.53836 0.0 12.09
19.231936 1.6312106 28.040476 0.0 13.32
19.50206 1.4568344 28.90951 0.0 13.9
-2.0902302 1.0633053 36.11955 0.0 12.52
20.235811 9.657554 29.504143 0.0 15.5
20.697166 -1.1265973 32.2659 0.0 13.04
20.67762 -1.1392556 32.78878 0.0 15.86
20.907372 -1.1519141 33.1531 0.0 16.69
0.0 2.4100142 40.43284 0.0 17.64
-1.8119807 1.708633 40.85967 0.0 15.55
-7.361022 1.6320952 41.54964 0.0 14.31
-7.192487 1.7805754 42.01067 0.0 13.36
-3.3153415 1.6654032 42.929977 0.0 11.64
0.0 2.4551115 43.451595 0.0 11.66
0.2536587 2.4794195 43.881077 0.0 12.45
-7.020411 2.692037 44.61537 0.0 13.65
-7.0872717 2.7176754 45.040283 0.0 13.24
-7.166725 0.24953835 45.545216 0.0 12.17
24.10424 2.1055546 40.256115 0.0 12.55
24.331667 1.8319436 40.635937 0.0 12.71
17.831652 2.2021396 45.71884 0.0 11.48
25.00316 1.468374 43.256516 0.0 10.27
-6.1903806 2.9996984 49.9438 0.0 10.96
-5.660305 2.637511 51.32954 0.0 12.61
-6.006562 2.65949 51.72343 0.0 13.8
-5.5878353 2.5810294 53.509655 0.0 12.67
26.075909 0.2938489 47.62073 0.0 9.71
-5.677241 2.622326 54.36581 0.0 10.2
-4.776962 2.0072207 56.209583 0.0 9.6
-2.5185668 1.8467345 56.792995 0.0 6.18
-4.8487325 2.392086 57.054092 0.0 10.38
-4.885797 2.2316403 57.490223 0.0 10.8
27.42136 2.0531876 50.77234 0.0 10.6
-5.591522 2.2482944 57.85848 0.0 9.95
28.130999 1.9026963 51.373806 0.0 9.77
6.4631715 2.828808 58.610203 0.0 11.5
6.5103483 2.8494563 59.038013 0.0 11.46
0.0 2.8701046 59.826294 0.0 11.0
29.266474 -0.14492606 55.20204 0.0 11.06
22.067352 -0.14592554 58.913963 0.0 10.98
-8.340078 16.507679 60.582066 0.0 11.13
-3.533025 16.507679 61.0513 0.0 10.78
-8.343884 -17.996208 60.60971 0.0 10.35
-5.570499 -18.117804 61.342327 0.0 9.04
32.767494 1.5697167 56.689137 0.0 10.34
30.422668 1.5800438 58.46731 0.0 10.9
-16.427385 1.3941885 64.722755 0.0 9.51
32.210358 1.8348539 61.902954 0.0 11.55
31.911377 2.9316545 62.500107 0.0 11.46
32.118214 2.2944279 62.905212 0.0 8.88
35.72038 2.5741458 62.911957 0.0 7.12
33.677544 2.8644936 65.959236 0.0 8.36
46.570274 3.84637 59.183662 0.0 6.68
46.83639 3.8683493 59.521854 0.0 6.19
-7.05304 -0.90451896 77.66807 0.0 8.25
-20.973118 2.8805916 78.19412 0.0 7.44
46.53917 3.3992803 66.74609 0.0 7.99
52.409565 4.7886825 66.6045 0.0 7.9
48.72014 4.8129907 69.874016 0.0 6.01
54.058674 2.5443377 67.621254 0.0 6.68
49.762173 2.556996 71.3685 0.0 6.74
-18.813337 2.8540444 85.81932 0.0 7.65
-19.408413 2.117052 86.149956 0.0 8.55
-13.796334 1.3039556 87.677 0.0 7.2
48.83601 2.6582632 76.13302 0.0 5.47
4.044971 2.9659677 91.21299 0.0 5.28
4.792648 2.9939485 92.03928 0.0 6.01
-19.00575 1.3039556 86.697044 0.0 5.57
-5.050906 2.8400538 87.280556 0.0 4.98
42.74547 2.5443377 75.28479 0.0 4.79
-23.947275 0.97448176 80.53486 0.0 5.32
-42.572033 2.9112363 69.87136 0.0 5.39
55.668926 3.5929646 57.547085 0.0 6.55
35.12044 -0.90951633 70.114334 0.0 6.08
-43.0904 3.2645755 58.614147 0.0 6.19
32.996204 2.5435011 63.41322 0.0 6.17
-13.417834 1.3941885 65.41296 0.0 7.87
18.544817 0.56437236 63.712128 0.0 9.09
29.468311 -0.14592554 55.582745 0.0 9.17
-42.31979 0.98078203 35.35774 0.0 8.15
-5.613136 2.6155317 50.901794 0.0 10.94
24.552862 1.8485976 41.005352 0.0 10.38
-8.906701 2.2638636 43.420845 0.0 12.04
24.377659 1.7805754 34.96224 0.0 12.73
2.8495057 2.3843756 39.901085 0.0 15.75
0.23123555 2.3843756 40.002033 0.0 14.85
-3.7986858 1.9530779 36.376587 0.0 12.79
20.000511 9.545257 29.161072 0.0 11.6
-0.20664856 1.0506469 35.74867 0.0 11.58
51.1894 3.0079389 77.15838 0.0 6.3
-39.82947 3.1058717 86.918144 0.0 6.41
-37.98322 2.8228223 88.21978 0.0 6.31
-42.045624 2.537082 86.84554 0.0 8.95
-42.233326 2.5484083 87.233246 0.0 8.54
-3.3914993 2.1153057 7.145056 0.0 1.09
2.5203714 0.6518197 9.115342 0.0 8.91
2.6354828 0.65086615 9.531662 0.0 15.71
2.750069 0.67916465 9.946082 0.0 17.18
2.864655 0.7074632 10.360502 0.0 13.78
0.68787616 1.9504058 11.886622 0.0 5.97
-7.51574 1.9181546 11.91781 0.0 7.62
14.904523 0.7913668 11.69168 0.0 8.18
13.735881 0.80935246 13.662431 0.0 9.25
14.041122 0.82733804 13.966041 0.0 10.15
14.292935 1.9387044 14.216507 0.0 9.08
14.31459 1.9799534 14.797535 0.0 8.93
14.501902 2.3275938 15.762747 0.0 7.04
15.004723 0.6582366 16.62798 0.0 7.63
15.281369 0.611618 17.53663 0.0 9.44
15.385373 0.9159718 18.003265 0.0 9.61
15.374515 1.1563011 18.562422 0.0 10.1
15.657149 0.8733709 18.90366 0.0 10.81
15.597528 0.811444 19.510735 0.0 8.05
16.022793 0.60929793 19.728985 0.0 12.81
16.294367 0.61962503 20.063375 0.0 14.15
16.564974 0.6909018 20.396576 0.0 11.56
16.135574 1.2801906 21.254137 0.0 9.33
16.767866 1.3008388 21.309381 0.0 12.06
16.835148 0.89538646 21.8243 0.0 12.63
17.099833 0.8227958 22.167427 0.0 11.81
17.361246 0.92336726 22.50631 0.0 8.21
17.070072 1.7177761 23.219736 0.0 7.66
17.083092 2.1051116 23.7128 0.0 8.59
17.56532 2.136069 23.8934 0.0 10.22
18.123373 1.1032053 25.1568 0.0 13.52
18.177956 1.1185277 25.647064 0.0 13.19
18.417448 1.5279694 25.98496 0.0 13.29
18.4628 1.5486176 26.479193 0.0 14.59
18.518852 -0.6836021 27.000788 0.0 14.42
19.201311 1.6105623 27.53836 0.0 11.94
19.231936 1.6312106 28.040476 0.0 12.78
19.50206 1.4568344 28.90951 0.0 13.95
-2.0898101 1.2870729 36.112293 0.0 12.46
20.235811 9.657554 29.504143 0.0 15.43
0.0 2.4100142 40.43284 0.0 17.36
-1.8119807 1.708633 40.85967 0.0 15.32
-7.360106 1.7625897 41.54447 0.0 13.97
-7.191523 1.9123844 42.005043 0.0 13.43
-3.314929 1.798561 42.924637 0.0 11.71
0.0 2.4551115 43.451595 0.0 11.55
0.2536587 2.4794195 43.881077 0.0 12.41
-7.019083 2.8317049 44.606937 0.0 13.55
-7.0859313 2.8586733 45.031765 0.0 13.27
-7.166571 0.39212885 45.544235 0.0 12.0
24.10424 2.1055546 40.256115 0.0 12.61
24.32538 2.1248715 40.625435 0.0 12.61
24.552862 1.8485976 41.005352 0.0 12.23
24.998137 1.7773863 43.247826 0.0 10.48
-6.1925445 2.6883543 49.96126 0.0 11.0
-5.588638 2.4146268 53.517338 0.0 12.63
-5.678056 2.453261 54.373615 0.0 10.39
26.691338 1.1603247 48.744648 0.0 10.14
-4.7774644 1.8327441 56.2155 0.0 9.33
27.424246 1.8747154 50.777683 0.0 10.93
29.265495 0.5313896 55.20019 0.0 10.73
21.611906 0.5350543 59.080315 0.0 11.01
33.209396 0.962142 56.445026 0.0 10.59
30.428125 0.9684718 58.4778 0.0 11.08
-13.417834 1.3941885 65.41296 0.0 8.71
32.184475 3.345014 61.853214 0.0 10.83
31.911377 2.9316545 62.500107 0.0 11.24
32.114834 2.5128565 62.89859 0.0 8.67
32.996204 2.5435011 63.41322 0.0 6.83
33.673355 3.093525 65.951035 0.0 8.16
46.550304 2.895914 66.76206 0.0 7.38
48.748787 3.8247688 69.91511 0.0 5.43
53.5405 2.276578 68.04175 0.0 6.66
49.76646 2.2879043 71.37464 0.0 7.62
-18.816757 2.310557 85.83492 0.0 6.96
-18.908997 2.321883 86.255684 0.0 7.77
-37.6458 2.5031033 87.4361 0.0 5.54
-39.165504 2.5144296 87.238396 0.0 5.76
-38.66761 2.3029397 87.93711 0.0 6.34
-42.048073 2.3132668 86.8506 0.0 8.65
-42.23579 2.3235939 87.23833 0.0 8.2
