VERSION .7
FIELDS x y z doppler snr intensity noise
SIZE 4 4 4 4 4 4
TYPE F F F F F F
COUNT 1 1 1 1 1 1
WIDTH 7
HEIGHT 1
VIEWPOINT 0 0 0 1 0 0 0
POINTS 7
DATA ascii
0.29303637 4.7305965 1.1695772 0.0 13.655018 273440490000000.0 11785853000000.0
0.30591428 4.938489 1.1378855 -0.06059063 8.727907 2207663000000.0 295898020000.0
0.30475783 4.9198203 1.2163603 0.0 19.106533 959432340000000.0 11785853000000.0
0.30475783 4.9198203 1.2163603 0.06059063 7.8649535 1926222700000.0 314927900000.0
-0.4727899 5.076066 1.3446366 0.0 16.002502 430310120000000.0 10802674000000.0
0.16173542 5.2294197 0.651945 0.0 16.002502 430310120000000.0 10802674000000.0
0.31824905 5.1376143 1.1409037 0.0 16.002502 430310120000000.0 10802674000000.0
0.93085253 5.153443 -0.6111984 0.0 16.002502 430310120000000.0 10802674000000.0
0.4118077 5.31263 1.2254151 0.0 8.86094 83069010000000.0 10798044000000.0
0.27826542 5.9945498 0.7953125 0.0 8.418032 75015030000000.0 10798044000000.0
0.26295993 6.8000336 0.63383543 0.0 8.31323 47028344000000.0 6934844400000.0
0.27047306 6.9943204 0.651945 0.0 8.8617115 53359025000000.0 6934844400000.0
-2.9896188 7.4841475 1.521205 -0.06059063 9.512622 2459365000000.0 275144500000.0
-2.998113 7.505412 1.3944379 0.0 12.881064 695311100000000.0 35815640000000.0
-2.993961 7.4950185 1.4578215 0.06059063 7.6842284 1991810600000.0 339488600000.0
-3.056158 7.650721 1.6223168 -0.5453157 7.7150807 123042280000.0 20823144000.0
-3.0608 7.6623416 1.5574242 -0.48472503 9.408631 149378170000.0 17116857000.0
-3.0694966 7.6841125 1.4276388 -0.06059063 17.035143 13901935000000.0 275144500000.0
-3.0694966 7.6841125 1.4276388 0.0 21.562418 4551846600000000.0 31764777000000.0
-3.0652459 7.6734715 1.4925315 0.06059063 15.34057 11570000000000.0 338279960000.0
-3.0735528 7.694267 1.3627461 0.4241344 10.329448 219302100000.0 20328155000.0
-3.0735528 7.694267 1.3627461 0.48472503 8.641562 155520370000.0 21263315000.0
-3.0810852 7.713123 1.2329608 0.7876782 7.2156644 67970710000.0 12904921000.0
-3.1272316 7.8286448 1.6600451 -0.4241344 7.4671335 90696380000.0 16250868000.0
-3.1408803 7.8628125 1.4608397 -0.06059063 13.353694 5955665000000.0 275144500000.0
-3.1408803 7.8628125 1.4608397 0.0 17.913052 1964495100000000.0 31764777000000.0
-3.1408803 7.8628125 1.4608397 0.06059063 11.486928 4763970700000.0 338279960000.0
-3.145031 7.8732033 1.3944379 0.36354378 8.205497 149070730000.0 22534230000.0
6.311945 6.6612453 0.1418584 -1.9389001 10.268018 149526130000.0 14057734000.0
-3.3990252 8.307347 1.9150884 -0.30295315 8.121611 122175260000.0 18828780000.0
6.4452786 6.801958 0.217315 -1.9389001 20.314983 1580203600000.0 14696524000.0
-3.471345 8.484099 1.955835 -0.36354378 7.1849537 96310160000.0 18415213000.0
-3.4653788 8.469518 2.0282733 -0.30295315 10.840505 228492840000.0 18828780000.0
4.032733 8.400242 1.0141367 0.12118126 14.551477 2934906600000.0 102907390000.0
3.96395 8.441314 0.9416983 0.18177189 17.47823 2900308500000.0 51834786000.0
6.576409 6.9403453 0.36973733 -1.9389001 19.016327 1462503900000.0 18342746000.0
3.471345 8.690091 1.9965816 0.12118126 7.597227 625171700000.0 108711780000.0
3.4417384 8.828193 1.3310543 0.36354378 12.37994 369538530000.0 21363173000.0
3.5162728 8.5939045 3.0182638 -3.3324847 7.0376163 64547420000.0 12767834000.0
6.2261314 7.4463825 1.0563923 -2.7265785 8.6519 106536520000.0 14531436000.0
6.895204 6.8194113 1.1318489 -2.120672 11.367092 218966880000.0 15983402000.0
6.520465 7.1785617 1.1318489 -1.8783095 15.346475 466598600000.0 13623728000.0
2.9262118 8.759161 3.169177 -1.5753564 7.24479 104460880000.0 19700382000.0
6.3193974 7.4044 0.75456595 0.4241344 10.922991 280319260000.0 22664903000.0
5.740334 7.7524433 1.5091319 1.8783095 7.954014 76843350000.0 12308493000.0
5.6623554 7.6471314 2.1882412 2.1812627 7.119586 62784467000.0 12186911000.0
6.3110385 7.3946056 0.9054792 2.302444 7.8801613 85820140000.0 13982121000.0
5.6662145 7.499902 2.640981 2.3630345 7.126466 63144792000.0 12237451000.0
2.5912194 9.222598 1.8864149 2.4842157 7.854943 75666880000.0 12399711000.0
2.5912194 9.222598 1.8864149 2.5448065 9.154669 130494960000.0 15853562000.0
2.5871165 9.207995 1.9618715 2.605397 8.391375 88275260000.0 12785026000.0
5.64095 7.618223 2.3391545 2.605397 8.391375 88275260000.0 12785026000.0
2.5784068 9.176996 2.1127846 2.6659877 8.778653 97393810000.0 12902269000.0
2.595155 9.236607 1.8109584 2.8477597 8.667149 110009170000.0 14952507000.0
5.7027926 7.548318 2.414611 2.8477597 8.667149 110009170000.0 14952507000.0
5.735893 7.592129 2.1882412 2.968941 7.235543 89170530000.0 16852606000.0
3.033805 9.333249 1.693246 -3.8778002 7.49061 78084070000.0 13915583000.0
3.5225549 8.818289 3.0016634 -3.3324847 10.667165 150616620000.0 12916845000.0
3.0659938 8.934343 3.1555948 -3.271894 7.954745 90461090000.0 14487296000.0
6.3260436 7.565876 1.3853831 -3.271894 7.954745 90461090000.0 14487296000.0
6.2741404 7.658636 1.0775203 -3.0901222 7.65306 83086960000.0 14263524000.0
3.048847 8.8843775 3.3095264 -3.0295315 9.771543 128004630000.0 13491848000.0
3.0164495 9.029273 2.9246976 -2.9083502 8.306388 97944020000.0 14465689000.0
3.5484934 8.883223 2.7707663 -2.9083502 8.306388 97944020000.0 14465689000.0
3.1384196 9.145393 2.3859377 -2.7265785 10.608545 167171820000.0 14531436000.0
6.4215336 7.524072 1.154486 -2.7265785 10.608545 167171820000.0 14531436000.0
8.526852 5.1082554 0.6157258 -2.7265785 10.608545 167171820000.0 14531436000.0
3.3579934 8.828743 3.1555948 -2.4842157 7.773395 93579140000.0 15625702000.0
7.531596 6.4934883 0.5387601 -2.4236252 10.812543 171453250000.0 14219734000.0
7.2811317 6.58017 1.693246 -2.3630345 10.386244 145433150000.0 13305740000.0
7.3847523 6.5197825 1.4623488 -1.8783095 13.571594 310066900000.0 13623728000.0
2.9829993 9.17695 -2.4629033 1.8177189 8.374279 101682160000.0 14784848000.0
3.000313 9.230215 -2.232006 2.0600815 8.540034 95274400000.0 13334378000.0
5.7975383 7.5205827 3.0016634 2.0600815 8.540034 95274400000.0 13334378000.0
2.9500823 9.075684 -2.847732 2.302444 7.7971406 84195164000.0 13982121000.0
5.7108026 7.8691254 2.1550405 2.302444 7.7971406 84195164000.0 13982121000.0
6.350654 7.59531 1.0775203 2.302444 7.7971406 84195164000.0 13982121000.0
5.861087 7.7578387 2.1550405 2.3630345 7.1531405 69711530000.0 13427358000.0
5.775603 7.800074 2.232006 2.5448065 8.848644 121616155000.0 15853562000.0
3.051246 9.1334305 -2.539869 2.605397 9.877457 125085710000.0 12866548000.0
5.785945 7.814041 2.1550405 2.605397 9.877457 125085710000.0 12866548000.0
2.625274 9.343804 2.232006 2.6659877 9.773302 125232940000.0 13194362000.0
2.563463 9.413013 2.001109 2.7265785 7.057205 74627250000.0 14695249000.0
5.7795386 7.6499 2.6938004 2.7265785 7.057205 74627250000.0 14695249000.0
2.5675282 9.42794 1.9241432 2.787169 8.242335 92028190000.0 13793910000.0
2.6509032 9.435023 1.7702118 2.8477597 9.335909 128323120000.0 14952507000.0
5.8168488 7.699284 2.4629033 2.8477597 9.335909 128323120000.0 14952507000.0
2.5751631 9.455976 1.7702118 2.968941 9.381246 146147570000.0 16852606000.0
5.8506107 7.743972 2.232006 2.968941 9.381246 146147570000.0 16852606000.0
2.5675282 9.42794 1.9241432 3.0295315 7.8104396 84083760000.0 13920928000.0
3.1370702 9.390332 1.0775203 3.0295315 7.8104396 84083760000.0 13920928000.0
2.4957976 9.462533 1.8471775 3.271894 9.030878 110508990000.0 13813694000.0
3.1419954 9.405075 0.92358875 3.271894 9.030878 110508990000.0 13813694000.0
2.563463 9.413013 2.001109 3.756619 10.026561 125205420000.0 12444202000.0
2.6178718 9.6128025 1.9618715 11.815173 9.164089 100814410000.0 12221196000.0
2.7136126 9.658216 1.5694972 4.7866597 7.0597734 75398290000.0 14838300000.0
3.108474 9.5629635 1.4125475 4.7866597 7.0597734 75398290000.0 14838300000.0
8.351886 5.5112195 1.726447 -17.813644 10.734357 168934360000.0 14265346000.0
7.422983 6.864451 0.9416983 -2.2418532 10.000793 153661700000.0 15363365000.0
3.9205904 9.141889 2.0403464 -2.1812627 7.1100965 93137535000.0 18118203000.0
5.832804 8.037235 2.1188211 5.998472 8.584677 177079190000.0 24530130000.0
5.0885124 8.758789 -0.70627373 21.630856 7.971188 162361980000.0 25903925000.0
5.9061007 8.138234 1.4125475 6.1802444 11.413939 349815800000.0 25260708000.0
5.877253 8.098484 1.726447 6.2408347 7.515584 153657380000.0 27226700000.0
3.3546097 9.52091 1.0986481 8.119144 10.435108 283723800000.0 25667582000.0
1.3128282 9.905903 -1.8049217 39.32332 12.913477 562579800000.0 28763148000.0
5.842448 8.050525 2.0403464 8.906822 11.27284 202874400000.0 15133638000.0
5.8517137 8.063292 1.9618715 8.967413 12.606348 275582940000.0 15122287000.0
5.8517137 8.063292 1.9618715 9.028004 13.280601 293811750000.0 13804132000.0
5.8517137 8.063292 1.9618715 9.088594 12.363903 253741300000.0 14723154000.0
5.8517137 8.063292 1.9618715 9.149185 10.450342 168786790000.0 15216132000.0
2.6137269 9.597582 2.0403464 9.209776 10.110864 147615970000.0 14389542000.0
5.8691144 8.087269 1.8049217 9.209776 10.110864 147615970000.0 14389542000.0
2.5408757 9.63344 1.9618715 9.270367 9.1413145 120486800000.0 14682771000.0
2.621848 9.627403 1.8833966 9.330957 10.138863 128656440000.0 12460781000.0
5.832804 8.037235 2.1188211 9.330957 10.138863 128656440000.0 12460781000.0
2.6137269 9.597582 2.0403464 9.512729 8.962538 102349800000.0 12996704000.0
2.632772 9.667516 1.6479721 9.694501 8.0006 82400310000.0 13057765000.0
2.621848 9.627403 1.8833966 9.755092 8.481324 96690315000.0 13716728000.0
5.9032717 8.299345 1.8396318 6.1802444 10.55183 286832620000.0 25260708000.0
2.5769334 9.770149 2.2395518 8.240326 7.9936852 162125250000.0 25732512000.0
2.133615 10.000035 -1.5996798 -45.98829 8.146409 211976180000.0 32482253000.0
5.877771 8.099197 -2.6394718 -45.98829 8.146409 211976180000.0 32482253000.0
6.022995 8.467663 1.7928487 6.1802444 7.487587 110467195000.0 19700382000.0
6.4878254 7.9194746 2.5262868 -9.149185 9.068647 163250030000.0 20229657000.0
6.682494 7.5123367 3.178232 -9.149185 9.068647 163250030000.0 20229657000.0
6.456382 7.5649037 3.5042043 -31.6889 7.496352 250976940000.0 44668215000.0
6.455477 7.879988 -3.4030926 -31.6889 7.493559 162862550000.0 29004497000.0
-9.3782425 5.618305 -0.25353417 -9.209776 8.889823 103163910000.0 13321266000.0
6.2172565 8.229271 3.6339898 -9.209776 8.889823 103163910000.0 13321266000.0
6.6048784 8.228019 2.8733873 -9.209776 8.889823 103163910000.0 13321266000.0
5.145795 10.4869 0.9054792 22.054989 8.069725 118689120000.0 18511362000.0
5.148731 10.492885 0.8149313 22.11558 8.635596 121668580000.0 16657844000.0
4.6949096 10.947417 0.0 21.812628 7.556765 110232180000.0 19347814000.0
5.136533 10.699473 1.0126275 21.812628 7.556765 110232180000.0 19347814000.0
5.2282567 10.654954 1.0126275 22.11558 9.214129 139005430000.0 16657844000.0
4.771733 11.126551 0.09356618 21.812628 8.020696 130353600000.0 20561437000.0
5.2207384 10.874875 1.029228 21.812628 8.020696 130353600000.0 20561437000.0
5.1994944 10.830623 1.4970589 22.17617 7.98457 111666100000.0 17760877000.0
5.06644 10.55347 3.087684 14.48116 8.629252 128117310000.0 17566390000.0
5.3012724 11.042628 1.1409037 22.17617 7.138226 91893965000.0 17760877000.0
5.0453935 10.74427 3.2325606 14.48116 7.8840733 107917000000.0 17566390000.0
2.6134133 12.2488 2.0599651 12.966394 7.9199443 136693826000.0 22067569000.0
2.5553377 12.4578085 2.091657 8.422097 13.566705 418944100000.0 18428314000.0
2.5519652 12.441367 2.1912596 8.482688 13.036557 305722850000.0 15194003000.0
2.5519652 12.441367 2.1912596 8.543279 11.064196 175422910000.0 13729879000.0
2.594055 12.646563 2.1233487 8.422097 15.097988 596052340000.0 18428314000.0
2.5906312 12.629872 2.2244606 8.482688 14.679797 411887900000.0 14021658000.0
2.5906312 12.629872 2.2244606 8.543279 13.206027 254470490000.0 12162832000.0
-2.7742388 15.358911 2.5670335 -0.12118126 7.578619 297747320000.0 51997920000.0
-2.1854799 15.557757 1.8335953 -0.12118126 7.578619 297747320000.0 51997920000.0
-2.6631253 15.435303 2.2003143 0.06059063 8.977293 580828660000.0 73505310000.0
-3.9481187 15.468635 1.2374882 -0.12118126 9.508263 192696010000.0 21579753000.0
-3.4500344 15.5656595 1.4849858 -7.69501 7.9839797 360843870000.0 57401254000.0
-2.966777 15.717652 0.7424929 -7.69501 7.9839797 360843870000.0 57401254000.0
-4.0887074 15.501869 2.3799012 -0.18177189 10.748683 169381740000.0 14256018000.0
-4.0360217 15.813036 1.6479721 -0.12118126 8.753292 109290504000.0 14563078000.0
-2.8192196 17.140732 0.537251 -0.06059063 16.991354 709912170000.0 14192834000.0
-3.0883627 17.097982 0.40293822 0.0 15.627731 1966533200000.0 53818077000.0
-2.9526734 17.113504 0.6715637 0.06059063 11.738296 302068530000.0 20243048000.0
-2.9808445 17.276783 1.2223969 -0.12118126 14.384805 476151600000.0 17348614000.0
-2.9808445 17.276783 1.2223969 -0.06059063 22.024387 2285055500000.0 14336992000.0
-2.9858496 17.305792 0.6791094 0.06059063 15.373761 949418200000.0 27547455000.0
-2.9134653 17.713741 -0.6942007 -0.06059063 9.803058 1082638300000.0 113286350000.0
-4.327581 17.537344 -3.2627432 15.450611 6.995432 567179800000.0 113286350000.0
-3.77441 17.690273 -3.120885 15.450611 6.995432 567179800000.0 113286350000.0
-4.99056 17.22932 4.7311287 15.995926 7.6214013 75064890000.0 12980659000.0
10.591698 18.231348 -5.025409 31.022402 8.962078 538282030000.0 68360000000.0
13.127427 17.72887 -0.5115957 15.511201 13.234984 1133513400000.0 53818077000.0
13.792857 17.182434 -1.1937233 15.511201 13.234984 1133513400000.0 53818077000.0
3.1788743 23.986092 -0.9356618 24.175661 9.382035 110647560000.0 12756697000.0
4.4890304 23.78238 -0.74852943 24.175661 9.382035 110647560000.0 12756697000.0
25.350101 15.703047 1.8471775 0.0 11.154329 418357800000.0 32071182000.0
25.527258 15.812787 1.6268443 0.0 14.955533 1036222500000.0 33105471000.0
25.69302 15.915467 1.6374081 0.0 8.65856 243083640000.0 33105471000.0
6.9296803 38.364517 4.5500326 8.058554 10.604007 127986950000.0 11136916000.0
3.3496842 39.260166 1.829068 7.997963 15.083994 321103360000.0 9959681000.0
7.273322 38.533245 4.267825 7.997963 15.083994 321103360000.0 9959681000.0
3.3468761 39.227253 2.4387572 8.058554 11.962519 174991470000.0 11136916000.0
3.0561185 39.426235 2.757184 7.997963 10.463037 110802390000.0 9959681000.0
3.359813 39.378883 3.0635378 8.058554 23.128223 2288691400000.0 11136916000.0
3.057677 39.446342 2.4508302 8.119144 9.638384 83270296000.0 9050065000.0
3.0694215 39.597855 3.0786293 8.058554 23.130136 2289700000000.0 11136916000.0
3.3763638 39.572865 3.0786293 8.119144 12.848163 181572760000.0 9423984000.0
3.3907733 39.741753 3.4030926 8.119144 8.59298 68160470000.0 9423984000.0
5.595193 39.830452 0.62176234 23.448574 10.964131 111813130000.0 8955292000.0
4.288967 39.407932 6.839386 7.997963 11.518147 131183730000.0 9248371000.0
5.5216737 39.30709 6.528505 7.997963 11.518147 131183730000.0 9248371000.0
3.7170694 39.907978 3.419693 8.058554 10.363959 121104670000.0 11136916000.0
8.074468 39.364727 4.3734646 7.997963 11.862323 142003000000.0 9248371000.0
4.046373 40.071495 3.4362934 8.058554 9.639501 99595590000.0 10821564000.0
7.779464 39.506134 5.3362904 7.9373727 9.3278265 76711840000.0 8955292000.0
8.113475 39.554893 4.3945923 7.997963 12.5870495 167791590000.0 9248371000.0
7.8453174 39.840557 4.1003113 7.997963 9.987886 99319400000.0 9959681000.0
-2.5341194 40.90924 7.071792 0.0 7.007326 501932330000.0 99979860000.0
-0.3204837 41.467606 3.214451 0.0 7.007326 501932330000.0 99979860000.0
-7.112354 41.222744 -3.569097 15.511201 10.301914 489376400000.0 45651140000.0
-3.8738601 41.591347 -4.218024 15.511201 10.301914 489376400000.0 45651140000.0
-5.337335 42.83262 4.0203276 0.0 10.775164 1443688500000.0 120769450000.0
