# This PCD file was generated using the MATLAB® pcwrite function
# from Computer Vision Toolbox®.
# .PCD v.7 - Point Cloud Data file format
VERSION .7
FIELDS x y z intensity
SIZE 4 4 4 1
TYPE F F F U
COUNT 1 1 1 1
WIDTH 448
HEIGHT 1
VIEWPOINT 0 0 0 1 0 0 0
POINTS 448
DATA ascii
-10.963349 19.861984 -0.483145 7
-10.881640 19.879517 -0.482634 23
-10.800735 19.896292 -0.482123 19
-10.730904 19.924957 -0.481952 19
-10.528767 19.704433 -0.819207 29
-10.654543 19.947762 -0.481612 16
-10.458050 19.737534 -0.819060 25
-10.573617 19.963627 -0.481101 18
-10.389089 19.773920 -0.819060 30
-10.503866 20.000414 -0.481101 20
-10.311905 19.796253 -0.818474 26
-10.431346 20.033825 -0.481015 19
-10.174017 19.625687 -1.150792 17
-10.530267 20.321308 -0.135819 4
-10.246408 19.839230 -0.818767 28
-10.368690 20.084328 -0.481356 21
-10.437016 20.289017 -1.539445 6
-10.105227 19.652212 -1.150376 20
-10.446363 20.324099 -0.135606 14
-10.180563 19.873100 -0.818767 29
-10.287449 20.090126 -0.480675 22
-10.326191 20.247135 -1.533521 9
-10.038408 19.690910 -1.150584 17
-10.379095 20.367514 -0.135653 15
-10.111845 19.908154 -0.818767 29
-10.216247 20.121941 -0.480590 19
-10.886855 19.936928 -0.440131 12
-10.242847 20.258125 -1.531636 6
-9.966009 19.718700 -1.150168 16
-10.298918 20.385767 -0.135534 18
-10.033302 19.925478 -0.818034 25
-10.144147 20.153908 -0.480504 22
-10.800056 19.943157 -0.439433 18
-10.145246 20.240240 -1.527597 14
-9.900696 19.760511 -1.150584 12
-10.227695 20.421593 -0.135534 17
-9.958332 19.949650 -0.817594 29
-10.071950 20.185617 -0.480419 18
-10.596930 19.724073 -0.777980 19
-10.732359 19.984211 -0.439511 18
-10.071016 20.268364 -1.527059 10
-10.085736 20.306561 -1.180321 11
-10.154490 20.453627 -0.135511 17
-9.900517 20.009628 -0.818620 28
-9.995521 20.210188 -0.480164 22
-10.520496 19.746830 -0.777425 23
-10.656896 20.010962 -0.439278 18
-10.031946 20.367840 -1.531906 6
-10.077734 20.478182 -0.135440 16
-9.818290 20.018944 -0.817594 25
-9.931954 20.259319 -0.480504 21
-10.442166 19.765760 -0.776730 18
-10.577641 20.030357 -0.438891 18
-10.006190 20.513235 -0.135440 14
-9.757089 20.071068 -0.818327 29
-9.857680 20.286671 -0.480334 21
-10.374909 19.805658 -0.776869 15
-10.505771 20.063633 -0.438813 17
-9.688893 20.108515 -0.818474 24
-9.787019 20.320854 -0.480334 18
-10.232564 19.669750 -1.111554 39
-10.313083 19.855944 -0.777425 19
-10.431986 20.093082 -0.438658 19
-9.613475 20.131392 -0.818034 26
-9.719472 20.362112 -0.480504 19
-10.147360 19.673395 -1.109752 33
-10.229068 19.863390 -0.776314 20
-10.352633 20.111597 -0.438271 20
-10.450157 20.376352 -0.091926 30
-9.543144 20.164825 -0.818034 24
-9.646626 20.392300 -0.480419 18
-10.352924 20.236738 -1.489883 11
-10.064074 19.680241 -1.108149 23
-10.167047 19.913162 -0.776869 20
-10.284251 20.151140 -0.438348 20
-10.373223 20.402164 -0.091878 30
-9.569862 20.415188 -0.480164 3
-10.265424 20.240995 -1.487529 10
-9.991128 19.708416 -1.107749 26
-10.101086 19.955664 -0.777147 21
-10.204820 20.169073 -0.437961 21
-10.289340 20.413246 -0.091766 29
-10.832301 19.935678 -0.396030 2
-10.178571 20.244610 -1.485174 19
-9.936624 19.771727 -1.109351 30
-10.033061 19.985477 -0.777008 22
-10.134294 20.195654 -0.437806 21
-10.234111 20.472300 -0.091878 29
-10.649598 19.747314 -0.736436 16
-10.762337 19.964449 -0.395890 19
-10.095351 20.246103 -1.482820 17
-9.874568 19.811720 -1.109752 25
-9.959527 20.013294 -0.776730 22
-10.068987 20.241693 -0.438038 19
-10.145252 20.471848 -0.091718 33
-10.571810 19.766401 -0.735780 15
-10.693280 20.001522 -0.395890 14
-10.041302 20.313046 -1.485174 12
-10.066309 20.372166 -1.139193 6
-9.887838 20.044352 -0.776591 22
-9.994731 20.269545 -0.437883 20
-10.071966 20.503546 -0.091701 28
-10.497128 19.792589 -0.735386 12
-10.606538 20.006926 -0.395262 13
-9.887944 20.188328 -1.126976 2
-9.819567 20.082336 -0.776730 22
-9.922160 20.300716 -0.437806 20
-10.427976 19.829109 -0.735386 14
-10.534775 20.040287 -0.395192 19
-9.747758 20.112846 -0.776591 22
-9.854784 20.342396 -0.437961 21
-10.305935 19.692413 -1.071488 7
-10.354592 19.858511 -0.735124 15
-10.466158 20.080717 -0.395262 19
-9.682684 20.157560 -0.777008 22
-9.780253 20.369461 -0.437806 21
-10.207689 19.671526 -1.068407 24
-10.274194 19.873226 -0.734336 17
-10.390491 20.106470 -0.395053 20
-9.607107 20.180408 -0.776591 19
-9.709091 20.403477 -0.437806 23
-10.435001 20.274065 -1.450557 1
-10.118855 19.667957 -1.066288 18
-10.210232 19.919643 -0.734730 22
-10.329362 20.160414 -0.395402 19
-9.543450 20.219431 -0.776869 20
-9.649850 20.453674 -0.438193 8
-10.329647 20.233868 -1.445224 4
-10.059111 19.712038 -1.066866 19
-10.392830 20.374376 -0.047903 8
-10.146340 19.956747 -0.734861 21
-10.261088 20.190762 -0.395332 21
-9.471120 20.249001 -0.776730 19
-10.235519 20.223499 -1.441923 6
-9.997456 19.761292 -1.067636 22
-10.318037 20.403391 -0.047886 9
-10.267653 20.362629 -1.802791 25
-10.073017 19.984903 -0.734599 22
-10.185148 20.215742 -0.395122 20
-10.727668 19.770281 -0.695090 6
-10.148752 20.226994 -1.439637 7
-9.928415 19.796068 -1.067636 21
-10.241375 20.428555 -0.047861 11
-10.107366 20.220007 -1.787029 29
-10.006769 20.027096 -0.734861 21
-10.114520 20.251171 -0.395122 21
-10.651035 19.793512 -0.694596 25
-10.765180 20.013702 -0.353030 12
-10.069146 20.244450 -1.438367 7
-9.864505 19.841379 -1.068214 23
-10.175220 20.474987 -0.047886 12
-10.071753 20.326813 -1.793334 26
-9.934615 20.058525 -0.734730 21
-10.043317 20.286579 -0.395122 22
-10.564939 19.798824 -0.693484 15
-10.691489 20.044100 -0.352905 17
-10.016071 20.315279 -1.440907 4
-9.895857 20.079967 -1.079193 6
-10.110757 20.524734 -0.047920 13
-9.864537 20.093081 -0.734730 21
-9.967156 20.310741 -0.394913 26
-10.488284 19.821447 -0.692990 18
-10.625196 20.088369 -0.353030 15
-9.822197 20.107208 -1.078808 3
-10.433430 19.790203 -1.035473 17
-9.789092 20.116608 -0.734336 21
-9.894449 20.341812 -0.394843 22
-10.413445 19.847322 -0.692619 17
-10.540157 20.096996 -0.352533 15
-10.273748 19.652903 -1.026411 20
-9.720779 20.154144 -0.734468 20
-9.825374 20.379707 -0.394913 24
-10.351482 19.897739 -0.693114 18
-10.462561 20.119471 -0.352284 16
-10.190374 19.660265 -1.024932 17
-9.653818 20.195168 -0.734730 21
-9.754175 20.413879 -0.394913 24
-10.269134 19.908878 -0.692249 19
-10.395932 20.162979 -0.352408 16
-10.386751 20.203197 -1.401359 3
-10.125338 19.702824 -1.025302 19
-9.579842 20.221518 -0.734468 20
-9.689704 20.462263 -0.395192 5
-10.401016 20.330036 -1.761158 18
-10.197768 19.941036 -0.692125 20
-10.321838 20.192026 -0.352284 13
-10.288820 20.186052 -1.397665 6
-10.072659 19.770176 -1.026966 21
-9.512362 20.262180 -0.734730 21
-10.317359 20.341322 -1.759005 26
-10.129907 19.980078 -0.692249 19
-10.251292 20.227934 -0.352284 13
-10.196689 20.179085 -1.394710 7
-10.001785 19.801649 -1.026781 22
-10.333662 20.467257 -0.004002 22
-9.441576 20.295261 -0.734730 23
-10.776042 19.795519 -0.653180 14
-10.206876 20.298824 -1.752239 15
-10.058306 20.011744 -0.692125 19
-10.177031 20.256447 -0.352160 14
-10.129765 20.221693 -1.395202 9
-9.934393 19.840014 -1.026966 26
-10.265736 20.510357 -0.004003 32
-10.701179 19.822458 -0.652832 25
-10.087887 20.237974 -1.743934 23
-9.977680 20.025269 -0.691384 21
-10.100919 20.281103 -0.351973 14
-10.061042 20.260431 -1.395449 8
-9.863468 19.870907 -1.026781 24
-10.208495 20.574636 -0.004009 37
-10.605787 19.810188 -0.651210 15
-10.735940 20.084562 -0.310053 6
-10.047215 20.333849 -1.749163 10
-9.913030 20.070728 -0.691755 20
-10.030063 20.316238 -0.351973 13
-10.029049 20.374229 -1.400867 5
-9.795810 19.908802 -1.026966 22
-10.530948 19.836494 -0.650862 16
-10.663894 20.118382 -0.309999 21
-9.848183 20.115982 -0.692125 20
-9.959085 20.351126 -0.351973 15
-9.733262 19.957239 -1.027706 9
-10.367832 19.686945 -0.987025 24
-10.461641 19.873135 -0.650862 19
-10.567551 20.105917 -0.309236 16
-9.779651 20.153833 -0.692249 20
-9.882749 20.374971 -0.351787 14
-10.302749 19.730101 -0.987379 23
-10.390358 19.905987 -0.650746 20
-10.486213 20.121401 -0.308910 13
-9.702310 20.173435 -0.691755 21
-9.818499 20.423761 -0.352036 14
-10.233815 19.765944 -0.987379 20
-10.326323 19.952787 -0.651094 22
-10.421420 20.168543 -0.309073 15
-9.630112 20.203571 -0.691631 19
-9.740265 20.443468 -0.351787 15
-10.424141 20.231840 -1.360130 1
-10.153807 19.780216 -0.986316 22
-10.254786 19.985153 -0.650978 24
-10.356534 20.215420 -0.309236 15
-9.564678 20.247896 -0.692002 21
-10.367760 20.288073 -1.713114 13
-10.318765 20.200634 -1.355596 7
-10.087787 19.822935 -0.986670 24
-10.182567 20.017561 -0.650862 23
-10.284095 20.247883 -0.309182 18
-9.500722 20.295643 -0.692496 22
-10.831443 19.784880 -0.610340 15
-10.284259 20.299232 -1.711015 20
-10.235560 20.211596 -1.353926 8
-10.014931 19.850891 -0.986316 23
-10.114430 20.056553 -0.650978 26
-10.224147 20.305092 -0.309509 13
-9.423089 20.314177 -0.692002 22
-10.760406 19.819054 -0.610232 19
-10.166792 20.242332 -1.703217 10
-10.163156 20.243633 -1.353687 9
-9.945577 19.885729 -0.986316 26
-10.037207 20.077431 -0.650515 22
-10.138862 20.312056 -0.309073 16
-10.257805 20.558998 0.040101 19
-9.350439 20.343319 -0.691878 14
-10.691208 19.856468 -0.610232 21
-10.080141 20.245527 -1.700518 19
-10.106752 20.307537 -1.355596 11
-9.878149 19.923769 -0.986493 22
-9.962030 20.101452 -0.650167 24
-10.064350 20.340153 -0.308964 17
-10.185978 20.594679 0.040101 7
-10.614297 19.879557 -0.609800 22
-10.030594 20.323513 -1.704116 6
-10.042871 20.357016 -1.356551 5
-9.808542 19.958130 -0.986493 24
-9.893566 20.139692 -0.650283 23
-9.998572 20.385933 -0.309127 16
-10.415363 19.663939 -0.944306 19
-10.539227 19.905886 -0.609475 22
-10.646570 20.182461 -0.266844 29
-9.738815 19.992247 -0.986493 24
-9.823205 20.174105 -0.650283 23
-9.923800 20.413542 -0.309018 16
-10.346687 19.700161 -0.944306 16
-10.469726 19.942528 -0.609475 21
-10.552187 20.173307 -0.266236 24
-9.754755 20.211731 -0.650399 24
-9.850746 20.444456 -0.308964 17
-10.272320 19.725523 -0.943797 16
-10.400050 19.978952 -0.609475 23
-10.483546 20.213568 -0.266283 24
-9.685868 20.249264 -0.650515 25
-9.768981 20.457062 -0.308637 5
-10.199736 19.754158 -0.943458 16
-10.319243 19.993814 -0.608826 22
-10.078137 19.590923 -1.274168 7
-10.403778 20.232254 -0.266049 25
-9.618552 20.290176 -0.650746 28
-10.125200 19.778997 -0.942949 21
-10.254757 20.040442 -0.609150 20
-10.909602 19.797985 -0.568242 2
-10.356067 20.297689 -1.669369 9
-10.330402 20.255854 -1.315047 5
-10.341706 20.286503 -0.266283 25
-9.550475 20.331144 -0.650978 25
-10.068758 19.839167 -0.944136 21
-10.179314 20.065416 -0.608826 18
-10.844263 19.842964 -0.568443 26
-10.279750 20.323036 -1.668493 11
-10.214587 20.202698 -1.309273 8
-10.261810 20.304630 -0.266049 26
-9.471011 20.346233 -0.650399 27
-9.990463 19.856342 -0.943288 23
-10.103821 20.090111 -0.608501 20
-10.767310 19.866634 -0.568041 38
-10.155101 20.251812 -1.659725 20
-10.138637 20.227520 -1.308580 10
-10.192662 20.343903 -0.266096 22
-9.394908 20.368279 -0.650051 15
-9.933633 19.916101 -0.944475 26
-10.035512 20.128788 -0.608609 19
-10.684983 19.879261 -0.567337 25
-10.075853 20.269083 -1.658264 24
-10.082609 20.291185 -1.310428 8
-10.114940 20.364796 -0.265909 24
-9.855196 19.932743 -0.943627 20
-9.966960 20.167280 -0.608718 18
-10.483750 19.661283 -0.902717 6
-10.619287 19.923496 -0.567538 28
-10.032892 20.369244 -1.313199 1
-10.043792 20.399979 -0.265909 24
-9.785558 19.967022 -0.943627 24
-9.891226 20.191175 -0.608393 18
-10.443078 19.750757 -0.905146 85
-10.536597 19.935696 -0.566834 30
-9.974276 20.438509 -0.265956 22
-10.652501 20.252201 -0.223661 8
-9.721011 20.011856 -0.944136 24
-9.824129 20.232798 -0.608609 18
-10.342376 19.726992 -0.902393 43
-10.468633 19.975983 -0.566935 30
-9.900895 20.469713 -0.265909 26
-10.565097 20.257343 -0.223309 28
-9.644163 20.031263 -0.943458 18
-9.753444 20.266966 -0.608609 18
-10.271609 19.759428 -0.902231 41
-10.393309 20.001759 -0.566633 32
-10.147886 19.616068 -1.234772 3
-10.490646 20.286993 -0.223231 29
-9.686082 20.308107 -0.608826 17
-10.198912 19.788055 -0.901907 51
-10.327088 20.045027 -0.566834 26
-10.420660 20.308529 -1.628180 8
-10.090255 19.672710 -1.236111 34
-10.408806 20.302139 -0.222996 27
-9.608348 20.327311 -0.608393 22
-10.956681 19.846287 -0.526328 17
-10.135380 19.834139 -0.902393 46
-10.246311 20.059500 -0.566231 30
-10.311716 20.270100 -1.622203 11
-10.005231 19.675772 -1.234102 21
-10.325188 20.313391 -0.222723 24
-9.537334 20.360725 -0.608393 20
-10.864291 19.842321 -0.525214 10
-10.069696 19.876528 -0.902717 55
-10.181647 20.105846 -0.566533 29
-10.235507 20.295284 -1.621349 15
-10.172002 20.177753 -1.263352 9
-10.256018 20.352880 -0.222762 25
-9.464520 20.390266 -0.608285 9
-10.796871 19.883638 -0.525307 9
-9.991284 19.893698 -0.901907 49
-10.098845 20.116247 -0.565829 29
-10.125272 20.243494 -1.614519 31
-10.113937 20.229248 -1.264469 11
-10.177731 20.365316 -0.222527 29
-10.715772 19.891130 -0.524564 9
-9.932504 19.940973 -0.902555 60
-10.035779 20.156719 -0.566030 28
-10.059864 20.289438 -1.615373 11
-10.071638 20.321684 -1.268041 8
-10.108356 20.404303 -0.222566 30
-10.540916 19.723303 -0.863022 27
-10.646274 19.928415 -0.524564 9
-9.853989 19.957603 -0.901745 55
-9.967128 20.195213 -0.566131 34
-10.030018 20.425102 -0.222410 27
-10.451417 19.721128 -0.861326 25
-10.578517 19.968988 -0.524657 9
-9.787778 19.999058 -0.902069 54
-9.898330 20.233475 -0.566231 30
-9.965698 20.474358 -0.222566 26
-10.371170 19.736361 -0.860400 26
-10.502922 19.995302 -0.524378 8
-9.715747 20.029709 -0.901907 46
-9.825418 20.264536 -0.566131 30
-9.892430 20.505417 -0.222527 13
-10.304061 19.775986 -0.860554 26
-10.434909 20.035389 -0.524471 9
-9.650967 20.074306 -0.902393 47
-9.751158 20.291502 -0.565930 32
-10.174614 19.600344 -1.192153 5
-10.515554 20.265516 -0.179320 13
-10.242305 19.826038 -0.861171 27
-10.355735 20.053926 -0.524007 9
-9.690584 20.347076 -0.566533 33
-10.452438 20.300148 -1.584631 4
-10.126240 19.674805 -1.194525 47
-10.444751 20.302099 -0.179320 20
-10.176817 19.868715 -0.861480 26
-10.293139 20.104099 -0.524378 10
-9.614726 20.369768 -0.566231 35
-10.349323 20.272299 -1.579646 7
-10.034393 19.663530 -1.191721 33
-10.372553 20.334591 -0.179289 20
-10.109210 19.907682 -0.861634 35
-10.217469 20.129210 -0.524100 10
-9.540175 20.395962 -0.566030 36
-10.267685 20.286938 -1.577985 7
-9.956678 19.680616 -1.190643 27
-10.315949 20.399229 -0.179540 23
-10.044936 19.944666 -0.861788 30
-10.143470 20.148693 -0.523728 10
-10.166342 20.253117 -1.572723 12
-10.102729 20.134787 -1.216086 16
-10.232107 20.401148 -0.179257 20
-9.969953 19.968853 -0.861326 31
-10.071360 20.180365 -0.523636 10
-10.085100 20.266953 -1.571061 9
-10.077053 20.259235 -1.221477 13
-10.155706 20.425888 -0.179163 23
-9.898415 19.999950 -0.861171 30
-9.997310 20.208229 -0.523450 10
-10.074312 20.423710 -1.580477 5
-10.048666 20.380264 -1.226652 2
-10.087882 20.468388 -0.179226 22
-9.826780 20.030792 -0.861017 33
-9.930230 20.250183 -0.523636 11
-10.012860 20.496288 -0.179163 27
-9.758298 20.077576 -0.861480 28
-9.860868 20.297388 -0.523914 10
-9.931460 20.522526 -0.179069 5
-9.686419 20.107916 -0.861326 29
-9.786487 20.324480 -0.523728 10
-9.617963 20.136320 -0.861171 29
-9.715589 20.349604 -0.523543 11
-9.546149 20.166042 -0.861017 20
-9.646525 20.386858 -0.523636 10
-9.570210 20.409544 -0.523357 5