# This PCD file was generated using the MATLAB® pcwrite function
# from Computer Vision Toolbox®.
# .PCD v.7 - Point Cloud Data file format
VERSION .7
FIELDS x y z intensity
SIZE 4 4 4 1
TYPE F F F U
COUNT 1 1 1 1
WIDTH 396
HEIGHT 1
VIEWPOINT 0 0 0 1 0 0 0
POINTS 396
DATA ascii
-8.876648 24.380445 -0.552555 21
-8.783360 24.388706 -0.552044 25
-8.700858 24.426752 -0.552214 24
-8.614211 24.453203 -0.552129 27
-8.446239 24.232994 -0.941010 27
-8.515645 24.445358 -0.551277 50
-8.368439 24.268427 -0.941304 27
-8.441050 24.492367 -0.551703 31
-8.451453 24.680614 -0.154808 15
-8.278925 24.282217 -0.940717 27
-8.349513 24.502600 -0.551277 33
-8.358470 24.662905 -1.757020 1
-8.341532 24.626410 -1.353543 4
-8.362685 24.702387 -0.154761 17
-8.196668 24.318542 -0.941010 32
-8.258825 24.516436 -0.550936 30
-8.254580 24.638952 -1.753250 25
-8.090637 24.162951 -1.326510 29
-8.276406 24.731428 -0.154761 20
-8.104149 24.324253 -0.940131 27
-8.171933 24.541321 -0.550851 31
-8.162278 24.648664 -1.751903 16
-8.107889 24.498226 -1.343354 14
-8.188710 24.756390 -0.154737 23
-9.256336 25.374681 0.306435 11
-8.016280 24.344934 -0.939838 26
-8.088259 24.577446 -0.551022 31
-8.865637 24.440842 -0.503748 22
-8.014122 24.487356 -1.738440 7
-8.024809 24.533974 -1.343769 14
-8.103487 24.788626 -0.154761 26
-9.166348 25.403076 0.306389 7
-7.934963 24.384172 -0.940278 32
-7.997471 24.590317 -0.550681 28
-8.766762 24.433996 -0.502973 23
-7.944561 24.564547 -1.741940 6
-7.962463 24.634054 -1.347721 5
-8.015679 24.812954 -0.154737 29
-7.844903 24.396500 -0.939691 28
-7.907916 24.606663 -0.550425 32
-8.682755 24.468218 -0.503051 24
-7.930234 24.844593 -0.154761 28
-7.759696 24.423735 -0.939691 30
-7.826815 24.649363 -0.550766 31
-8.534269 24.305704 -0.895073 27
-8.594645 24.490831 -0.502896 22
-7.833838 24.841606 -0.154571 29
-7.670803 24.439232 -0.939252 22
-7.737134 24.665085 -0.550511 32
-8.436263 24.297583 -0.893684 29
-8.506480 24.513126 -0.502741 25
-7.648623 24.684303 -0.550340 35
-8.337119 24.285292 -0.892156 19
-8.418266 24.535105 -0.502586 23
-8.442066 24.726360 -0.104884 18
-7.558901 24.699379 -0.550085 30
-8.334859 24.493176 -1.695772 11
-8.257436 24.329388 -0.892712 23
-8.324863 24.541616 -0.502121 25
-8.349308 24.736729 -0.104804 33
-7.466853 24.706474 -0.549659 28
-8.290035 24.643181 -1.704144 37
-8.135384 24.196926 -1.279789 56
-8.177983 24.360426 -0.892851 27
-8.247251 24.580462 -0.502353 26
-8.271032 24.775661 -0.104852 32
-7.388315 24.742594 -0.549914 10
-8.184328 24.598577 -1.699173 37
-8.045014 24.193445 -1.278187 40
-8.092721 24.388884 -0.892851 26
-8.153733 24.586363 -0.501888 27
-9.264387 25.307186 0.357494 12
-8.176237 24.777624 -0.104740 33
-8.066915 24.528109 -1.692371 17
-8.056300 24.509495 -1.293408 20
-8.005047 24.409386 -0.892573 27
-8.071598 24.626076 -0.502121 29
-9.184163 25.361935 0.357813 18
-8.088457 24.802210 -0.104724 39
-8.813526 24.439402 -0.453483 20
-7.972610 24.529547 -1.690540 16
-7.985507 24.583061 -1.295812 13
-7.922258 24.444786 -0.892851 25
-7.979426 24.635077 -0.501733 25
-8.001832 24.830294 -0.104724 39
-8.726820 24.466251 -0.453414 35
-7.834689 24.464598 -0.892573 27
-7.891100 24.655113 -0.501578 27
-7.905914 24.831617 -0.104611 37
-8.578485 24.308865 -0.846140 23
-8.642865 24.504517 -0.453553 34
-7.742008 24.468929 -0.891740 25
-7.806196 24.686321 -0.501656 28
-8.858146 25.287004 0.355425 4
-8.477771 24.293365 -0.844565 26
-8.546739 24.504326 -0.452995 32
-7.656549 24.495806 -0.891740 22
-7.715207 24.698151 -0.501346 27
-8.381184 24.288799 -0.843384 19
-8.465062 24.545353 -0.453204 28
-7.576827 24.541500 -0.892434 24
-7.628906 24.724943 -0.501346 25
-8.299212 24.325378 -0.843647 19
-8.373188 24.555719 -0.452855 31
-7.542553 24.751423 -0.501346 27
-8.291714 24.447981 -1.642288 6
-8.183132 24.141182 -1.228851 6
-8.379789 24.735027 -0.054697 7
-8.212973 24.350410 -0.843516 21
-8.287421 24.584797 -0.452855 28
-7.453804 24.769941 -0.501191 10
-8.253275 24.616816 -1.651685 17
-8.108970 24.199905 -1.230392 29
-8.279425 24.722406 -0.054605 14
-8.127924 24.378931 -0.843516 25
-8.197761 24.602194 -0.452646 29
-8.152227 24.600004 -1.648637 17
-8.005604 24.171173 -1.227502 19
-8.195591 24.758751 -0.054622 17
-9.273631 25.383934 0.410387 7
-8.047781 24.422342 -0.844041 30
-8.108080 24.619263 -0.452436 27
-8.024062 24.499327 -1.640003 7
-7.979599 24.377434 -1.236555 10
-8.114091 24.802414 -0.054655 18
-7.962482 24.450285 -0.844041 29
-8.024570 24.655022 -0.452576 26
-8.806440 24.493839 -0.404350 8
-7.951385 24.552385 -1.641780 7
-7.972537 24.631834 -1.248112 7
-8.035492 24.840603 -0.054680 22
-7.880133 24.472750 -0.843909 29
-7.936640 24.662460 -0.452227 30
-8.645469 24.299528 -0.797019 9
-8.714212 24.505579 -0.404039 27
-7.945315 24.856995 -0.054655 22
-8.921797 25.221420 0.406257 5
-7.794228 24.496050 -0.843778 28
-7.852572 24.693554 -0.452297 27
-8.555286 24.314472 -0.796525 27
-8.615351 24.498117 -0.403418 20
-7.703878 24.507853 -0.843253 29
-7.763931 24.713182 -0.452157 31
-8.461164 24.317755 -0.795660 22
-8.519274 24.497822 -0.402921 17
-7.617097 24.530777 -0.843122 31
-7.675248 24.732494 -0.452017 30
-8.374954 24.343351 -0.795536 18
-8.437593 24.538761 -0.403107 15
-8.294542 24.228086 -1.185274 14
-7.536781 24.576481 -0.843778 29
-7.588318 24.759304 -0.452017 27
-8.291217 24.376223 -0.795660 18
-8.353173 24.571852 -0.403170 18
-8.341628 24.632471 -1.604298 1
-8.189425 24.196335 -1.182315 23
-7.496053 24.766500 -0.451668 9
-8.207352 24.408806 -0.795783 23
-8.267350 24.600861 -0.403170 18
-8.215038 24.540289 -1.596417 10
-8.092236 24.186882 -1.180465 19
-8.301079 24.824888 -0.004569 23
-8.120059 24.416918 -0.795166 23
-8.185723 24.628141 -0.403170 18
-8.134830 24.571199 -1.596663 20
-8.006919 24.198425 -1.179726 22
-8.218659 24.852295 -0.004569 50
-8.410606 25.447014 0.406986 6
-8.033530 24.441315 -0.795042 25
-8.098457 24.652765 -0.403107 19
-8.014247 24.493200 -1.589767 8
-9.179454 25.302412 0.460423 6
-7.927370 24.241417 -1.180465 24
-8.129374 24.873228 -0.004567 47
-7.943225 24.453999 -0.794548 25
-8.011119 24.677078 -0.403045 17
-7.937299 24.547617 -1.591491 5
-7.851304 24.295557 -1.181760 11
-8.041270 24.897648 -0.004566 42
-8.698157 24.329004 -0.748776 12
-8.743234 24.504505 -0.354214 2
-7.862731 24.496796 -0.795042 24
-7.922471 24.697281 -0.402921 19
-7.836571 24.543703 -1.192486 5
-7.952674 24.921888 -0.004566 22
-8.600553 24.325516 -0.747733 32
-8.658975 24.538647 -0.354269 27
-7.771131 24.505037 -0.794424 24
-7.827754 24.698097 -0.402486 19
-8.865970 25.261414 0.457960 2
-8.512949 24.347841 -0.747501 31
-8.564042 24.542290 -0.353887 22
-7.686740 24.535830 -0.794548 22
-7.743885 24.732904 -0.402610 18
-8.429898 24.369810 -1.143906 3
-8.429214 24.381187 -0.747617 36
-8.475837 24.551735 -0.353615 22
-7.605275 24.561203 -0.794548 26
-7.658313 24.746975 -0.402424 17
-8.299820 24.249754 -1.136993 35
-8.344481 24.393414 -0.747153 37
-8.390084 24.581173 -0.353615 20
-7.515986 24.576130 -0.794177 20
-7.573052 24.777382 -0.402486 20
-8.207437 24.255867 -1.135929 32
-8.255440 24.411030 -0.746806 33
-8.305508 24.614100 -0.353670 22
-7.430154 24.602217 -0.794177 17
-8.264297 24.585909 -1.550071 9
-8.115112 24.261629 -1.134866 30
-8.171447 24.443491 -0.746922 31
-8.218586 24.639042 -0.353615 22
-8.153984 24.542786 -1.545537 8
-8.441838 25.452650 0.458713 8
-8.025035 24.278948 -1.134334 28
-8.081857 24.464836 -0.746690 34
-8.134329 24.658564 -0.353506 17
-8.202260 24.878731 0.045721 23
-9.175601 25.183668 0.509967 5
-8.063828 24.543137 -1.543867 10
-7.946962 24.313023 -1.134688 30
-7.999442 24.487701 -0.746574 31
-8.049444 24.690611 -0.353561 17
-8.119085 24.918621 0.045742 28
-8.770151 24.321627 -0.699603 11
-9.086282 25.211781 0.509891 2
-7.973175 24.555944 -1.542912 9
-7.864501 24.348221 -1.135043 28
-7.913916 24.515476 -0.746574 31
-7.959215 24.707237 -0.353397 18
-8.022050 24.916412 0.045686 20
-8.680107 24.336927 -0.699170 20
-7.844237 24.572973 -1.144261 9
-7.828790 24.538595 -0.746458 26
-7.870496 24.727247 -0.353288 18
-8.592443 24.359535 -0.698954 22
-8.054817 25.451942 0.456661 8
-8.626282 24.572025 -0.304544 27
-7.730769 24.512552 -1.140184 5
-7.740683 24.558147 -0.746226 28
-7.781734 24.746939 -0.353180 22
-8.497635 24.348549 -1.094398 1
-8.503408 24.378056 -0.698629 22
-8.811653 25.275192 0.509282 2
-8.536522 24.590652 -0.304404 32
-7.656100 24.588835 -0.746342 29
-7.693180 24.766235 -0.353071 21
-8.355102 24.211884 -1.086935 26
-8.415432 24.400105 -0.698413 26
-8.444368 24.605536 -0.304217 34
-7.566519 24.608183 -0.746110 31
-7.608662 24.783964 -0.352962 13
-8.272183 24.231894 -1.086596 18
-8.334473 24.427877 -0.698413 29
-8.362727 24.633402 -0.304217 31
-7.477900 24.610186 -0.745415 32
-8.182437 24.245476 -1.085918 20
-8.247874 24.453032 -0.698305 30
-8.235835 24.526945 -1.496345 8
-8.274144 24.654860 -0.304123 33
-7.397694 24.655287 -0.745995 28
-8.085201 24.235949 -1.084222 18
-8.158836 24.470240 -0.697980 28
-8.134534 24.506035 -1.493343 10
-8.192603 24.694717 -0.304263 32
-8.006810 24.282999 -1.085070 22
-8.072119 24.494772 -0.697872 28
-9.180995 25.240192 0.562597 15
-8.043963 24.519104 -1.492419 9
-8.101368 24.707962 -0.304076 34
-8.176229 24.950302 0.096233 22
-7.925713 24.322201 -1.085579 25
-7.984090 24.515196 -0.697656 25
-8.764334 24.346352 -0.650467 30
-7.967940 24.562752 -1.891776 24
-9.058987 25.178013 0.560503 15
-7.965716 24.569824 -1.493804 8
-8.006441 24.709455 -0.303749 30
-8.082924 24.959663 0.096160 13
-7.837063 24.338314 -1.085070 28
-7.898421 24.542931 -0.697656 29
-8.188440 25.458712 0.508826 2
-8.673769 24.361786 -0.650065 28
-7.921136 24.741135 -0.303796 35
-7.753270 24.369331 -1.085239 18
-7.813914 24.574163 -0.697764 25
-8.592662 24.403229 -0.650367 31
-7.833519 24.764820 -0.303749 30
-8.639288 24.678236 -0.255562 20
-7.697595 24.474966 -1.088801 7
-7.727584 24.584682 -0.697331 29
-8.462809 24.278214 -1.041646 26
-8.509059 24.424036 -0.650166 31
-8.810889 25.304016 0.561257 5
-7.752547 24.794477 -0.303796 33
-8.530837 24.643990 -0.254898 34
-7.639396 24.603855 -0.697115 29
-8.362524 24.262215 -1.039703 89
-8.414797 24.427069 -0.649462 35
-7.662633 24.809855 -0.303655 13
-9.587912 25.348206 0.619738 11
-8.440876 24.662266 -0.254781 27
-7.556983 24.641840 -0.697439 31
-8.262312 24.245861 -1.037760 58
-8.332058 24.463863 -0.649663 34
-9.524602 25.448935 0.621384 7
-8.323159 24.584776 -1.451136 3
-8.350891 24.680212 -0.254663 28
-7.468603 24.660414 -0.697223 34
-8.178905 24.278341 -1.037922 60
-8.246613 24.492800 -0.649663 33
-8.252394 24.645006 -1.853865 28
-8.208172 24.526562 -1.446000 7
-8.260897 24.697828 -0.254546 30
-7.380138 24.678686 -0.697006 35
-8.091439 24.299206 -1.037598 56
-8.154590 24.502520 -0.649161 35
-8.168823 24.681238 -1.854434 18
-8.106202 24.505772 -1.443098 12
-8.172124 24.718918 -0.254468 33
-7.298478 24.719637 -0.697439 13
-8.908215 24.406065 -0.603202 10
-7.997824 24.300728 -1.036465 58
-8.065262 24.519440 -0.648859 30
-8.015637 24.504826 -1.839066 32
-9.102322 25.118652 0.610959 5
-8.025576 24.549103 -1.443991 12
-8.088273 24.754898 -0.254546 37
-8.797165 24.365547 -0.601438 16
-7.915422 24.336100 -1.036788 70
-7.979624 24.547443 -0.648859 30
-7.948523 24.589582 -1.843335 27
-9.022748 25.172834 0.611508 12
-7.959519 24.637760 -1.447563 4
-7.998142 24.771557 -0.254429 39
-8.701194 24.366016 -0.600695 15
-7.830244 24.363638 -1.036788 59
-7.894905 24.579021 -0.648960 33
-7.905546 24.780272 -0.254233 40
-8.612092 24.384930 -0.600417 15
-7.740313 24.375586 -1.036141 59
-7.803011 24.587374 -0.648457 32
-8.061994 25.418259 0.558576 6
-7.822125 24.802536 -0.254194 40
-8.475832 24.241867 -0.991049 16
-8.535139 24.424679 -0.600695 14
-7.658241 24.397306 -1.035979 18
-7.722631 24.616930 -0.648557 31
-7.957320 25.379982 0.557152 15
-7.735457 24.829702 -0.254194 31
-8.395308 24.282558 -0.991512 27
-8.448823 24.450441 -0.600603 14
-7.639601 24.651196 -0.648759 37
-8.495065 24.703342 -0.205175 39
-8.297566 24.273893 -0.989969 36
-8.366009 24.487352 -0.600788 13
-7.546484 24.654772 -0.648155 39
-8.389469 24.676041 -0.204704 24
-8.210225 24.295137 -0.989661 33
-8.279202 24.512617 -0.600695 13
-7.455748 24.665653 -0.647753 40
-8.294312 24.651476 -1.805073 15
-8.214068 24.426350 -1.391168 72
-8.298185 24.690010 -0.204578 19
-8.125139 24.323725 -0.989661 36
-8.185687 24.518709 -0.600138 13
-7.369024 24.691700 -0.647753 40
-8.197352 24.650248 -1.802857 16
-8.146803 24.512011 -1.394403 16
-8.209764 24.715338 -0.204547 24
-8.040184 24.351938 -0.989661 33
-8.101304 24.550930 -0.600231 15
-8.055188 24.508121 -1.790395 11
-8.056204 24.525120 -1.393540 18
-8.134669 24.778048 -0.204830 26
-7.953891 24.376057 -0.989506 35
-8.008117 24.556248 -0.599674 15
-7.976986 24.558861 -1.792057 16
-7.981646 24.587284 -1.395481 13
-8.038253 24.775854 -0.204578 29
-7.867610 24.399841 -0.989352 35
-7.921233 24.580212 -0.599581 14
-7.960603 24.830317 -0.204798 30
-7.778751 24.415730 -0.988889 37
-7.834170 24.603901 -0.599488 14
-7.865425 24.831261 -0.204578 27
-8.020037 25.375835 0.608582 18
-7.698944 24.445204 -0.989044 25
-7.748936 24.618301 -0.599210 15
-7.783039 24.857208 -0.204578 16
-7.933741 25.411327 0.608765 6
-7.586322 24.384127 -0.985496 7
-7.661853 24.641356 -0.599117 15
-7.573444 24.660305 -0.598931 14
-7.487317 24.686590 -0.598931 13
-7.403199 24.720297 -0.599117 12