# This PCD file was generated using the MATLAB® pcwrite function
# from Computer Vision Toolbox®.
# .PCD v.7 - Point Cloud Data file format
VERSION .7
FIELDS x y z intensity
SIZE 4 4 4 1
TYPE F F F U
COUNT 1 1 1 1
WIDTH 484
HEIGHT 1
VIEWPOINT 0 0 0 1 0 0 0
POINTS 484
DATA ascii
0.807314 22.622387 -0.830053 26
0.886276 22.619431 -0.830053 57
0.964975 22.600206 -0.829467 49
1.043490 22.588713 -0.829174 52
1.053521 22.722433 -0.484422 3
1.085652 22.539312 -1.174706 45
1.122730 22.592918 -0.829467 46
1.133030 22.722610 -0.484507 35
1.165344 22.555332 -1.175746 46
1.201795 22.596857 -0.829760 53
1.209969 22.678596 -0.483656 60
1.250096 22.729893 -1.535945 7
1.244290 22.555117 -1.175954 35
1.279877 22.646021 -1.880756 15
1.281571 22.608488 -0.830346 54
1.290259 22.694197 -0.484081 39
1.314281 22.466423 -1.518442 44
1.322780 22.546648 -1.175746 39
1.357008 22.609583 -1.878112 21
1.360481 22.603876 -0.830346 58
1.369710 22.693546 -0.484167 37
1.394424 22.489580 -1.520327 42
1.401227 22.537907 -1.175538 51
1.444514 22.739969 -1.889350 14
1.439629 22.602978 -0.830493 63
1.449681 22.700600 -0.484422 40
0.755193 22.613739 -0.786176 6
1.469775 22.496780 -1.521135 43
1.477524 22.557053 -1.176786 60
1.521776 22.762897 -1.891664 23
1.515645 22.614035 -0.831079 53
1.524683 22.691679 -0.484337 45
0.834567 22.622950 -0.786592 41
1.547473 22.479568 -1.520327 51
1.556804 22.559727 -1.177202 61
1.575935 22.781153 -0.135511 3
1.602063 22.769375 -1.892655 12
1.594855 22.612593 -0.831226 54
1.603883 22.686218 -0.484337 47
0.913315 22.611906 -0.786314 44
1.626821 22.485970 -1.521135 58
1.635816 22.558142 -1.177410 73
1.655100 22.771528 -0.135487 34
1.673101 22.602930 -0.831079 54
1.683231 22.688488 -0.484507 57
0.992415 22.612574 -0.786453 37
1.715457 22.564243 -1.178034 74
1.734273 22.761623 -0.135463 35
1.753225 22.612894 -0.831666 62
1.762108 22.678488 -0.484422 49
1.054579 22.570999 -1.132784 71
1.070963 22.600986 -0.786176 38
1.794211 22.558117 -1.178034 57
1.831826 22.602652 -0.831519 55
1.842231 22.684156 -0.484678 51
1.133160 22.563190 -1.132583 84
1.150351 22.609093 -0.786592 37
1.159935 22.722143 -0.440828 19
1.874611 22.571619 -1.179073 46
1.913452 22.623968 -0.832545 56
1.922164 22.681538 -0.484763 50
1.212283 22.555079 -1.132383 74
1.229482 22.608931 -0.786731 44
1.238372 22.701982 -0.440518 37
1.954078 22.572899 -1.179489 57
1.259396 22.666716 -1.838498 19
1.993465 22.629097 -0.832985 64
2.002380 22.686640 -0.485018 25
1.284933 22.510979 -1.477849 61
1.290779 22.546721 -1.132183 67
1.309087 22.616474 -0.787148 48
1.318073 22.705505 -0.440673 43
2.033935 22.577875 -1.180113 46
1.334279 22.590542 -1.832686 40
2.072079 22.618021 -0.832838 61
1.365193 22.534245 -1.479680 68
1.370685 22.562016 -1.133184 72
1.389250 22.631718 -0.787842 47
1.396585 22.688791 -0.440441 48
2.114224 22.586546 -1.180945 40
1.419102 22.681246 -1.840435 31
2.152910 22.630547 -0.833571 56
0.723501 22.624245 -0.742997 8
1.444865 22.545275 -1.480727 64
1.449689 22.561081 -1.133385 75
1.469276 22.642687 -0.788398 52
1.477073 22.703732 -0.440828 50
2.193825 22.586981 -1.181361 7
1.503785 22.759699 -1.847215 52
2.231500 22.618916 -0.833425 58
0.802895 22.633566 -0.743391 37
1.520862 22.500271 -1.478111 63
1.528163 22.551897 -1.133184 81
1.547214 22.621468 -0.787842 49
1.557136 22.710407 -0.441060 53
1.584052 22.766243 -1.848184 48
0.880651 22.598667 -0.742341 33
1.599677 22.498806 -1.478372 74
1.608294 22.566349 -1.134186 75
1.627662 22.635860 -0.788537 50
1.636725 22.708820 -0.441138 49
1.676189 22.778227 -0.091685 55
0.960118 22.615438 -0.742997 31
1.679384 22.513010 -1.479680 72
1.686729 22.560621 -1.134186 80
1.706064 22.622068 -0.788259 45
1.716586 22.710945 -0.441293 47
1.001738 22.539549 -1.087668 32
1.756920 22.788189 -0.091750 5
1.038872 22.607956 -0.742866 32
1.758580 22.514969 -1.480204 24
1.765470 22.554598 -1.134186 80
1.786592 22.635902 -0.788954 50
1.795537 22.700827 -0.441215 45
1.080792 22.543896 -1.088053 50
1.117782 22.604191 -0.742866 37
1.844190 22.548296 -1.134186 90
1.865536 22.629532 -0.788954 41
1.875717 22.706381 -0.441448 53
1.160354 22.555944 -1.088823 42
1.197572 22.612114 -0.743260 50
1.205659 22.692532 -0.396658 13
1.925590 22.569557 -1.135588 83
1.943831 22.614916 -0.788676 49
1.954965 22.699696 -0.441448 44
1.233354 22.516663 -1.434558 21
1.239958 22.567713 -1.089594 44
1.276141 22.669273 -1.794910 6
1.278749 22.647711 -0.744572 58
1.285768 22.704157 -0.396938 43
2.004361 22.562698 -1.135588 78
2.024542 22.627901 -0.789370 49
1.311015 22.496279 -1.433542 44
1.318727 22.563248 -1.089594 48
1.352407 22.616915 -1.791127 33
1.357796 22.643110 -0.744572 63
1.364532 22.691547 -0.396798 47
2.083107 22.555565 -1.135588 98
2.104565 22.632645 -0.789787 38
1.387596 22.459690 -1.431511 34
1.397040 22.550528 -1.089209 53
1.434861 22.663776 -1.795225 24
1.438103 22.654175 -0.745097 71
1.441478 22.646713 -0.396100 35
2.162159 22.548124 -1.135588 100
2.183939 22.629139 -0.789926 45
1.467547 22.478609 -1.433034 38
1.477574 22.573421 -1.090557 51
1.519813 22.746161 -1.802160 34
1.517439 22.653006 -0.745228 72
1.520521 22.641544 -0.396100 31
2.243620 22.568268 -1.136990 37
0.824001 22.634193 -0.699909 57
1.544540 22.509462 -1.435320 49
1.552148 22.564411 -1.090364 53
1.595512 22.744974 -1.802476 20
1.593112 22.655825 -0.745490 67
1.598407 22.676273 -0.396798 39
0.902434 22.615198 -0.699415 40
1.623242 22.507927 -1.435574 52
1.630933 22.562860 -1.090557 53
0.933033 22.544546 -1.044350 5
1.670946 22.650217 -0.745490 58
1.678560 22.702562 -0.397356 48
0.981197 22.607916 -0.699291 36
1.701799 22.502123 -1.435574 52
1.709984 22.561014 -1.090750 56
1.012439 22.557117 -1.045090 51
1.751232 22.660191 -0.746015 61
1.758106 22.700552 -0.397426 48
1.060857 22.620327 -0.699785 43
1.780336 22.496046 -1.435574 16
1.790621 22.578804 -1.091905 56
1.089627 22.521519 -1.043610 42
1.830320 22.653940 -0.746015 49
1.838626 22.710222 -0.397705 47
1.140748 22.636456 -0.700403 49
1.869353 22.568413 -1.091713 59
1.168729 22.509550 -1.043241 37
1.911298 22.655275 -0.746278 56
1.919577 22.707537 -0.397775 41
1.219327 22.624352 -0.700156 56
1.948808 22.569712 -1.092098 53
1.244217 22.518782 -1.391262 51
1.248621 22.529270 -1.044350 40
1.990368 22.648466 -0.746278 49
1.294894 22.627678 -1.747933 9
1.299438 22.639914 -0.700774 50
1.307183 22.707663 -0.353340 30
2.029009 22.578688 -1.092868 43
1.322347 22.506330 -1.390769 46
1.328901 22.552696 -1.045645 48
2.069050 22.637400 -0.746147 61
1.373667 22.619038 -1.747625 22
1.377501 22.619276 -0.700279 62
1.388625 22.738890 -0.353899 42
2.108871 22.583408 -1.093446 43
1.398747 22.469709 -1.388799 38
1.408419 22.563885 -1.046385 45
2.147794 22.630064 -0.746147 68
1.455171 22.653904 -1.750701 14
1.457476 22.630289 -0.700774 48
1.463609 22.666054 -0.352843 31
2.187304 22.571932 -1.093253 44
1.477696 22.472658 -1.389292 39
1.486911 22.554844 -1.046200 53
1.536125 22.676538 -1.752854 6
1.537545 22.641020 -0.701268 43
1.543534 22.672777 -0.353030 28
2.267279 22.576086 -1.093831 44
1.559166 22.511175 -1.392001 51
1.565356 22.545528 -1.046015 56
0.872795 22.641670 -0.656656 38
1.616508 22.742920 -1.758390 6
1.612373 22.631805 -0.701144 43
1.621536 22.707430 -0.353651 32
1.633919 22.513878 -1.392493 46
1.640451 22.552208 -1.046569 52
0.941852 22.606136 -1.003688 48
0.946124 22.618715 -0.656077 38
1.696805 22.645679 -0.701762 47
1.704752 22.701334 -0.353651 37
1.716122 22.503757 -1.392247 53
1.724316 22.561981 -1.047309 58
1.024521 22.598541 -1.003511 51
1.029383 22.623085 -0.656308 39
1.776781 22.651575 -0.702133 47
1.784611 22.703220 -0.353775 36
1.795300 22.505590 -1.392740 34
1.802743 22.551842 -1.047124 54
1.103008 22.586845 -1.003156 52
1.107955 22.611366 -0.656077 46
1.852187 22.649546 -0.702256 44
1.860230 22.701162 -0.353837 38
1.142937 22.554768 -1.349631 1
1.870880 22.507444 -1.393232 16
1.878521 22.553675 -1.047494 55
1.179278 22.598997 -1.003865 48
1.186232 22.659445 -0.657583 50
1.934849 22.638622 -0.702133 43
1.944103 22.702162 -0.353962 10
1.231134 22.722437 -1.711015 5
1.224946 22.538467 -1.348915 51
1.962210 22.558580 -1.048049 53
1.262323 22.598513 -1.004042 51
1.267709 22.627001 -0.656772 53
2.010618 22.640045 -0.702380 44
1.300753 22.618675 -1.703517 7
1.300140 22.542253 -1.349392 44
2.037725 22.559908 -1.048419 55
1.337019 22.590214 -1.003865 52
1.344632 22.654602 -0.657699 53
1.363768 22.729013 -0.309999 30
2.089252 22.628910 -0.702256 56
1.378561 22.594086 -1.702017 17
1.380137 22.557499 -1.350585 42
2.115532 22.540705 -1.047864 49
1.416920 22.597355 -1.004397 53
1.423529 22.641769 -0.657467 53
1.442845 22.720121 -0.309944 35
2.168993 22.629438 -0.702503 31
1.449203 22.461761 -1.692420 20
1.459127 22.556528 -1.350824 40
2.196911 22.561022 -1.049159 47
1.496055 22.596258 -1.004574 55
1.504144 22.660599 -0.658162 51
1.522679 22.722929 -0.310053 33
1.540865 22.651564 -1.707116 7
1.535954 22.523413 -1.349153 43
2.276052 22.557192 -1.049344 47
1.576033 22.606844 -1.005283 59
1.583513 22.659199 -0.658278 51
1.602208 22.721470 -0.310107 30
0.888098 22.590202 -0.959400 30
1.627117 22.745506 -1.714614 6
1.617808 22.561716 -1.351778 48
2.357045 22.568960 -1.050268 38
1.655828 22.609152 -1.005638 56
1.663517 22.661486 -0.658510 56
1.682102 22.723715 -0.310216 33
0.965751 22.559015 -0.958213 48
0.972146 22.618832 -0.612613 34
1.696553 22.555931 -1.351778 48
1.734127 22.595266 -1.005283 57
1.742303 22.651554 -0.658394 50
1.757447 22.718012 -0.310216 34
1.040369 22.551697 -0.958043 44
1.047333 22.619478 -0.612721 38
1.771654 22.554161 -1.352017 47
1.808727 22.585409 -1.005106 52
1.817729 22.649637 -0.658510 53
1.837610 22.719694 -0.310325 35
1.119559 22.559908 -0.958552 44
1.129061 22.675598 -0.614344 42
1.851628 22.567768 -1.353210 50
1.152257 22.540854 -1.305347 56
1.889726 22.618876 -1.006879 57
1.896202 22.651226 -0.658742 49
1.199149 22.571825 -0.959230 50
1.208206 22.671518 -0.614344 48
1.931073 22.569124 -1.353687 31
1.238333 22.741274 -1.668493 8
1.229843 22.516756 -1.304192 53
1.968669 22.612141 -1.006879 55
1.977343 22.668369 -0.659437 49
1.279789 22.666725 -2.014192 13
1.278836 22.583462 -0.959909 56
1.287337 22.667164 -0.614344 41
1.312860 22.653177 -1.662355 9
1.308202 22.508339 -1.303961 43
2.047228 22.601152 -1.006701 60
2.055736 22.653364 -0.659205 54
1.353927 22.578596 -2.006769 26
1.358977 22.598799 -0.960757 54
1.367380 22.674494 -0.614668 45
1.381720 22.469227 -1.649204 40
1.389622 22.535467 -1.305809 45
1.405543 22.731030 -0.266330 7
2.128387 22.605694 -1.007233 56
2.136418 22.649914 -0.659321 31
1.438361 22.601894 -0.961096 61
1.447030 22.677563 -0.614885 48
1.458591 22.440382 -1.647450 49
1.468796 22.538448 -1.306271 47
1.486184 22.745941 -0.266564 52
2.208060 22.606081 -1.007588 54
1.517783 22.604712 -0.961435 61
1.526986 22.684341 -0.615209 46
1.550546 22.634153 -1.662063 9
1.547735 22.537169 -1.306502 49
1.563925 22.716673 -0.266283 47
2.288163 22.610165 -1.008120 64
1.597492 22.611237 -0.961944 63
1.606105 22.678877 -0.615209 41
0.901166 22.603485 -0.916480 101
1.637637 22.744009 -1.670538 8
1.627306 22.547577 -1.307425 48
1.643237 22.715084 -0.266330 39
2.368014 22.613995 -1.008651 67
1.673350 22.617771 -0.962452 58
1.682189 22.685389 -0.615534 41
0.976117 22.600372 -0.916480 101
0.983531 22.683516 -0.570755 19
1.702368 22.546040 -1.307656 44
1.719761 22.725462 -0.266517 38
1.751981 22.607809 -0.962283 57
1.761675 22.683365 -0.615642 38
1.054255 22.580858 -0.915833 100
1.063079 22.687933 -0.570956 64
1.780744 22.535978 -1.307425 44
1.800340 22.735270 -0.266704 45
1.097909 22.558027 -1.262682 53
1.831185 22.605539 -0.962452 54
1.840155 22.669111 -0.615426 41
1.133541 22.589022 -0.916318 100
1.141516 22.672110 -0.570654 65
1.860528 22.545559 -1.308349 40
1.175812 22.538105 -1.261789 85
1.911765 22.618921 -0.963300 64
1.920961 22.682470 -0.615967 40
1.211741 22.572956 -0.915833 101
1.221079 22.675972 -0.570855 77
1.941269 22.562799 -1.309735 43
1.247888 22.748165 -1.977173 1
1.262307 22.743122 -1.624765 17
1.254921 22.541838 -1.262236 51
1.991409 22.620071 -0.963640 60
2.001180 22.687576 -0.616291 40
1.290985 22.576569 -0.916156 101
1.300684 22.679556 -0.571056 69
2.018592 22.539976 -1.308811 27
1.322178 22.656149 -1.969564 41
1.328716 22.519520 -1.609112 43
1.333806 22.541309 -1.262459 57
2.068194 22.589102 -0.962622 57
2.078943 22.664522 -0.615859 27
1.372094 22.607821 -0.917614 101
1.380234 22.678860 -0.571157 67
1.402495 22.667290 -1.970948 8
1.405573 22.486870 -1.607120 71
1.411733 22.524557 -1.261789 62
2.149301 22.605616 -0.963640 61
1.451001 22.602894 -0.917614 101
1.460417 22.689867 -0.571559 67
1.489670 22.785528 -1.981669 23
1.484584 22.489788 -1.607689 69
1.491668 22.539417 -1.262906 61
1.509110 22.744902 -0.222801 50
2.230157 22.617861 -0.964488 64
0.800229 22.593004 -0.872432 7
1.528272 22.573765 -0.916642 101
1.539340 22.680641 -0.571458 62
1.567554 22.756336 -1.979594 26
1.559872 22.492691 -1.608258 54
1.566229 22.530355 -1.262682 68
1.586235 22.763710 -0.223036 62
2.304251 22.602400 -0.964148 71
0.875396 22.602217 -0.872894 92
1.605202 22.604486 -0.918099 101
1.614863 22.687416 -0.571760 67
1.658671 22.765661 -1.628180 5
1.645156 22.528734 -1.262906 71
1.665685 22.758036 -0.223036 63
0.954287 22.599024 -0.872894 74
1.683502 22.590775 -0.917776 101
1.694047 22.681641 -0.571760 62
1.725005 22.538784 -1.263799 64
1.745421 22.756069 -0.223075 67
1.033167 22.595554 -0.872894 72
1.042163 22.709974 -0.527813 28
1.762038 22.580776 -0.917614 100
1.773522 22.679575 -0.571860 62
1.065671 22.569956 -1.219752 61
1.802966 22.524668 -1.263352 57
1.825778 22.761801 -0.223192 24
1.112367 22.595797 -0.873048 61
1.119043 22.654266 -0.526607 20
1.842772 22.594381 -0.918423 101
1.853344 22.677204 -0.571961 72
1.144545 22.558096 -1.219321 97
1.882911 22.534157 -1.264245 57
1.191234 22.591776 -0.873048 66
1.197481 22.638243 -0.526328 17
1.922985 22.603741 -0.919071 100
1.932831 22.674582 -0.572061 64
1.229988 22.747974 -1.581031 4
1.223713 22.561939 -1.219752 87
1.963984 22.555298 -1.265808 65
1.271416 22.678766 -1.927343 25
1.270536 22.595461 -0.873357 77
1.279423 22.685827 -0.527535 19
2.001170 22.588928 -0.918747 101
2.012675 22.675661 -0.572263 64
1.297001 22.528418 -1.566076 14
1.301540 22.541580 -1.218889 67
2.043065 22.552282 -1.266032 51
1.347017 22.614511 -1.922270 42
1.351069 22.618818 -0.874437 70
1.359081 22.689207 -0.527721 21
2.081474 22.597723 -0.919395 101
1.373199 22.483923 -1.563307 44
1.380705 22.544874 -1.219321 73
1.431217 22.693205 -1.929372 15
1.429007 22.598009 -0.873820 72
1.437767 22.676342 -0.527535 18
2.159961 22.586342 -0.919233 101
1.451417 22.475010 -1.563030 37
1.458877 22.531944 -1.218889 78
1.517041 22.787493 -1.937827 37
1.508412 22.600859 -0.874128 65
1.517715 22.683155 -0.527813 19
2.238790 22.578665 -0.919233 101
1.532029 22.501657 -1.565246 45
1.538607 22.542654 -1.219752 90
1.557135 22.758089 -0.179163 12
1.595570 22.766148 -1.936474 24
1.588009 22.603418 -0.874437 75
1.597928 22.689672 -0.528092 16
2.321194 22.602484 -0.920528 57
1.611654 22.504095 -1.565799 37
1.618424 22.545074 -1.220183 84
1.636896 22.748480 -0.179132 52
1.667488 22.605711 -0.874745 67
1.677710 22.691933 -0.528278 20
1.696211 22.527338 -1.219536 95
1.718701 22.774536 -0.179383 61
1.743979 22.619984 -0.875516 78
1.752950 22.686245 -0.528278 19
1.770592 22.517609 -1.219321 100
1.793586 22.760736 -0.179320 16
1.826796 22.613445 -0.875516 72
1.837922 22.703590 -0.528835 18
1.853810 22.522932 -1.219967 100
1.904455 22.639126 -0.876750 76
1.913536 22.701355 -0.528928 18
1.930534 22.540539 -1.221261 98
1.981724 22.612432 -0.875979 74
1.991367 22.678604 -0.528556 19
2.010977 22.553555 -1.222339 95
2.061595 22.617331 -0.876442 78
2.088452 22.538490 -1.221908 100
2.140908 22.613976 -0.876596 78
2.170172 22.562870 -1.223633 18
2.220614 22.614321 -0.876905 65