# This PCD file was generated using the MATLAB® pcwrite function
# from Computer Vision Toolbox®.
# .PCD v.7 - Point Cloud Data file format
VERSION .7
FIELDS x y z intensity
SIZE 4 4 4 1
TYPE F F F U
COUNT 1 1 1 1
WIDTH 665
HEIGHT 1
VIEWPOINT 0 0 0 1 0 0 0
POINTS 665
DATA ascii
-9.290072 16.747553 -0.407858 0
-9.258543 16.828934 -0.409051 22
-9.166867 16.801641 -0.407603 20
-9.108163 16.833536 -0.407603 18
-8.987641 16.743505 -0.696817 42
-9.049348 16.865229 -0.407603 15
-8.923348 16.764275 -0.696377 40
-9.003394 16.921520 -0.408199 16
-9.027961 17.048874 -0.114480 13
-8.844251 16.756435 -0.694765 38
-8.925611 16.917475 -0.407347 18
-8.827402 16.804895 -0.988176 0
-8.966535 17.076742 -0.114457 16
-8.776439 16.769497 -0.694032 36
-8.875772 16.966246 -0.407773 16
-8.711486 16.725779 -0.981729 16
-8.910565 17.115032 -0.114504 23
-8.732578 16.828415 -0.695204 38
-8.810971 16.986475 -0.407518 19
-9.350805 16.774124 -0.372096 0
-8.656714 16.763184 -0.982145 24
-8.848933 17.142477 -0.114480 24
-8.771336 17.041357 -1.589222 3
-8.677440 16.865904 -0.695498 41
-8.747966 17.010014 -0.407347 19
-9.303806 16.827662 -0.372561 22
-8.734995 17.053509 -1.292789 8
-8.583583 16.764854 -0.980482 19
-8.790863 17.176823 -0.114504 26
-8.686430 17.022161 -1.584595 6
-8.611249 16.881847 -0.694911 49
-8.692169 17.047573 -0.407518 20
-9.230565 16.826908 -0.371864 21
-8.660290 17.046816 -1.290097 7
-8.524342 16.786095 -0.980066 16
-8.730300 17.198713 -0.114457 30
-8.630335 17.050671 -1.584595 7
-8.564687 16.927919 -0.695644 40
-8.632477 17.068914 -0.407347 23
-9.169861 16.855513 -0.371786 19
-8.582780 17.041298 -1.287404 12
-8.472880 16.830019 -0.980898 19
-8.670212 17.229082 -0.114457 34
-8.611884 17.162640 -1.592197 8
-8.501961 16.950567 -0.695351 41
-8.578219 17.109669 -0.407603 19
-9.034026 16.738178 -0.660888 16
-9.109069 16.883900 -0.371709 21
-8.519677 17.064013 -1.286865 11
-8.408730 16.848770 -0.980274 20
-8.606447 17.252083 -0.114409 28
-8.664050 17.374746 0.182989 26
-8.507539 17.103367 -1.583934 8
-8.446300 16.987299 -0.695644 45
-8.513104 17.128763 -0.407347 19
-8.971894 16.762497 -0.660610 32
-9.040722 16.897921 -0.371321 21
-8.465402 17.104364 -1.287673 12
-8.356933 16.892349 -0.981106 22
-8.547880 17.285639 -0.114433 28
-8.599688 17.397770 0.182913 27
-8.449145 17.136734 -1.584264 7
-8.384737 17.013315 -0.695498 44
-8.454530 17.162209 -0.407432 21
-8.905831 16.779587 -0.660054 25
-8.985431 16.936441 -0.371476 21
-8.419706 17.162474 -1.289827 9
-8.287364 16.899899 -0.979858 23
-8.491011 17.322554 -0.114480 28
-8.547705 17.445641 0.183102 31
-8.417281 17.223427 -1.589553 6
-8.325298 17.042479 -0.695498 41
-8.392817 17.188023 -0.407347 24
-8.843482 16.803497 -0.659776 22
-8.931842 16.978321 -0.371709 20
-8.235307 16.943094 -0.980690 22
-8.416509 17.323305 -0.114290 27
-8.963434 17.101160 -0.077507 47
-8.267501 17.075033 -0.695644 50
-8.331025 17.213615 -0.407262 21
-8.735997 16.715076 -0.945522 32
-8.794065 16.851961 -0.660471 27
-8.861453 16.988106 -0.371244 23
-8.240254 17.104895 -0.988384 8
-8.371582 17.385025 -0.114504 31
-8.903557 17.132412 -0.077507 39
-8.205955 17.100264 -0.695498 40
-8.277624 17.257101 -0.407603 22
-8.682866 16.756237 -0.946123 37
-8.724165 16.861252 -0.659637 28
-8.803937 17.022486 -0.371321 24
-8.302232 17.396093 -0.114385 32
-8.787037 17.032175 -1.552100 4
-8.851027 17.177608 -0.077571 41
-8.142779 17.121584 -0.695204 45
-8.212184 17.275055 -0.407347 21
-9.317072 16.789087 -0.335156 3
-8.776421 17.075378 -1.258356 2
-8.615194 16.768677 -0.945121 31
-8.665255 16.891603 -0.659637 28
-8.748113 17.060232 -0.371476 24
-8.248299 17.439430 -0.114480 27
-8.714821 17.037895 -1.549840 18
-8.783734 17.194153 -0.077507 48
-8.089782 17.164366 -0.695791 43
-8.155241 17.310852 -0.407518 21
-9.262267 16.828516 -0.335296 24
-8.553663 16.785841 -1.234811 11
-8.552982 16.791529 -0.944721 32
-8.610836 16.923895 -0.659776 33
-8.685946 17.078506 -0.371244 25
-8.647736 17.045223 -1.547903 15
-8.730769 17.230076 -0.077539 41
-8.035127 17.194431 -0.695937 43
-8.096787 17.333855 -0.407432 24
-9.182288 16.813072 -0.334388 25
-8.614051 17.041662 -1.251554 9
-8.498177 16.819332 -0.944721 31
-8.548107 16.946711 -0.659499 31
-8.626278 17.108723 -0.371244 27
-8.625804 17.150105 -1.554683 35
-8.665186 17.249723 -0.077491 54
-7.976737 17.226002 -0.696084 44
-8.034552 17.358383 -0.407347 21
-9.079002 16.756165 -0.625551 9
-9.115925 16.830954 -0.334109 24
-8.541995 17.046648 -1.249723 12
-8.444782 16.859610 -0.945322 32
-8.492476 16.983597 -0.659776 31
-8.566505 17.138729 -0.371244 23
-8.532085 17.112316 -1.548548 21
-8.603137 17.276285 -0.077475 40
-7.916559 17.253740 -0.696084 42
-7.977245 17.393593 -0.407518 21
-9.001534 16.752537 -0.624238 17
-9.051440 16.852102 -0.333899 21
-8.496644 17.104958 -1.251816 11
-8.376996 16.871094 -0.944320 34
-8.433266 17.013075 -0.659776 30
-8.506705 17.168489 -0.371244 26
-8.470324 17.138525 -1.548225 21
-8.549503 17.320734 -0.077539 44
-8.616898 17.464674 0.220943 31
-8.938707 16.777084 -0.623976 15
-9.005135 16.908617 -0.334388 24
-8.436242 17.134829 -1.251816 8
-8.326193 16.918489 -0.945322 40
-8.373827 17.042410 -0.659776 32
-8.446725 17.198078 -0.371244 25
-8.426233 17.200211 -1.551131 19
-8.476685 17.325321 -0.077427 39
-8.561154 17.505424 0.221080 18
-8.881957 16.811720 -0.624107 14
-8.955396 16.957630 -0.334737 30
-8.260079 16.933088 -0.944521 35
-8.312537 17.067942 -0.659637 32
-8.388391 17.231054 -0.371321 22
-8.778127 16.695002 -0.909311 21
-8.383557 17.265383 -1.554360 19
-8.423138 17.369202 -0.077491 48
-8.823219 16.842621 -0.624107 16
-8.898004 16.992331 -0.334807 34
-8.202661 16.965414 -0.944721 35
-8.249433 17.089653 -0.659360 34
-8.331668 17.267435 -0.371476 25
-8.732725 16.750341 -0.910659 34
-8.906398 17.090477 -0.040363 12
-8.360724 17.394892 -0.077475 39
-8.760688 16.866220 -0.623845 20
-8.838635 17.023287 -0.334807 31
-8.162380 17.033573 -0.946924 4
-8.196629 17.132771 -0.659915 32
-8.271343 17.296412 -0.371476 22
-8.657691 16.748779 -0.908926 24
-8.854032 17.135677 -0.040397 14
-8.299953 17.423971 -0.077475 43
-8.797260 17.075079 -1.518455 2
-8.709083 16.910915 -0.624370 21
-8.775498 17.046925 -0.334667 30
-8.135062 17.157665 -0.659776 30
-8.202353 17.307110 -0.371089 22
-8.716639 17.001051 -1.215400 7
-8.593707 16.768232 -0.908348 27
-8.797811 17.173599 -0.040413 16
-8.704953 17.041763 -1.512781 13
-8.646363 16.934092 -0.624107 22
-8.721394 17.088139 -0.334877 26
-8.076821 17.189575 -0.659915 31
-8.146991 17.346495 -0.371321 24
-9.262505 16.865593 -0.298913 24
-8.470927 16.664841 -1.189243 20
-8.540552 16.808813 -0.908926 27
-8.748677 17.225603 -0.040464 17
-8.640009 17.061373 -1.511835 10
-8.589005 16.967737 -0.624238 27
-8.652664 17.100636 -0.334528 29
-8.019773 17.216265 -0.659915 30
-8.091110 17.377041 -0.371399 25
-9.114234 16.720142 -0.588467 1
-9.189302 16.864607 -0.298354 29
-8.586339 17.031473 -1.213369 7
-8.491958 16.851315 -0.909696 31
-8.689708 17.250948 -0.040455 17
-8.603070 17.129128 -1.515303 22
-8.530897 16.992554 -0.624107 26
-8.599496 17.136383 -0.334667 23
-7.958294 17.249172 -0.660054 31
-8.024016 17.399317 -0.371244 27
-9.058592 16.763987 -0.588838 31
-9.125528 16.894655 -0.298292 29
-8.522074 17.059258 -1.213115 9
-8.430138 16.882326 -0.909696 29
-8.613917 17.257629 -0.040397 17
-8.504699 17.089146 -1.508998 13
-8.468559 17.023706 -0.624107 27
-8.534850 17.164206 -0.334598 24
-7.902586 17.279161 -0.660193 32
-9.006700 16.800999 -0.589085 36
-9.063804 16.914238 -0.298106 34
-8.476155 17.108854 -1.214638 8
-8.374220 16.910131 -0.909696 33
-8.569226 17.311111 -0.040455 17
-8.452010 17.124161 -1.509628 14
-8.416142 17.058598 -0.624370 22
-8.476712 17.188534 -0.334528 28
-7.845521 17.313925 -0.660471 27
-8.934861 16.807623 -0.588220 23
-9.000954 16.938709 -0.297981 31
-8.439258 17.184917 -1.217940 7
-8.309859 16.928501 -0.909118 30
-8.506986 17.337328 -0.040447 18
-8.842829 16.694418 -0.874391 8
-8.414966 17.200123 -1.513726 11
-8.353031 17.080688 -0.624107 25
-8.425443 17.235983 -0.334877 29
-8.870544 16.828098 -0.587849 22
-8.943636 16.973564 -0.298043 27
-8.259458 16.975368 -0.910082 27
-8.442916 17.359722 -0.040430 18
-8.771495 16.700420 -0.873097 29
-8.375752 17.272448 -1.517509 7
-8.302076 17.127729 -0.624763 23
-8.361739 17.258089 -0.334737 27
-8.815483 16.866032 -0.588096 23
-8.889871 17.015324 -0.298230 27
-8.198303 17.000551 -0.909889 31
-8.394261 17.414389 -0.040489 17
-8.716444 16.738230 -0.873467 29
-8.243423 17.160471 -0.624894 26
-8.304309 17.294672 -0.334877 29
-8.752876 16.889601 -0.587849 27
-8.828583 17.042700 -0.298168 23
-8.144079 17.039879 -0.910467 18
-8.321353 17.418320 -0.040430 19
-8.657964 16.768553 -0.873467 29
-8.873543 17.193176 -0.003377 61
-8.181753 17.185532 -0.624763 22
-8.242169 17.319942 -0.334807 29
-8.763773 17.041729 -1.477884 8
-8.700477 16.925646 -0.588096 27
-8.770190 17.068327 -0.298106 24
-8.528826 16.646782 -1.153843 24
-8.593203 16.779390 -0.872542 34
-8.809189 17.208265 -0.003374 42
-8.124719 17.212570 -0.624763 24
-8.184690 17.347179 -0.334807 29
-8.682446 17.029606 -1.474193 8
-8.632246 16.938110 -0.587479 30
-8.708754 17.095266 -0.298043 23
-8.470887 16.676340 -1.153843 28
-8.536642 16.812717 -0.872727 36
-8.754789 17.249464 -0.003376 35
-8.056470 17.222553 -0.624107 22
-8.126168 17.379086 -0.334877 28
-9.165641 16.752539 -0.553413 1
-9.226580 16.890444 -0.262026 14
-8.597761 17.009979 -1.469887 8
-8.573068 16.968140 -0.587479 28
-8.654436 17.136271 -0.298230 26
-8.432377 16.745031 -1.156553 22
-8.485089 16.856689 -0.873467 37
-8.710705 17.312077 -0.003382 46
-7.997984 17.254198 -0.624238 27
-8.058729 17.392830 -0.334598 27
-9.099481 16.770374 -0.552949 33
-9.156993 16.910078 -0.261808 28
-8.540716 17.052074 -1.470810 9
-8.512609 17.003023 -0.587602 28
-8.580831 17.146416 -0.297857 26
-8.497509 17.029463 -1.174039 10
-8.417899 16.876949 -0.872912 31
-8.638270 17.325989 -0.003379 47
-7.934690 17.283396 -0.624238 23
-9.034165 16.796570 -0.552717 30
-9.087697 16.915646 -0.261427 21
-8.478850 17.069563 -1.469887 10
-8.461532 17.041891 -0.587973 27
-8.527469 17.181948 -0.297981 26
-8.451388 17.079130 -1.175516 10
-8.368717 16.919224 -0.873652 34
-8.584021 17.361855 -0.003380 38
-7.885258 17.327969 -0.624894 28
-8.970451 16.812557 -0.552254 24
-9.024834 16.940205 -0.261318 20
-8.429785 17.120523 -1.471733 9
-8.396696 17.060562 -0.587602 28
-8.470971 17.218788 -0.298106 22
-8.411059 17.147955 -1.178226 8
-8.306089 16.941156 -0.873282 31
-8.519843 17.384529 -0.003379 43
-7.819795 17.344454 -0.624501 30
-8.851573 16.723299 -0.839361 19
-8.906100 16.833166 -0.551906 24
-8.973119 16.985748 -0.261536 20
-8.390963 17.192854 -1.475424 10
-8.340598 17.096954 -0.587849 24
-8.407309 17.241062 -0.297981 29
-8.255635 16.988016 -0.874206 35
-8.460856 17.417761 -0.003380 40
-8.809857 16.785940 -0.840956 28
-8.849145 16.867693 -0.552022 26
-8.911872 17.013449 -0.261481 23
-8.287819 17.140368 -0.588343 24
-8.354044 17.284704 -0.298230 23
-8.191228 17.005861 -0.873652 33
-8.400170 17.447109 -0.003380 39
-8.738523 16.791658 -0.839716 29
-8.795992 16.908993 -0.552370 28
-8.854274 17.048002 -0.261536 21
-8.215842 17.143955 -0.587479 27
-8.288474 17.302938 -0.298043 28
-8.131816 17.034351 -0.873652 32
-8.332327 17.461885 -0.003377 16
-8.665197 16.793650 -0.838297 24
-8.733250 16.932486 -0.552138 30
-8.792880 17.075251 -0.261481 21
-8.865883 17.224092 0.033811 13
-8.162809 17.186975 -0.587973 27
-8.226310 17.328154 -0.297981 29
-8.751852 17.037552 -1.440191 6
-8.579338 16.708588 -1.122465 22
-8.079141 17.077080 -0.874391 25
-8.727799 17.053827 -1.736721 39
-8.617444 16.845140 -0.839361 26
-8.677732 16.969988 -0.552370 29
-8.727858 17.095106 -0.261318 20
-8.796671 17.237093 0.033776 25
-8.099382 17.208118 -0.587726 29
-8.164058 17.353149 -0.297919 28
-9.217159 16.752810 -0.517399 1
-8.666868 17.018297 -1.435993 5
-8.528059 16.752741 -1.123420 23
-8.665986 17.080854 -1.736360 24
-8.561748 16.882477 -0.839716 26
-8.617948 17.000427 -0.552370 26
-8.668131 17.125467 -0.261318 23
-8.747283 17.289108 0.033817 24
-8.039266 17.236286 -0.587726 30
-8.108504 17.392416 -0.298106 25
-9.141388 16.753292 -0.516425 18
-8.600220 17.034203 -1.434793 5
-8.473127 16.789537 -1.123897 19
-8.651060 17.199970 -1.745389 15
-8.499175 16.905121 -0.839361 26
-8.549576 17.012543 -0.551790 27
-8.606505 17.152046 -0.261264 25
-8.681499 17.308811 0.033797 25
-7.984083 17.275131 -0.588096 29
-8.042711 17.409723 -0.297919 19
-9.084756 16.788616 -0.516533 16
-8.531780 17.046286 -1.433293 6
-8.412683 16.815441 -1.123658 19
-9.141592 16.955301 -0.225262 29
-8.551862 17.151632 -1.737443 14
-8.443678 16.941837 -0.839716 26
-8.499053 17.060177 -0.552370 29
-8.546535 17.182007 -0.261264 25
-8.622780 17.342606 0.033804 21
-7.927051 17.310171 -0.588343 25
-9.026137 16.820204 -0.516533 17
-8.474057 17.079508 -1.433593 7
-8.467549 17.073603 -1.138930 8
-9.078776 16.979948 -0.225169 31
-8.485096 17.166986 -1.735999 24
-8.391801 16.985426 -0.840425 27
-8.439700 17.089615 -0.552370 28
-8.491813 17.222496 -0.261427 23
-8.560422 17.369011 0.033797 25
-7.859971 17.323174 -0.587849 27
-8.903445 16.724697 -0.804051 19
-8.957977 16.833960 -0.515993 16
-8.428470 17.137617 -1.435993 6
-8.444892 17.178305 -1.143941 9
-9.021324 17.015070 -0.225216 30
-8.439141 17.225121 -1.738888 7
-8.328944 17.007437 -0.840070 25
-8.383511 17.126154 -0.552601 30
-8.424619 17.237659 -0.261209 25
-8.501496 17.402380 0.033804 22
-7.796176 17.343210 -0.587602 30
-8.831951 16.730934 -0.802863 22
-8.889832 16.847443 -0.515452 18
-8.389571 17.209959 -1.439592 6
-8.950707 17.025215 -0.224935 30
-8.269526 17.036407 -0.840070 26
-8.314952 17.137327 -0.552022 27
-8.371325 17.281382 -0.261427 25
-8.442414 17.435564 0.033811 22
-8.754986 16.726242 -0.801167 16
-8.836570 16.888979 -0.515776 20
-8.885873 17.045612 -0.224795 30
-8.206773 17.057856 -0.839716 28
-8.258795 17.173334 -0.552254 28
-8.307489 17.303288 -0.261318 21
-8.372848 17.446896 0.033776 22
-8.698388 16.760248 -0.801337 21
-8.792293 16.948116 -0.516642 24
-8.638967 16.707201 -1.087789 35
-8.829991 17.083633 -0.224888 33
-8.150620 17.093613 -0.840070 28
-8.195358 17.194839 -0.552022 29
-8.247039 17.332180 -0.261318 24
-8.782521 17.060797 -1.702413 6
-8.658116 16.826044 -0.803033 25
-8.729422 16.971594 -0.516425 24
-8.745888 17.052650 -1.404000 8
-8.566021 16.708826 -1.085941 30
-8.764832 17.103672 -0.224748 33
-8.853694 17.284197 0.071178 2
-8.090902 17.121960 -0.840070 27
-8.136994 17.226957 -0.552138 29
-8.188287 17.364437 -0.261372 23
-8.713845 17.073612 -1.700645 45
-8.595651 16.849068 -0.802694 29
-8.671862 17.005566 -0.516533 23
-9.226460 16.798985 -0.481794 36
-8.671520 17.054792 -1.401662 7
-8.516338 16.756605 -1.087096 29
-8.715550 17.155760 -0.225029 33
-8.787439 17.304518 0.071134 36
-8.032315 17.153934 -0.840247 5
-8.079699 17.262733 -0.552370 27
-8.124237 17.385666 -0.261264 23
-8.657791 17.111036 -1.701352 24
-8.549410 16.903934 -0.803881 26
-8.607036 17.025026 -0.516209 22
-9.142899 16.785439 -0.480487 48
-8.597570 17.056459 -1.399324 8
-8.461389 16.793362 -1.087558 27
-8.653813 17.182505 -0.224982 30
-8.746766 17.374386 0.071295 39
-8.016026 17.283577 -0.552138 27
-8.623020 17.191013 -1.706301 7
-8.486770 16.926529 -0.803542 30
-8.547555 17.054966 -0.516209 24
-9.084250 16.817251 -0.480487 46
-8.530847 17.072092 -1.398155 10
-8.395579 16.808506 -1.086634 28
-8.586637 17.198294 -0.224795 30
-8.671776 17.376181 0.071178 33
-7.957316 17.315086 -0.552254 31
-9.130352 16.975433 -0.188398 13
-8.528729 17.144585 -1.698878 29
-8.436043 16.965258 -0.804051 28
-8.496486 17.093863 -0.516533 23
-8.955564 16.703093 -0.767836 4
-9.031001 16.850443 -0.480588 52
-8.467873 17.085608 -1.396986 10
-8.345953 16.846573 -1.087327 27
-8.534051 17.233376 -0.224888 27
-8.602722 17.379234 0.071075 27
-7.899396 17.337194 -0.552138 34
-9.071041 17.007200 -0.188398 34
-8.468832 17.174250 -1.698878 24
-8.367937 16.976679 -0.803203 34
-8.434999 17.119829 -0.516425 19
-8.899081 16.737782 -0.767997 88
-8.968373 16.874802 -0.480387 49
-8.422254 17.143705 -1.399324 9
-8.410313 17.126514 -1.103494 10
-8.470318 17.255878 -0.224795 27
-8.543767 17.412748 0.071090 34
-7.835540 17.357374 -0.551906 30
-9.011621 17.038761 -0.188398 34
-8.315644 17.020147 -0.803881 30
-8.371678 17.141983 -0.516209 23
-8.827554 16.743994 -0.766864 56
-8.915008 16.916618 -0.480688 50
-8.393797 17.237560 -1.404585 5
-8.310282 17.073185 -1.098182 2
-8.408282 17.281744 -0.224748 27
-8.489931 17.456854 0.071149 35
-8.952129 17.070093 -0.188398 33
-8.249125 17.034727 -0.803203 31
-8.309894 17.167578 -0.516101 21
-8.772286 16.782036 -0.767188 52
-8.851661 16.940826 -0.480487 47
-8.352371 17.322157 -0.224888 26
-8.421175 17.472366 0.071090 17
-8.685479 16.703392 -1.052570 18
-8.880280 17.085045 -0.188202 38
-8.188363 17.068451 -0.803372 26
-8.250374 17.205130 -0.516317 24
-8.719911 16.831820 -0.767997 55
-8.789511 16.973156 -0.480487 54
-8.285378 17.345436 -0.224795 24
-8.628210 16.728552 -1.052347 31
-8.827242 17.121508 -0.188280 41
-8.135151 17.102728 -0.803711 33
-8.193274 17.232395 -0.516317 21
-8.645779 16.825094 -0.766378 59
-8.735004 17.005768 -0.480588 41
-8.227813 17.372816 -0.224795 31
-8.727911 17.034241 -1.661074 27
-8.711445 17.028454 -1.364358 10
-8.566154 16.751442 -1.051900 30
-8.767433 17.152212 -0.188280 47
-8.070266 17.120188 -0.803203 31
-8.138143 17.271761 -0.516642 23
-9.262233 16.825966 -0.445926 23
-8.595941 16.873041 -0.767188 68
-8.671815 17.029102 -0.480387 49
-8.168617 17.405146 -0.224841 31
-8.669951 17.068283 -1.661420 22
-8.641124 17.037409 -1.362651 8
-8.504018 16.774118 -1.051454 30
-8.709316 17.186279 -0.188319 46
-8.777180 17.327467 0.108484 12
-8.013839 17.155495 -0.803542 28
-8.071036 17.285570 -0.516209 19
-9.168951 16.795017 -0.444255 10
-8.529783 16.888674 -0.766540 74
-8.606914 17.048559 -0.480085 45
-8.662297 17.201660 -1.671450 16
-8.569053 17.042515 -1.360659 14
-8.438239 16.789427 -1.050561 27
-8.647476 17.213001 -0.188280 42
-8.718436 17.361574 0.108506 30
-8.010650 17.313639 -0.516209 22
-9.110270 16.826920 -0.444255 8
-8.477936 16.932640 -0.767188 68
-8.552719 17.089228 -0.480387 43
-8.547023 17.121264 -1.660728 21
-8.507686 17.068775 -1.360374 13
-8.383116 16.825943 -1.051007 28
-8.590894 17.250248 -0.188359 43
-8.661352 17.399059 0.108551 33
-7.953540 17.348745 -0.516425 25
-8.997134 16.750462 -0.733762 33
-9.051553 16.858578 -0.444255 8
-8.413575 16.951328 -0.766702 64
-8.494938 17.122486 -0.480487 43
-8.483923 17.143726 -1.660037 25
-8.456889 17.116253 -1.361797 13
-8.331406 16.869427 -1.051900 25
-8.523544 17.265783 -0.188202 39
-8.600565 17.429188 0.108551 30
-7.897894 17.387325 -0.516750 24
-8.912303 16.732376 -0.731602 31
-8.994529 16.893600 -0.444347 7
-8.359646 16.991352 -0.767188 70
-8.435118 17.152035 -0.480487 40
-9.049809 17.059639 -0.151675 41
-8.438068 17.201859 -1.662803 9
-8.409375 17.170752 -1.363789 11
-8.295297 16.945036 -1.054803 11
-8.461466 17.291840 -0.188163 42
-8.534401 17.448324 0.108484 31
-8.848241 16.752781 -0.731140 30
-8.937371 16.928431 -0.444440 8
-8.296781 17.013245 -0.766864 70
-8.373443 17.177780 -0.480387 42
-8.977169 17.066345 -0.151455 28
-8.284914 17.074495 -1.061055 4
-8.406291 17.332066 -0.188280 38
-8.471698 17.474409 0.108461 30
-8.787855 16.780024 -0.730985 28
-8.872662 16.948896 -0.444162 8
-8.242560 17.052896 -0.767350 58
-8.309951 17.199703 -0.480186 44
-8.711868 16.696388 -1.016639 17
-8.910143 17.083391 -0.151329 22
-8.340541 17.350489 -0.188163 34
-8.749490 16.849617 -0.732682 34
-8.815288 16.983315 -0.444255 9
-8.176078 17.067148 -0.766702 64
-8.253316 17.235819 -0.480387 46
-8.651698 16.723150 -1.016424 37
-8.848619 17.110836 -0.151298 26
-8.286807 17.393942 -0.188319 48
-8.791056 17.068079 -1.629060 8
-8.683302 16.865841 -0.732065 31
-8.746801 16.996202 -0.443790 9
-8.119881 17.102804 -0.767026 66
-8.193101 17.264524 -0.480387 42
-8.755553 17.062561 -1.330957 5
-8.595094 16.756802 -1.016639 35
-8.797962 17.159416 -0.151455 29
-8.224311 17.419155 -0.188280 43
-8.704315 17.045376 -1.623987 9
-8.629943 16.906672 -0.732528 35
-8.691205 17.033680 -0.443976 9
-8.060384 17.130924 -0.767026 60
-8.129673 17.285645 -0.480186 47
-8.669188 17.039474 -1.326803 4
-8.527912 16.768690 -1.015561 33
-8.736659 17.186224 -0.151423 27
-8.146505 17.411528 -0.187889 11
-8.641163 17.068542 -1.623310 11
-8.563656 16.922426 -0.731911 31
-8.629889 17.060345 -0.443883 9
-8.000537 17.158957 -0.767026 62
-8.070974 17.317541 -0.480286 46
-8.595280 17.041128 -1.324588 8
-8.471125 16.801922 -1.015777 36
-8.678414 17.220186 -0.151455 38
-8.611922 17.159161 -1.629060 12
-8.509910 16.962934 -0.732374 33
-8.579247 17.108238 -0.444347 9
-7.940592 17.186779 -0.767026 18
-8.012153 17.349239 -0.480387 45
-8.530390 17.060320 -1.323757 6
-8.408853 16.824244 -1.015346 35
-8.621827 17.257532 -0.151517 43
-8.694038 17.409307 0.146044 35
-8.525261 17.135632 -1.623987 10
-8.450532 16.992592 -0.732374 32
-8.519325 17.138155 -0.444347 10
-7.949588 17.373598 -0.480286 47
-8.468624 17.086611 -1.323480 8
-8.342564 16.839384 -1.014483 38
-8.561071 17.287752 -0.151517 40
-8.627390 17.429043 0.145954 27
-8.461869 17.158136 -1.623310 11
-8.398234 17.036327 -0.732991 31
-8.448845 17.146267 -0.443790 9
-7.888895 17.401241 -0.480286 15
-8.417727 17.133974 -1.324865 7
-8.287253 16.875572 -1.014915 36
-8.504199 17.324711 -0.151580 41
-8.561213 17.448278 0.145864 25
-8.335205 17.058357 -0.732682 32
-8.392451 17.182840 -0.443976 11
-8.240533 16.929537 -1.016424 25
-8.433173 17.332710 -0.151392 34
-8.498506 17.474461 0.145834 12
-8.272125 17.080153 -0.732374 36
-8.327194 17.201233 -0.443698 9
-8.242132 17.084108 -1.023970 13
-8.376094 17.369247 -0.151455 36
-8.214184 17.112528 -0.732528 31
-8.268829 17.233801 -0.443790 9
-8.311963 17.391163 -0.151392 40
-8.150966 17.133877 -0.732219 40
-8.212056 17.269783 -0.443976 9
-8.256343 17.430916 -0.151486 38
-8.094517 17.169456 -0.732528 35
-8.155133 17.305578 -0.444162 10
-8.180151 17.427042 -0.151203 5
-8.037537 17.196203 -0.732528 30
-8.094316 17.325279 -0.443976 8
-7.974102 17.216902 -0.732219 32
-8.032109 17.349800 -0.443883 9
-7.919002 17.255508 -0.732682 30
-7.971559 17.377705 -0.443883 8