# This PCD file was generated using the MATLAB® pcwrite function
# from Computer Vision Toolbox®.
# .PCD v.7 - Point Cloud Data file format
VERSION .7
FIELDS x y z intensity
SIZE 4 4 4 1
TYPE F F F U
COUNT 1 1 1 1
WIDTH 1502
HEIGHT 1
VIEWPOINT 0 0 0 1 0 0 0
POINTS 1502
DATA ascii
1.289621 5.745716 -0.568051 1
1.455662 5.630795 -0.572305 101
1.465622 5.665411 -0.485228 101
1.469612 5.676920 -0.215025 101
1.297741 5.745914 -1.075397 101
1.293560 5.722950 -0.657089 94
1.471769 5.650674 -1.213704 101
1.472470 5.649490 -0.665182 101
1.474547 5.653586 -0.394219 101
1.135606 5.844357 -0.968976 33
1.478865 5.666262 -0.304854 101
1.307013 5.729534 -0.566899 16
1.479348 5.641081 -0.573871 101
1.483366 5.652550 -0.484567 101
1.486374 5.660157 -0.214586 101
1.316910 5.737514 -1.074679 101
1.310860 5.706777 -0.655753 100
1.494471 5.656865 -1.216146 101
1.491156 5.640476 -0.664729 101
1.491207 5.636831 -0.393411 101
1.150630 5.813248 -0.964478 58
1.499659 5.664926 -0.305062 101
1.329721 5.736568 -0.568051 43
1.327996 5.724748 -0.475930 0
1.497025 5.628178 -0.573088 101
1.503135 5.647325 -0.484567 101
1.504118 5.647195 -0.214292 101
1.336102 5.729035 -1.073961 101
1.335361 5.721505 -0.657979 101
1.514208 5.651614 -1.216146 101
1.509807 5.631398 -0.664276 101
1.511908 5.635446 -0.393680 101
1.175595 5.832417 -0.968333 46
1.515281 5.644225 -0.304230 101
1.354300 5.751269 -0.569972 100
1.351629 5.735600 -0.477222 12
1.517699 5.626761 -0.573480 101
1.523878 5.645892 -0.484898 101
1.519652 5.626474 -0.213706 101
1.354277 5.716678 -1.072524 101
1.353490 5.709073 -0.657089 101
1.532900 5.642515 -1.215332 101
1.531540 5.633764 -0.665182 101
1.532618 5.633985 -0.393949 101
1.198328 5.839880 -0.970261 55
1.532876 5.631192 -0.303814 101
1.366959 5.715528 -0.566899 82
1.365145 5.703704 -0.474961 47
1.535231 5.613750 -0.572696 101
1.542524 5.636693 -0.484567 101
1.542450 5.632701 -0.214146 101
1.374224 5.711916 -1.072524 101
1.374341 5.708179 -0.657534 101
1.553626 5.640905 -1.216146 101
1.545916 5.609226 -0.662918 101
1.551214 5.624754 -0.393680 101
1.215477 5.820203 -0.967691 60
1.550398 5.618106 -0.303398 101
1.385022 5.702984 -0.566131 91
1.383163 5.691156 -0.474316 61
1.554817 5.608357 -0.572696 101
1.557928 5.615910 -0.483245 101
1.558895 5.615728 -0.213706 101
1.393220 5.703262 -1.071805 101
1.394258 5.703346 -0.657534 101
1.403779 5.738109 -0.387187 45
1.570148 5.624131 -1.213704 101
1.561210 5.588485 -0.661107 101
1.570839 5.619305 -0.393680 101
1.228401 5.781168 -0.961908 56
1.576456 5.635741 -0.304646 101
1.399202 5.674920 -0.563826 86
1.403976 5.690164 -0.474638 77
1.571154 5.591398 -0.571521 101
1.582917 5.629624 -0.484898 101
1.579571 5.614100 -0.213853 101
1.412173 5.694544 -1.071087 101
1.413200 5.694587 -0.657089 101
1.422838 5.729300 -0.386925 101
1.588704 5.614848 -1.212890 101
1.586121 5.602121 -0.663371 101
1.590444 5.613787 -0.393680 101
1.251910 5.792281 -0.964478 61
1.593939 5.622518 -0.304230 101
1.419969 5.673864 -0.564210 100
1.422861 5.681361 -0.474316 78
1.592842 5.593537 -0.572305 101
1.597096 5.604896 -0.483245 101
1.596966 5.600864 -0.213560 101
1.432042 5.689580 -1.071087 101
1.434040 5.693474 -0.657534 101
1.440877 5.716558 -0.386402 101
1.436281 5.694280 -0.294412 31
1.608420 5.613306 -1.213704 101
1.605801 5.600646 -0.663824 101
1.610158 5.612317 -0.393949 101
1.269423 5.780384 -0.963193 66
1.614776 5.624881 -0.304646 101
1.266575 5.762835 -0.649323 1
1.439722 5.672992 -0.564595 101
1.442630 5.680487 -0.474638 78
1.606896 5.572946 -0.570738 101
1.612274 5.588103 -0.482254 101
1.616544 5.599405 -0.213706 101
1.451758 5.688643 -1.071805 101
1.449835 5.677165 -0.656198 101
1.454747 5.692448 -0.385094 101
1.453029 5.681782 -0.294011 101
1.629096 5.611418 -1.214518 101
1.445821 5.638056 -0.202239 4
1.618689 5.572108 -0.661107 101
1.628625 5.602829 -0.393680 101
1.288733 5.772065 -0.962550 80
1.628823 5.600032 -0.303606 101
1.279747 5.727336 -0.645823 22
1.459515 5.667932 -0.564595 101
1.463445 5.679278 -0.474961 78
1.626340 5.567303 -0.570738 101
1.634007 5.590094 -0.482915 101
1.292972 5.746069 -0.556745 1
1.469633 5.675922 -1.070369 101
1.467649 5.664373 -0.655308 101
1.473607 5.683471 -0.384832 101
1.470847 5.668941 -0.293611 101
1.643149 5.586912 -1.210448 101
1.474551 5.667794 -0.203489 18
1.640374 5.574049 -0.662012 101
1.645918 5.589454 -0.393142 101
1.309747 5.771381 -0.963193 80
1.650619 5.601976 -0.304022 101
1.306776 5.753852 -0.649323 54
1.478285 5.658950 -0.564210 101
1.481244 5.666420 -0.474316 78
1.643504 5.553957 -0.569954 101
1.654642 5.588178 -0.483245 101
1.313910 5.745403 -0.557121 37
1.487438 5.663146 -1.068932 101
1.486402 5.655371 -0.654863 101
1.492422 5.674432 -0.384570 101
1.488592 5.656046 -0.293210 101
1.664851 5.588656 -1.212076 101
1.495319 5.666485 -0.203628 101
1.658669 5.564485 -0.661560 101
1.664272 5.579852 -0.392872 101
1.326330 5.751387 -0.960622 91
1.670167 5.596179 -0.304022 101
1.320598 5.722136 -0.646260 45
1.497044 5.649898 -0.563826 101
1.500037 5.657350 -0.473993 78
1.664098 5.551978 -0.570346 101
1.675368 5.586162 -0.483576 101
1.341265 5.771791 -0.560133 51
1.505287 5.650283 -1.067495 101
1.505236 5.646273 -0.654417 101
1.510299 5.661439 -0.384047 101
1.162424 5.817409 -0.870944 1
1.505382 5.639197 -0.292609 101
1.686611 5.590310 -1.213704 101
1.513023 5.653507 -0.203350 101
1.675786 5.551052 -0.660654 101
1.683739 5.574008 -0.392872 101
1.342795 5.731347 -0.958052 89
1.687379 5.582667 -0.303606 101
1.334210 5.690393 -0.643198 42
1.516757 5.644638 -0.563826 101
1.516670 5.640529 -0.473024 78
1.686936 5.557563 -0.571521 101
1.694857 5.580279 -0.483576 101
1.361404 5.767073 -0.560133 101
1.357774 5.747371 -0.466853 11
1.522948 5.637397 -1.066059 101
1.524936 5.640985 -0.654417 101
1.530052 5.656132 -0.384047 101
1.172466 5.762900 -0.863391 46
1.527145 5.641620 -0.293010 101
1.703826 5.576898 -1.212076 101
1.533795 5.652050 -0.203489 101
1.698638 5.556571 -0.662012 101
1.700851 5.560464 -0.392334 101
1.363707 5.730465 -0.958695 83
1.706856 5.576743 -0.303606 101
1.354986 5.689569 -0.643635 48
1.537497 5.643150 -0.564210 101
1.536350 5.635200 -0.473024 78
1.701648 5.536420 -0.569954 101
1.714326 5.574329 -0.483576 101
1.371314 5.719688 -0.555992 100
1.374106 5.727087 -0.465592 72
1.544696 5.639637 -1.067495 101
1.544617 5.635627 -0.654417 101
1.544508 5.631511 -0.382739 101
1.203009 5.809152 -0.870944 100
1.544714 5.628550 -0.292609 101
1.722140 5.567170 -1.211262 101
1.549289 5.631239 -0.202933 101
1.713332 5.535418 -0.660201 101
1.719073 5.550680 -0.392064 101
1.381851 5.717994 -0.957410 97
1.727493 5.574567 -0.303814 101
1.379509 5.704129 -0.645823 63
1.383178 5.715117 -0.374067 0
1.552927 5.622403 -0.562674 101
1.554924 5.625967 -0.472701 78
1.720922 5.530459 -0.569954 101
1.727801 5.549295 -0.481923 101
1.385565 5.691665 -0.553733 100
1.391198 5.710647 -0.464647 81
1.563256 5.630437 -1.066777 101
1.564210 5.630221 -0.654417 101
1.567287 5.637643 -0.383524 101
1.216673 5.773953 -0.866296 95
1.564270 5.623147 -0.292609 101
1.738051 5.549913 -1.208820 101
1.566788 5.618096 -0.202656 101
1.730267 5.521819 -0.659295 101
1.738438 5.544646 -0.392064 101
1.400861 5.709301 -0.956767 97
1.744550 5.560881 -0.303398 101
1.400360 5.703140 -0.646260 72
1.402167 5.706377 -0.373813 34
1.571470 5.613114 -0.562290 101
1.573477 5.616665 -0.472378 78
1.742608 5.532012 -0.570738 101
1.744764 5.535626 -0.481262 101
1.403513 5.679061 -0.552980 100
1.415910 5.725111 -0.466223 100
1.582900 5.624946 -1.066777 101
1.577389 5.601768 -0.651746 101
1.589122 5.639821 -0.384047 101
1.226866 5.723235 -0.859324 72
1.582805 5.613807 -0.292409 101
1.760964 5.555012 -1.211262 101
1.584215 5.604899 -0.202378 101
1.750733 5.519534 -0.659748 101
1.757782 5.538544 -0.392064 101
1.418873 5.696714 -0.955482 100
1.761532 5.547143 -0.302982 101
1.419298 5.694359 -0.645823 75
1.418213 5.685955 -0.372797 67
1.587793 5.596103 -0.561138 101
1.593073 5.611139 -0.472378 78
1.757071 5.510725 -0.569171 101
1.765288 5.533300 -0.481593 101
1.422360 5.670265 -0.552604 101
1.430061 5.696928 -0.464331 100
1.600367 5.611818 -1.065340 101
1.596933 5.596228 -0.651746 101
1.605511 5.622725 -0.383262 101
1.249365 5.730518 -0.861067 88
1.601294 5.604406 -0.292209 101
1.777921 5.541382 -1.209634 101
1.768756 5.509611 -0.659295 101
1.773436 5.520977 -0.391257 101
1.438743 5.691729 -0.955482 100
1.780889 5.540958 -0.302982 101
1.437220 5.681660 -0.644948 75
1.437088 5.677095 -0.372543 67
1.441247 5.689475 -0.282944 41
1.609556 5.598169 -0.561906 101
1.611598 5.601698 -0.472055 78
1.777601 5.508320 -0.569563 101
1.785911 5.530868 -0.481923 101
1.448146 5.688393 -0.554863 101
1.448089 5.684143 -0.463701 100
1.623353 5.617501 -1.067495 101
1.617702 5.594398 -0.652192 101
1.624171 5.613209 -0.383001 101
1.279796 5.772452 -0.868039 100
1.618788 5.591061 -0.291808 101
1.275804 5.749844 -0.636704 16
1.798463 5.538867 -1.210448 101
1.789205 5.507183 -0.659748 101
1.795164 5.522344 -0.391795 101
1.458602 5.686672 -0.955482 99
1.459021 5.684310 -0.645823 75
1.455903 5.668178 -0.372289 93
1.456125 5.665061 -0.281981 99
1.630201 5.596339 -0.562290 101
1.630026 5.592211 -0.471732 78
1.791875 5.486945 -0.567996 101
1.802730 5.517022 -0.481262 101
1.467994 5.683303 -0.554863 101
1.463930 5.663610 -0.462440 100
1.640740 5.604247 -1.066059 101
1.467666 5.674103 -0.192376 0
1.634985 5.581087 -0.651301 101
1.641509 5.599845 -0.382477 101
1.294717 5.744785 -0.864553 100
1.632672 5.566208 -0.290807 101
1.294117 5.737597 -0.635845 80
1.816821 5.532873 -1.210448 101
1.292489 5.718682 -0.542855 9
1.807458 5.501219 -0.659748 101
1.815960 5.523943 -0.392334 101
1.473477 5.666520 -0.952912 100
1.473858 5.664050 -0.644073 75
1.474692 5.663319 -0.372289 100
1.473895 5.656335 -0.281788 100
1.646498 5.583264 -0.561522 101
1.649690 5.590599 -0.472055 78
1.813805 5.492313 -0.569171 101
1.818514 5.503443 -0.480601 101
1.485823 5.674552 -0.554486 101
1.482703 5.658725 -0.462440 101
1.487488 5.673072 -0.192507 28
1.659135 5.594690 -0.653527 101
1.661206 5.598197 -0.382739 101
1.316409 5.752034 -0.866296 101
1.653396 5.568423 -0.291207 101
1.316688 5.748780 -0.637564 92
1.833709 5.519046 -1.208820 101
1.313392 5.718004 -0.543224 101
1.822923 5.483551 -0.658390 101
1.830206 5.502419 -0.391257 101
1.493262 5.661338 -0.952912 97
1.491583 5.651184 -0.643198 75
1.490344 5.642706 -0.371273 101
1.490517 5.639582 -0.281210 100
1.663626 5.569874 -0.560754 101
1.667959 5.581014 -0.471732 78
1.834073 5.489775 -0.569563 101
1.836274 5.493340 -0.480270 101
1.504397 5.665536 -0.554110 101
1.505294 5.665136 -0.463386 101
1.672950 5.574178 -1.062467 101
1.504981 5.660183 -0.192245 58
1.673816 5.573715 -0.651746 101
1.682748 5.600095 -0.383262 101
1.336185 5.747472 -0.866296 101
1.672518 5.562710 -0.291207 101
1.330123 5.717108 -0.634555 82
1.854210 5.516324 -1.209634 101
1.330628 5.701749 -0.542117 101
1.842053 5.477154 -0.658390 101
1.341471 5.743917 -0.454899 3
1.851947 5.503561 -0.391795 101
1.513014 5.656092 -0.952912 95
1.512328 5.649784 -0.643635 75
1.512097 5.645182 -0.371781 101
1.512262 5.642063 -0.281596 101
1.683059 5.564034 -0.560754 101
1.688585 5.578974 -0.472055 78
1.850675 5.475797 -0.568779 101
1.860546 5.502002 -0.481593 101
1.524164 5.660250 -0.554110 101
1.519873 5.640595 -0.461809 101
1.694686 5.575834 -1.063903 101
1.522648 5.647175 -0.191982 64
1.694418 5.571642 -0.652192 101
1.698800 5.582732 -0.382477 101
1.354420 5.735070 -0.865134 101
1.693088 5.560659 -0.291407 101
1.345498 5.693079 -0.632405 88
1.873455 5.509818 -1.209634 101
1.351442 5.700945 -0.542486 101
1.861160 5.470691 -0.658390 101
1.363354 5.746960 -0.455514 15
1.872433 5.500842 -0.392064 101
1.534816 5.658396 -0.954197 97
1.532040 5.644470 -0.643635 75
1.529701 5.632164 -0.371273 101
1.527756 5.621327 -0.280825 101
1.700139 5.550511 -0.559986 101
1.706881 5.569233 -0.471732 78
1.869778 5.469304 -0.568779 101
1.875870 5.484158 -0.480601 101
1.538669 5.635687 -0.552228 101
1.539553 5.635256 -0.461809 101
1.715296 5.573646 -1.064622 101
1.539188 5.630257 -0.191589 74
1.711517 5.558095 -0.651301 101
1.713576 5.561510 -0.381431 101
1.371662 5.718762 -0.863391 101
1.712488 5.554716 -0.291407 101
1.367219 5.696082 -0.633265 100
1.890117 5.495842 -1.208006 101
1.370389 5.692323 -0.542117 101
1.881531 5.467922 -0.658843 101
1.374992 5.707273 -0.452746 101
1.892920 5.498046 -0.392334 101
1.553508 5.649199 -0.953554 100
1.551736 5.639087 -0.643635 75
1.552537 5.638335 -0.372035 101
1.552686 5.635217 -0.281788 101
1.209732 5.810101 -0.797131 35
1.720697 5.548340 -0.560370 101
1.723967 5.555620 -0.471087 78
1.884988 5.451446 -0.567604 101
1.377477 5.680254 -0.360561 15
1.891128 5.466262 -0.479609 101
1.561561 5.641784 -0.553357 101
1.561389 5.637520 -0.462440 101
1.732451 5.560094 -1.063185 101
1.561018 5.632541 -0.191851 67
1.730963 5.552070 -0.651301 101
1.736604 5.566907 -0.382216 101
1.386994 5.694698 -0.860486 101
1.727170 5.533430 -0.290606 101
1.388101 5.695123 -0.633695 101
1.908003 5.485511 -1.207192 101
1.385522 5.668159 -0.540273 101
1.900607 5.461320 -0.658843 101
1.394906 5.702438 -0.452746 101
1.909475 5.483867 -0.391795 101
1.568977 5.628529 -0.950984 100
1.571410 5.633636 -0.643635 75
1.570063 5.625191 -0.371527 101
1.568048 5.614370 -0.281018 101
1.232471 5.817478 -0.798728 86
1.738862 5.538502 -0.559986 101
1.744544 5.553372 -0.471410 78
1.904005 5.444833 -0.567604 101
1.403023 5.698671 -0.362038 101
1.914147 5.470916 -0.480601 101
1.580169 5.632464 -0.552980 101
1.578903 5.624358 -0.461809 101
1.748298 5.542755 -1.061030 101
1.747940 5.538412 -0.650411 101
1.754824 5.557005 -0.381954 101
1.407814 5.693664 -0.861067 101
1.752493 5.546414 -0.291608 77
1.410837 5.701824 -0.634985 101
1.932337 5.493596 -1.210448 101
1.406258 5.667154 -0.540642 101
1.913062 5.435908 -0.656579 101
1.412880 5.689793 -0.452131 101
1.935233 5.495991 -0.393142 101
1.591835 5.634416 -0.952912 100
1.585658 5.608986 -0.641447 75
1.587515 5.611994 -0.371020 101
1.584372 5.597329 -0.280440 101
1.248594 5.793763 -0.796066 98
1.756978 5.528604 -0.559602 101
1.760294 5.535850 -0.470441 78
1.925654 5.445660 -0.568387 101
1.420970 5.685993 -0.361546 101
1.929244 5.452927 -0.479609 101
1.426973 5.705978 -0.272230 1
1.597642 5.619253 -0.552228 101
1.596344 5.611141 -0.461179 101
1.767635 5.536619 -1.061030 101
1.763633 5.520917 -0.649075 101
1.771780 5.543242 -0.381431 101
1.428643 5.692554 -0.861648 101
1.426857 5.681436 -0.633265 101
1.950146 5.483142 -1.209634 101
1.424042 5.654498 -0.539904 101
1.937328 5.444184 -0.658390 101
1.430755 5.677099 -0.451516 101
1.608223 5.617442 -0.950984 100
1.607423 5.611060 -0.642322 75
1.604918 5.598737 -0.370512 101
1.602839 5.587913 -0.280247 101
1.256970 5.735146 -0.788611 79
1.776322 5.522419 -0.559602 101
1.783345 5.541034 -0.471410 78
1.947453 5.446358 -0.569171 101
1.442899 5.688705 -0.362038 101
1.952432 5.457370 -0.480601 101
1.438178 5.666069 -0.270566 11
1.618509 5.617423 -0.552604 101
1.616096 5.605484 -0.461179 101
1.789560 5.537842 -1.062467 101
1.272506 5.764037 -0.626663 0
1.785546 5.522225 -0.649966 101
1.790114 5.533154 -0.381169 101
1.448735 5.687473 -0.861648 101
1.445945 5.672504 -0.632835 101
1.966623 5.468931 -1.208006 101
1.443771 5.649492 -0.539904 101
1.953629 5.429909 -0.657484 101
1.448587 5.664343 -0.450901 101
1.628921 5.615585 -0.951627 100
1.622567 5.590141 -0.640572 75
1.621112 5.581600 -0.369750 101
1.624565 5.589957 -0.280633 101
1.275257 5.722984 -0.787546 80
1.796821 5.519970 -0.559986 101
1.802676 5.534775 -0.471410 78
1.963746 5.432040 -0.568387 101
1.460758 5.675901 -0.361546 101
1.968758 5.443024 -0.479940 101
1.456951 5.657145 -0.270381 101
1.638108 5.611739 -0.552604 101
1.636771 5.603636 -0.461494 101
1.808880 5.531561 -1.062467 101
1.290877 5.751797 -0.625818 31
1.804811 5.515959 -0.649966 101
1.809417 5.526871 -0.381169 101
1.466599 5.674718 -0.860486 101
1.465737 5.667423 -0.632835 101
1.984748 5.462379 -1.208006 101
1.463496 5.648530 -0.540273 101
1.974340 5.430871 -0.658390 101
1.468364 5.663369 -0.451208 101
1.646422 5.606365 -0.950984 100
1.475994 5.688836 -0.181618 12
1.642216 5.588545 -0.641010 75
1.642990 5.587683 -0.370512 101
1.640837 5.576873 -0.280247 101
1.295103 5.722590 -0.788078 93
1.812626 5.506418 -0.559217 101
1.821020 5.528767 -0.471410 78
1.979017 5.418019 -0.567604 101
1.473524 5.647848 -0.360068 101
1.988166 5.440210 -0.480270 101
1.473684 5.644550 -0.270011 101
1.652193 5.591000 -0.551098 101
1.655345 5.598177 -0.461494 101
1.827214 5.525533 -1.062467 101
1.315247 5.770754 -0.628352 70
1.825590 5.517491 -0.650856 101
1.321758 5.794796 -0.538821 48
1.830244 5.528419 -0.381693 101
1.485409 5.669824 -0.860486 101
1.484522 5.662531 -0.632835 101
2.005223 5.459069 -1.208820 101
1.482263 5.639515 -0.539904 101
1.990586 5.416470 -0.657484 101
1.487154 5.654340 -0.450901 101
1.664873 5.596794 -0.950342 100
1.491790 5.668179 -0.181124 101
1.662838 5.586592 -0.641447 75
1.662448 5.581925 -0.370512 101
1.660231 5.571131 -0.280247 101
1.321225 5.745095 -0.791806 101
1.833004 5.503865 -0.559602 101
1.836410 5.511068 -0.470441 78
2.000482 5.418618 -0.568387 101
1.494051 5.646582 -0.360314 101
1.998637 5.410881 -0.478287 101
1.488038 5.620119 -0.269086 101
1.671448 5.585274 -0.551098 101
1.675740 5.596269 -0.461809 101
1.843691 5.511758 -1.061030 101
1.326992 5.731325 -0.624551 45
1.838202 5.492347 -0.648630 101
1.339834 5.782465 -0.538098 101
1.845373 5.510761 -0.380908 101
1.500762 5.649401 -0.858162 101
1.503888 5.657419 -0.632835 101
2.022903 5.448365 -1.208006 101
1.500914 5.630458 -0.539536 101
2.009481 5.409488 -0.657484 101
1.504826 5.641407 -0.450286 101
1.682122 5.583388 -0.949056 100
1.506411 5.643623 -0.180506 101
1.682329 5.580754 -0.641447 75
1.680770 5.572266 -0.370258 101
1.680822 5.569126 -0.280440 101
1.339467 5.732727 -0.790741 101
1.849663 5.489886 -0.558833 101
1.854362 5.500846 -0.470118 78
2.016601 5.404143 -0.567604 101
1.512717 5.637476 -0.360068 101
2.024484 5.422544 -0.479940 101
1.508683 5.618750 -0.269271 101
1.690934 5.579406 -0.551098 101
1.694108 5.586569 -0.461494 101
1.860397 5.497835 -1.059593 101
1.342436 5.707298 -0.622440 44
1.858638 5.489662 -0.649075 101
1.360010 5.777752 -0.538098 101
1.864598 5.504286 -0.380908 101
1.521502 5.647950 -0.858743 101
1.520522 5.640615 -0.631545 101
2.040533 5.437604 -1.207192 101
1.518480 5.617495 -0.538798 101
2.026954 5.398720 -0.657031 101
1.524509 5.636120 -0.450286 101
1.706209 5.592587 -0.951627 100
1.525057 5.634471 -0.180383 101
1.699477 5.567242 -0.640572 75
1.702543 5.574000 -0.370766 101
1.701419 5.567046 -0.280633 101
1.361301 5.735731 -0.791806 101
1.870099 5.487165 -0.559217 101
1.368765 5.762961 -0.445374 5
1.878700 5.509434 -0.471410 78
2.035453 5.397071 -0.567604 101
1.532387 5.632162 -0.360068 101
2.043400 5.415444 -0.479940 101
1.526187 5.605738 -0.268901 101
1.706894 5.562048 -0.549969 101
1.713598 5.580622 -0.461494 101
1.883400 5.502476 -1.061748 101
1.364198 5.710315 -0.623285 51
1.881653 5.494423 -0.650411 101
1.371834 5.738100 -0.534848 101
1.882506 5.493968 -0.380646 101
1.541208 5.642604 -0.858743 101
1.541250 5.639110 -0.631975 101
2.059433 5.430474 -1.207192 101
1.536956 5.608338 -0.538429 101
2.048565 5.399060 -0.657937 101
1.543075 5.626930 -0.449978 101
1.722208 5.575286 -0.949699 100
1.540467 5.613696 -0.179888 101
1.717736 5.557474 -0.640135 75
1.718488 5.556571 -0.370004 101
1.716181 5.545786 -0.279862 101
1.381379 5.730928 -0.791806 101
1.886735 5.473045 -0.558449 101
1.371195 5.684453 -0.439675 101
1.892836 5.487726 -0.470118 78
2.055889 5.393579 -0.567996 101
1.549052 5.615178 -0.359329 101
2.063929 5.411920 -0.480270 101
1.549161 5.611869 -0.269456 101
1.206607 5.781139 -0.740830 0
1.728913 5.563584 -0.550722 101
1.730978 5.566904 -0.460864 101
1.899034 5.484609 -1.059593 101
1.383497 5.701577 -0.622862 67
1.897244 5.476439 -0.649075 101
1.385616 5.706095 -0.532320 101
1.898104 5.475926 -0.379861 101
1.560202 5.633276 -0.858162 101
1.562377 5.637419 -0.632405 101
2.076975 5.419595 -1.206378 101
1.557589 5.606777 -0.538798 101
2.064553 5.384454 -0.657031 101
1.562707 5.621510 -0.449978 101
1.740481 5.565473 -0.949056 100
1.738312 5.555238 -0.640572 75
1.737873 5.550539 -0.370004 101
1.731945 5.528324 -0.279284 26
1.394779 5.699116 -0.788078 101
1.908450 5.473945 -0.559217 101
1.397671 5.706752 -0.441775 101
1.910667 5.477321 -0.469795 78
1.409592 5.751213 -0.353872 1
2.074704 5.386370 -0.567996 101
1.568643 5.609736 -0.359329 101
2.075640 5.386085 -0.478618 101
1.567664 5.602580 -0.269271 101
1.221008 5.749716 -0.737345 14
1.744738 5.546119 -0.549593 101
1.750400 5.560828 -0.460864 101
1.918167 5.477946 -1.059593 101
1.403391 5.696713 -0.622862 85
1.917663 5.473535 -0.649520 101
1.402665 5.689620 -0.531237 101
1.580926 5.631605 -0.858743 101
1.579895 5.624274 -0.631545 101
2.097294 5.415964 -1.207192 101
1.576072 5.597472 -0.538429 101
2.083335 5.377215 -0.657031 101
1.583402 5.619859 -0.450286 101
1.762280 5.566891 -0.950342 100
1.757693 5.549137 -0.640572 75
1.753619 5.533022 -0.369242 101
1.414664 5.694213 -0.788078 101
1.928870 5.471004 -0.559602 101
1.410846 5.674742 -0.439675 101
1.933753 5.481898 -0.470764 78
1.426767 5.734633 -0.353157 81
2.093493 5.379096 -0.567996 101
1.591481 5.615750 -0.360068 101
1.585031 5.589385 -0.268901 101
1.247775 5.776454 -0.741328 40
1.765295 5.543789 -0.549969 101
1.769800 5.554684 -0.460864 101
1.935964 5.467508 -1.058875 101
1.425198 5.699497 -0.623707 92
1.938085 5.470555 -0.649966 101
1.428319 5.707876 -0.533403 101
1.599491 5.622246 -0.858162 101
1.417234 5.659511 -0.258810 1
1.599517 5.618725 -0.631545 101
2.114789 5.404952 -1.206378 101
1.594538 5.588098 -0.538061 101
2.105008 5.377305 -0.657937 101
1.599743 5.602788 -0.449363 101
1.780504 5.556943 -0.949699 99
1.777048 5.542969 -0.640572 75
1.775346 5.534474 -0.369750 101
1.433535 5.685403 -0.787546 101
1.945244 5.456751 -0.558833 101
1.428656 5.662057 -0.439075 101
1.950150 5.467621 -0.470118 78
1.443793 5.718017 -0.352441 101
2.112176 5.371787 -0.567996 101
1.609888 5.606347 -0.359822 101
1.604437 5.583846 -0.268901 101
1.271239 5.787591 -0.743319 61
1.786974 5.545208 -0.550722 101
1.795181 5.567486 -0.462440 101
1.957564 5.468172 -1.060312 101
1.444953 5.694520 -0.623707 92
1.957032 5.463806 -0.649966 101
1.447111 5.699031 -0.533042 101
1.616762 5.609067 -0.857000 101
1.444701 5.685552 -0.260229 6
1.612345 5.590228 -0.628966 101
2.135082 5.401179 -1.207192 101
1.614034 5.582498 -0.538061 101
2.119380 5.358837 -0.656579 101
1.621507 5.604832 -0.449978 101
1.797455 5.543183 -0.948414 100
1.281511 5.779564 -0.616988 4
1.793932 5.529168 -0.639697 75
1.794654 5.528244 -0.369750 101
1.451407 5.672683 -0.786481 101
1.968330 5.461164 -0.559986 101
1.448411 5.657036 -0.439075 101
1.967871 5.457030 -0.469795 78
1.459779 5.697470 -0.351486 95
2.132384 5.368081 -0.568387 101
1.628333 5.596860 -0.359576 101
1.622802 5.574374 -0.268716 101
1.280189 5.732763 -0.736847 57
1.805085 5.535151 -0.550345 101
1.809656 5.546022 -0.461179 101
1.976639 5.461305 -1.060312 101
1.467797 5.700998 -0.624974 92
1.970678 5.441990 -0.648185 101
1.466002 5.690087 -0.532681 101
1.631894 5.588193 -0.854676 101
1.466534 5.688214 -0.260583 87
1.636310 5.599835 -0.630686 101
1.439345 5.578898 -0.166974 1
2.154433 5.397707 -1.208006 101
1.632537 5.577115 -0.538061 101
2.140087 5.359161 -0.657484 101
1.636721 5.587942 -0.449055 101
1.817057 5.540944 -0.949056 100
1.304167 5.790807 -0.618646 100
1.808539 5.511855 -0.638385 75
1.816712 5.533640 -0.370512 101
1.473197 5.679351 -0.788078 101
1.980979 5.439642 -0.558449 101
1.469167 5.659923 -0.439675 101
1.991416 5.465458 -0.471087 78
1.479669 5.696463 -0.351725 99
2.150174 5.360980 -0.568387 101
1.650267 5.602919 -0.360314 101
1.639019 5.561297 -0.268346 101
1.293925 5.705263 -0.733860 61
1.822183 5.525352 -0.549969 101
1.825538 5.532417 -0.460549 101
1.994739 5.454720 -1.060312 101
1.483680 5.684553 -0.623707 92
1.988714 5.435426 -0.648185 101
1.486876 5.692903 -0.533403 101
1.652660 5.590342 -0.855838 101
1.483367 5.675587 -0.260229 100
1.651487 5.582937 -0.629396 101
1.491223 5.701745 -0.170798 2
2.173273 5.390149 -1.208006 101
1.653139 5.575197 -0.538429 101
2.160275 5.355341 -0.657937 101
1.656224 5.582192 -0.449055 101
1.836390 5.534566 -0.949056 100
1.317274 5.755194 -0.615329 101
1.831524 5.516829 -0.639697 75
1.317517 5.751856 -0.523520 35
1.833494 5.519691 -0.370004 101
1.489975 5.662675 -0.786481 101
1.998565 5.428964 -0.558065 101
1.487884 5.650907 -0.439375 101
2.003573 5.439775 -0.469472 78
1.495455 5.675824 -0.350770 100
2.167348 5.349765 -0.567996 101
1.667500 5.589482 -0.359822 101
1.658385 5.555553 -0.268346 101
1.317360 5.716190 -0.735851 75
1.838897 5.511417 -0.549216 101
1.847319 5.533591 -0.461179 101
2.012354 5.444051 -1.059593 101
1.501427 5.671663 -0.622862 92
2.006243 5.424742 -0.647740 101
1.503623 5.676140 -0.532320 101
1.670970 5.580765 -0.855257 101
1.502086 5.666528 -0.260051 101
1.670901 5.577157 -0.629396 101
1.500800 5.657876 -0.169639 69
2.193552 5.386157 -1.208820 101
1.668008 5.554134 -0.536954 101
2.174456 5.336726 -0.656579 101
1.675699 5.576377 -0.449055 101
1.855698 5.528122 -0.949056 100
1.331948 5.727310 -0.612841 101
1.844441 5.491558 -0.637509 75
1.344812 5.778267 -0.526348 97
1.847664 5.498121 -0.368988 101
1.508710 5.653609 -0.785948 101
2.018892 5.425686 -0.558449 101
1.503484 5.630264 -0.438176 101
2.025331 5.440220 -0.470118 78
1.515258 5.670569 -0.350770 101
2.187516 5.345851 -0.568387 101
1.685846 5.579805 -0.359576 101
1.681236 5.561204 -0.268901 101
1.342734 5.734743 -0.738838 83
1.860671 5.512511 -0.549969 101
1.341499 5.725174 -0.430786 1
1.864072 5.519553 -0.460549 101
2.025836 5.422249 -1.056720 101
1.519153 5.658704 -0.622018 92
2.025166 5.417706 -0.647740 101
1.523427 5.670857 -0.532320 101
1.689292 5.571111 -0.854676 101
1.518744 5.649673 -0.259519 101
1.690359 5.571291 -0.629396 101
1.517425 5.641019 -0.169291 48
2.207870 5.367601 -1.206378 101
1.687385 5.548278 -0.536954 101
2.196097 5.336454 -0.657484 101
1.690510 5.555232 -0.447825 101
1.873714 5.517873 -0.948414 100
1.346444 5.699395 -0.610353 100
1.862320 5.481321 -0.637072 75
1.358557 5.746396 -0.523874 101
1.868129 5.495417 -0.369242 100
1.527400 5.644481 -0.785416 101
2.037819 5.418605 -0.558449 101
1.524171 5.628832 -0.438476 101
2.041501 5.425654 -0.469472 78
1.535043 5.665245 -0.350770 101
2.206163 5.338183 -0.568387 101
1.705313 5.573887 -0.359576 101
1.701807 5.559123 -0.269086 100
1.361825 5.726160 -0.738341 83
1.874755 5.490908 -0.548463 101
1.360551 5.716576 -0.430494 2
1.882038 5.509239 -0.460233 101
2.048921 5.426188 -1.058875 101
1.535762 5.641853 -0.620751 92
2.042660 5.406885 -0.647295 101
1.540072 5.653974 -0.531237 101
1.706405 5.557614 -0.853514 101
1.536354 5.636626 -0.259165 101
1.709796 5.565357 -0.629396 101
2.226568 5.359872 -1.206378 101
1.704371 5.534749 -0.536217 101
2.214695 5.328762 -0.657484 101
1.715747 5.568359 -0.449363 101
1.890393 5.503833 -0.947129 100
1.369108 5.706268 -0.611597 101
1.882738 5.478546 -0.637509 75
1.373030 5.718372 -0.521753 100
1.884718 5.481308 -0.368734 100
1.546069 5.635286 -0.784883 101
2.058168 5.415168 -0.558833 101
1.541732 5.615775 -0.437876 101
2.057636 5.411026 -0.468827 78
1.555911 5.663691 -0.351009 101
2.226388 5.334093 -0.568779 101
1.723651 5.564064 -0.359329 101
1.380028 5.713634 -0.737345 83
1.895303 5.488062 -0.548840 101
1.384343 5.727279 -0.431663 59
1.901360 5.502601 -0.460233 101
2.063752 5.407932 -1.056720 101
1.556620 5.640260 -0.621173 92
2.060224 5.395962 -0.646849 101
1.557804 5.640849 -0.530514 101
1.730628 5.566699 -0.855838 101
1.557221 5.635043 -0.259342 101
1.725812 5.547918 -0.628106 101
2.249809 5.362902 -1.208820 101
1.724866 5.532568 -0.536585 101
2.230206 5.313670 -0.656579 101
1.731611 5.550914 -0.448440 101
1.910889 5.500930 -0.947771 100
1.391844 5.713050 -0.612841 101
1.899239 5.464429 -0.636634 75
1.389207 5.698061 -0.520339 101
1.564668 5.626035 -0.784351 101
2.075631 5.404234 -0.558449 101
1.558117 5.598831 -0.436976 101
1.573529 5.650532 -0.350532 101
2.240355 5.315285 -0.567604 101
1.741868 5.554204 -0.359083 101
1.399964 5.708783 -0.737345 83
1.910509 5.470134 -0.547710 101
1.396720 5.691417 -0.429325 88
1.921872 5.499694 -0.460549 101
1.400038 5.700792 -0.339501 1
2.086864 5.411710 -1.058875 101
1.575227 5.630961 -0.620751 92
2.079047 5.388738 -0.646849 101
1.574263 5.623868 -0.529431 101
1.748860 5.556849 -0.855257 101
1.579037 5.637269 -0.259697 101
1.746362 5.545653 -0.628536 101
2.272161 5.366230 -1.211262 101
1.743203 5.526818 -0.536585 101
2.252466 5.317223 -0.657937 101
1.751209 5.548945 -0.448748 101
1.931736 5.502014 -0.949056 100
1.414599 5.723852 -0.614500 101
1.921303 5.469355 -0.637947 75
1.406182 5.685687 -0.519632 101
1.581167 5.613183 -0.783286 101
2.094980 5.401033 -0.558833 101
1.577757 5.597472 -0.437276 101
1.587923 5.629911 -0.349577 101
1.230171 5.731320 -0.704173 15
1.761485 5.552202 -0.359329 101
1.417929 5.700257 -0.736847 83
1.931289 5.471279 -0.548463 101
1.418477 5.698368 -0.430202 100
1.937443 5.485771 -0.459918 101
1.420865 5.703868 -0.339963 99
2.101942 5.397426 -1.057438 101
1.591723 5.618053 -0.619906 92
2.098348 5.385518 -0.647295 101
1.593990 5.622449 -0.529792 101
1.767278 5.551019 -0.855257 101
1.597722 5.632001 -0.259697 101
1.767157 5.547410 -0.629396 101
1.763737 5.524481 -0.536954 101
2.269474 5.305664 -0.657484 101
1.770593 5.542790 -0.448748 101
1.948297 5.487792 -0.947771 100
1.429741 5.699583 -0.612426 101
1.941708 5.466364 -0.638385 75
1.429895 5.696203 -0.521046 101
1.603978 5.619077 -0.784883 101
2.110864 5.386294 -0.558065 101
1.599424 5.599617 -0.437876 101
1.614080 5.647388 -0.351009 101
1.261110 5.777448 -0.710375 47
1.781960 5.549858 -0.359576 101
1.436713 5.691459 -0.736349 83
1.950232 5.464555 -0.548463 101
1.437233 5.689551 -0.429909 101
1.959103 5.486543 -0.460549 101
1.435708 5.679558 -0.338808 101
2.117717 5.382800 -1.056001 101
1.610047 5.608691 -0.619484 92
2.118404 5.381933 -0.647740 101
1.615611 5.624565 -0.530514 101
1.784009 5.537349 -0.854095 101
1.614953 5.618770 -0.259342 101
1.786287 5.541279 -0.629396 101
1.784235 5.522080 -0.537323 101
2.283253 5.286764 -0.656126 101
1.787476 5.528986 -0.448133 101
1.964774 5.473526 -0.946486 100
1.448646 5.690701 -0.612012 101
1.960777 5.459553 -0.638385 75
1.451737 5.698899 -0.521753 101
1.447202 5.677173 -0.248626 4
1.623582 5.613444 -0.784883 101
2.131119 5.382595 -0.558449 101
1.621179 5.601663 -0.438476 101
1.630451 5.630214 -0.350293 101
1.284711 5.788519 -0.712283 60
1.792686 5.517025 -0.357852 101
1.457556 5.690254 -0.736847 83
1.967944 5.453969 -0.548087 101
1.454113 5.672907 -0.429033 101
1.976888 5.475920 -0.460233 101
1.454532 5.670643 -0.338577 101
2.137947 5.379032 -1.056720 101
1.628505 5.599217 -0.619062 92
2.135708 5.370811 -0.647295 101
1.631895 5.607416 -0.529431 101
1.804554 5.534851 -0.854676 101
1.632322 5.605425 -0.258988 101
1.293261 5.786304 -0.606435 25
1.800685 5.519887 -0.627676 101
1.801024 5.508247 -0.536585 101
2.306458 5.289690 -0.657484 113
1.809245 5.530294 -0.448748 101
1.987908 5.477768 -0.948414 100
1.469496 5.689462 -0.612426 101
1.982537 5.460149 -0.639260 75
1.471621 5.693797 -0.521753 101
1.466009 5.668217 -0.248457 60
1.639823 5.596329 -0.783286 101
2.149894 5.375123 -0.558449 101
1.635111 5.576831 -0.436976 101
1.651219 5.628320 -0.350532 101
1.298791 5.756881 -0.708944 57
1.804451 5.487978 -0.356374 101
1.473417 5.669766 -0.734856 83
1.988334 5.450807 -0.548463 101
1.476918 5.679379 -0.429909 101
1.997358 5.472732 -0.460549 101
1.479346 5.684855 -0.339732 101
2.162575 5.386143 -1.059593 101
1.651412 5.604945 -0.620329 92
2.154443 5.363324 -0.647295 101
1.651459 5.601686 -0.529431 101
1.822623 5.524760 -0.854095 101
1.651878 5.599693 -0.258988 101
1.311688 5.773993 -0.605621 96
1.821189 5.517344 -0.628106 101
1.306600 5.747192 -0.511499 22
1.815181 5.486820 -0.535110 101
2.326477 5.285259 -0.657937 101
1.824744 5.512598 -0.447825 101
2.004285 5.463388 -0.947129 100
1.487317 5.676604 -0.611597 101
1.997482 5.441996 -0.637947 75
1.489474 5.680915 -0.521046 101
1.486830 5.666923 -0.248626 101
1.656014 5.579154 -0.781689 101
2.165730 5.360174 -0.557681 101
1.653504 5.567245 -0.436676 101
1.670949 5.622493 -0.350532 101
1.311874 5.721322 -0.705127 58
1.826272 5.489171 -0.356866 101
1.493380 5.664540 -0.734856 83
2.007544 5.443761 -0.548463 101
1.494902 5.666421 -0.429325 101
2.011144 5.450682 -0.459288 101
1.494309 5.660292 -0.338577 101
2.178638 5.371173 -1.058156 101
1.672348 5.602885 -0.620751 92
2.176394 5.363035 -0.648185 101
1.674687 5.607259 -0.530514 101
1.840926 5.514515 -0.853514 101
1.664836 5.570835 -0.257924 101
1.320492 5.718908 -0.600330 84
1.844519 5.522169 -0.629396 101
1.329661 5.754172 -0.512536 101
1.832103 5.476993 -0.534741 101
2.343991 5.277515 -0.657937 101
1.845546 5.514081 -0.448440 101
2.023763 5.460413 -0.947771 100
1.508175 5.679331 -0.612426 101
2.012752 5.427886 -0.637072 75
1.509328 5.679795 -0.521399 101
1.507668 5.669686 -0.248966 101
1.676787 5.581226 -0.782753 101
1.502236 5.645408 -0.158076 21
2.186501 5.360336 -0.558449 101
1.671957 5.561731 -0.436676 101
1.689585 5.616921 -0.350532 101
1.330839 5.716940 -0.705127 64
1.849556 5.498220 -0.357852 101
1.513181 5.663392 -0.735353 83
2.022805 5.429611 -0.547710 101
1.511623 5.653725 -0.428740 101
2.036172 5.462665 -0.460864 100
1.512039 5.651447 -0.338346 101
2.199420 5.371202 -1.059593 101
1.685167 5.578270 -0.618639 92
2.194167 5.355788 -0.648185 101
1.692120 5.597861 -0.530153 101
1.856671 5.500881 -0.852352 101
1.689085 5.584408 -0.258810 70
1.338542 5.710623 -0.599923 82
1.860277 5.508486 -0.628536 101
1.349645 5.753611 -0.512882 101
1.852486 5.474337 -0.535110 101
2.362399 5.269301 -0.657937 101
1.864783 5.507605 -0.448440 101
2.041426 5.449619 -0.947129 100
1.525922 5.666349 -0.611597 101
2.028896 5.413381 -0.636197 75
1.526034 5.662951 -0.520339 101
1.521207 5.641237 -0.247948 101
1.695105 5.571546 -0.782221 101
2.208232 5.360034 -0.559217 101
1.696007 5.571124 -0.437876 101
1.705691 5.599531 -0.349816 101
1.355356 5.731585 -0.707512 66
1.862306 5.472833 -0.356620 101
1.529827 5.646583 -0.733860 83
2.044552 5.429970 -0.548463 101
1.530305 5.644563 -0.428448 101
2.048199 5.436867 -0.459288 101
1.531757 5.646135 -0.338346 101
2.213644 5.352583 -1.057438 101
1.703465 5.568550 -0.618217 92
2.208289 5.337077 -0.646849 101
1.706986 5.576684 -0.528709 101
1.878419 5.501857 -0.853514 101
1.366762 5.740755 -0.603586 89
1.875637 5.490669 -0.627246 101
1.367873 5.741111 -0.512191 101
1.873844 5.471274 -0.535479 101
1.365730 5.712077 -0.418927 4
2.375148 5.246121 -0.656126 101
1.883673 5.496957 -0.448133 101
2.061390 5.442099 -0.947129 100
1.544586 5.653042 -0.610768 101
2.048721 5.405909 -0.636197 75
1.544676 5.649633 -0.519632 101
1.537647 5.620207 -0.247270 101
1.714333 5.561512 -0.781689 101
2.221724 5.337209 -0.557681 101
1.709342 5.542007 -0.436076 101
1.727355 5.597064 -0.350055 101
1.379113 5.738169 -0.708944 66
1.553620 5.652432 -0.735353 83
2.061554 5.415017 -0.547710 101
1.546698 5.623545 -0.427279 101
1.553441 5.644350 -0.338577 101
2.237737 5.355352 -1.059593 101
1.724977 5.566089 -0.618639 92
2.230835 5.336310 -0.647740 101
1.729703 5.578022 -0.529431 101
1.895912 5.487480 -0.852352 101
1.383972 5.720255 -0.601958 100
1.896967 5.487544 -0.627676 101
1.384133 5.716714 -0.510461 101
1.891977 5.465030 -0.535479 101
1.382783 5.699762 -0.418358 101
2.405741 5.267137 -0.659748 101
1.900586 5.486912 -0.447825 101
1.389805 5.724506 -0.329347 1
2.075193 5.424170 -0.945201 100
1.560140 5.636386 -0.609524 101
2.068058 5.402799 -0.636634 75
1.564466 5.648320 -0.519985 101
1.556275 5.615077 -0.247270 101
1.730406 5.548226 -0.780624 101
1.727711 5.536308 -0.436076 101
1.741145 5.576060 -0.349100 101
1.395312 5.721989 -0.707512 66
1.569162 5.635778 -0.733860 83
2.079500 5.408151 -0.547710 101
1.568550 5.629914 -0.428156 101
1.570005 5.631474 -0.338115 101
2.258542 5.355154 -1.061030 101
1.744615 5.564133 -0.619062 92
2.248518 5.328883 -0.647740 101
1.745806 5.564653 -0.528709 101
1.914099 5.481163 -0.852352 101
1.400088 5.704041 -0.600737 100
1.915154 5.481223 -0.627676 101
1.397380 5.688873 -0.508386 101
1.912358 5.462152 -0.535848 101
1.413166 5.737515 -0.421488 101
1.919727 5.480244 -0.447825 101
1.401177 5.684721 -0.327337 5
2.098385 5.427941 -0.947129 100
1.581954 5.638566 -0.610353 101
2.088339 5.399255 -0.637072 75
1.584173 5.642825 -0.519985 101
1.575866 5.609610 -0.247270 101
1.749762 5.542152 -0.780624 101
1.744622 5.522637 -0.435476 101
1.754582 5.550912 -0.347907 101
1.414322 5.713228 -0.707035 66
1.588825 5.630267 -0.733860 83
2.101250 5.408283 -0.548463 101
1.590360 5.632083 -0.428740 101
1.593996 5.641331 -0.339039 101
1.244068 5.775513 -0.688802 5
2.275679 5.343616 -1.060312 101
1.761620 5.550427 -0.618217 92
2.265548 5.317345 -0.647295 101
1.761603 5.547135 -0.527625 101
1.933220 5.474448 -0.852352 101
1.419990 5.699119 -0.600737 101
1.930301 5.463255 -0.626386 101
1.417229 5.683960 -0.508386 101
1.931453 5.455429 -0.535848 101
1.422582 5.689959 -0.418358 101
1.940202 5.477260 -0.448133 101
1.423946 5.691411 -0.328007 101
2.114456 5.413225 -0.945844 100
1.601637 5.633008 -0.610353 101
2.107168 5.391935 -0.637072 75
1.603854 5.637262 -0.519985 101
1.596511 5.607925 -0.247439 101
1.770267 5.539799 -0.781156 101
1.768696 5.531727 -0.436676 101
1.777529 5.556185 -0.348623 101
1.435154 5.712126 -0.707512 66
1.434454 5.697375 -0.238026 2
1.603972 5.609460 -0.731868 83
2.118518 5.397264 -0.548087 113
1.604375 5.607363 -0.427279 101
1.608019 5.616584 -0.337884 101
1.269153 5.794458 -0.691581 101
2.289485 5.324869 -1.058156 101
1.774725 5.525365 -0.616106 92
2.285481 5.313135 -0.647740 101
1.784419 5.552392 -0.528709 101
1.954774 5.475194 -0.853514 101
1.438686 5.690324 -0.600330 101
1.953153 5.467798 -0.627676 101
1.436832 5.679037 -0.508386 101
1.951826 5.452403 -0.536217 101
1.441454 5.681091 -0.418073 101
1.960654 5.474209 -0.448440 101
1.442821 5.682536 -0.327784 101
2.136237 5.413156 -0.947129 100
1.620188 5.623559 -0.609939 101
2.127436 5.388245 -0.637509 75
1.621315 5.623972 -0.519278 101
1.616076 5.602318 -0.247439 101
1.785934 5.522270 -0.779559 101
1.785539 5.517930 -0.436076 101
1.795683 5.546147 -0.348384 101
1.455084 5.707081 -0.707512 66
1.458291 5.707823 -0.238673 19
1.623543 5.603827 -0.731868 83
2.152025 5.426854 -0.551851 200
1.621717 5.594065 -0.426695 101
1.624277 5.599431 -0.337191 101
1.287645 5.782237 -0.690655 101
2.309625 5.320454 -1.058875 101
1.792772 5.515354 -0.615683 92
2.304014 5.305125 -0.647740 101
1.798862 5.530975 -0.527264 101
1.971187 5.460892 -0.852352 101
1.456563 5.677558 -0.599516 101
1.969526 5.453466 -0.626816 101
1.459620 5.685566 -0.509424 101
1.965425 5.430576 -0.534741 101
1.462271 5.679889 -0.418358 101
1.977035 5.459832 -0.447825 101
1.460655 5.669730 -0.327337 101
2.155119 5.405666 -0.947129 100
1.640923 5.621689 -0.610353 101
2.143286 5.373400 -0.636634 75
1.638702 5.610630 -0.518571 101
1.630017 5.577463 -0.246591 101
1.300609 5.785839 -0.595051 55
1.810132 5.531073 -0.781689 101
1.803548 5.507873 -0.435776 101
1.823734 5.566406 -0.350055 101
1.474997 5.701968 -0.707512 66
1.472189 5.679484 -0.237702 101
1.644212 5.601934 -0.732366 83
2.156146 5.382342 -0.548087 101
1.644607 5.599853 -0.427571 101
1.307323 5.779946 -1.429807 101
1.642687 5.589896 -0.336961 101
1.301681 5.750581 -0.687413 101
2.331342 5.319568 -1.060312 101
1.816984 5.524176 -0.617373 92
2.322518 5.297050 -0.647740 101
1.821893 5.536015 -0.528347 101
1.994307 5.465132 -0.854095 101
1.475370 5.668589 -0.599109 101
1.991278 5.454030 -0.627676 101
1.478453 5.676580 -0.509078 101
1.982961 5.419956 -0.534373 101
1.479022 5.663180 -0.417504 101
1.993315 5.445416 -0.447210 101
1.479402 5.660739 -0.327114 101
2.172491 5.394452 -0.946486 100
1.658271 5.608299 -0.609524 101
2.162035 5.365883 -0.636634 75
1.658283 5.604873 -0.518571 101
1.651766 5.579397 -0.246931 100
1.322593 5.789019 -0.595850 101
1.823234 5.505891 -0.779026 101
1.315678 5.754294 -0.500859 11
1.820306 5.493953 -0.435177 101
1.841965 5.556194 -0.349816 101
1.495970 5.700607 -0.707989 66
1.490089 5.666549 -0.237378 101
1.666150 5.603730 -0.733362 83
2.173568 5.371035 -0.547710 101
1.662016 5.586387 -0.426987 101
1.319802 5.741206 -1.421363 101
1.665770 5.595561 -0.337653 101
1.312115 5.703373 -0.682317 101
1.830152 5.498871 -0.615261 92
2.341178 5.288830 -0.647740 101
1.837622 5.518219 -0.527264 101
2.005357 5.435783 -0.850609 101
1.495360 5.663348 -0.599109 101
2.009146 5.443233 -0.627246 101
1.493397 5.652061 -0.507349 101
2.003250 5.416737 -0.534741 101
1.500825 5.665697 -0.418073 101
2.016462 5.449646 -0.448133 101
1.497106 5.647820 -0.326667 101
2.192796 5.390492 -0.947129 100
1.672130 5.583420 -0.607451 101
2.177755 5.350938 -0.635759 75
1.675550 5.591417 -0.517864 101
1.338292 5.764982 -0.593853 101
1.844960 5.507012 -0.780091 101
1.330345 5.726373 -0.498830 13
1.843276 5.498911 -0.436076 101
1.855000 5.530802 -0.348623 55
1.510752 5.676161 -0.705604 66
1.505740 5.645866 -0.236730 101
1.682267 5.586479 -0.731868 83
2.187783 5.352356 -0.546581 101
1.681506 5.580552 -0.426987 101
1.342488 5.747924 -1.424178 101
1.684139 5.585889 -0.337422 101
1.333824 5.706496 -0.683244 101
1.850605 5.496219 -0.615683 92
2.358003 5.276996 -0.647295 101
1.855601 5.507995 -0.526903 101
2.027085 5.436167 -0.851771 101
1.515120 5.658093 -0.599109 101
2.029524 5.439913 -0.627676 101
1.516212 5.658360 -0.508386 101
2.022146 5.409711 -0.534741 101
1.518522 5.652717 -0.417504 101
1.516811 5.642560 -0.326667 101
2.210098 5.379154 -0.946486 100
1.695074 5.588971 -0.608695 101
2.199443 5.350658 -0.636634 75
1.695058 5.585535 -0.517864 101
1.357494 5.756402 -0.593453 101
1.862900 5.496784 -0.779559 101
1.353988 5.737211 -0.500183 101
1.854774 5.469779 -0.434277 101
1.529521 5.667019 -0.705127 66
1.524396 5.636718 -0.236568 101
1.702915 5.584369 -0.732366 83
2.209492 5.352048 -0.547334 20
1.699811 5.570832 -0.426695 101
1.363441 5.746986 -1.425116 101
1.700129 5.568519 -0.336730 101
1.354653 5.705670 -0.683707 101
1.874908 5.504786 -0.617373 92
1.363365 5.738070 -0.409312 0
2.387850 5.294098 -0.650411 100
1.876102 5.505255 -0.527264 101
2.046048 5.429058 -0.851771 101
1.534861 5.652771 -0.599109 101
2.047098 5.429074 -0.627246 101
1.529685 5.629960 -0.506311 101
2.042424 5.406346 -0.535110 101
1.539293 5.651231 -0.417789 101
1.538599 5.644937 -0.327114 101
2.230375 5.375052 -0.947129 100
1.713405 5.579217 -0.608280 101
2.215058 5.335604 -0.635759 75
1.715715 5.583392 -0.518218 101
1.369236 5.716793 -0.589859 101
1.882076 5.490247 -0.779559 101
1.373077 5.728574 -0.499844 101
1.877738 5.474590 -0.435177 101
1.548245 5.657815 -0.704650 66
1.537721 5.608236 -0.235597 101
1.721227 5.574598 -0.731868 83
1.722779 5.576300 -0.427571 101
1.388047 5.761093 -1.429807 101
1.720736 5.566365 -0.336961 101
1.383874 5.739531 -0.688339 101
1.891521 5.490687 -0.616528 92
1.382450 5.729397 -0.409035 23
1.892711 5.491140 -0.526542 101
2.062170 5.414486 -0.850609 101
1.552472 5.639705 -0.598295 101
2.064620 5.418180 -0.626816 101
1.552503 5.636112 -0.507349 101
2.066966 5.414068 -0.536585 101
1.554762 5.630440 -0.416650 101
1.555103 5.627983 -0.326444 101
2.247598 5.363593 -0.946486 100
1.730507 5.565604 -0.607451 101
2.233669 5.327840 -0.635759 75
1.734010 5.573565 -0.517864 101
1.386362 5.700377 -0.588661 101
1.901229 5.483644 -0.779559 101
1.391180 5.716001 -0.499168 101
1.900758 5.479308 -0.436076 101
1.570109 5.660030 -0.705604 66
1.557288 5.602834 -0.235597 101
1.735939 5.553404 -0.729877 83
1.739852 5.562637 -0.426987 101
1.403529 5.737328 -1.425116 101
1.737770 5.552703 -0.336499 101
1.400121 5.719229 -0.686486 101
1.905441 5.469026 -0.614839 92
1.395795 5.697405 -0.407097 71
1.913178 5.488262 -0.526903 101
2.083900 5.414641 -0.851771 101
1.572148 5.634252 -0.598295 101
2.086379 5.418362 -0.627676 101
1.572167 5.630658 -0.507349 101
2.085852 5.406820 -0.536585 101
1.573331 5.621136 -0.416366 101
1.573662 5.618675 -0.326221 101
2.270922 5.366623 -0.948414 100
1.753507 5.570914 -0.608695 101
2.255353 5.327333 -0.636634 75
1.755849 5.575078 -0.518571 101
1.408159 5.703231 -0.589460 101
1.920359 5.476974 -0.779559 101
1.407300 5.695632 -0.497815 101
1.919873 5.472640 -0.436076 101
1.585557 5.639222 -0.703696 66
1.576836 5.597364 -0.235597 101
1.757708 5.554878 -0.730873 83
1.756850 5.548923 -0.426402 101
1.418862 5.713524 -1.420425 101
1.758348 5.550410 -0.336730 101
1.420076 5.714307 -0.686486 101
1.927163 5.469844 -0.615683 92
1.419526 5.707988 -0.408204 94
1.933649 5.485307 -0.527264 101
1.420868 5.709284 -0.317606 19
2.101354 5.403646 -0.851190 101
1.589640 5.621071 -0.597481 101
2.100954 5.399928 -0.626386 101
1.586386 5.605964 -0.505620 101
2.101819 5.392084 -0.535848 101
1.594032 5.619449 -0.416650 101
1.592174 5.609305 -0.325998 101
2.286539 5.351402 -0.947129 100
1.768112 5.549597 -0.607036 101
2.273935 5.319428 -0.636634 75
1.772879 5.561324 -0.517864 101
1.430961 5.709862 -0.590658 101
1.938140 5.466501 -0.779026 101
1.422325 5.671356 -0.496124 101
1.930963 5.443349 -0.434277 101
1.604143 5.629833 -0.703219 66
1.594171 5.584139 -0.235273 101
1.772245 5.533590 -0.728881 83
1.777426 5.546556 -0.426695 101
1.443549 5.727389 -1.425116 101
1.777712 5.544238 -0.336730 101
1.440986 5.713168 -0.686949 101
1.950250 5.474325 -0.616950 92
1.442371 5.714606 -0.409035 101
1.950109 5.471019 -0.526542 101
1.438832 5.696545 -0.317174 101
2.127439 5.414695 -0.854095 101
1.608156 5.611663 -0.597074 101
2.122700 5.399963 -0.627246 101
1.608142 5.608054 -0.506311 101
2.116771 5.377672 -0.535110 101
1.612658 5.614131 -0.416650 101
1.614076 5.615510 -0.326667 101
2.302709 5.340165 -0.946486 100
1.786505 5.543703 -0.607036 101
2.288413 5.304556 -0.635759 75
1.788865 5.547830 -0.517157 101
1.446947 5.693513 -0.589460 101
1.956257 5.460044 -0.779026 101
1.441124 5.666608 -0.496124 101
1.958425 5.463200 -0.436376 101
1.448155 5.690244 -0.226592 0
1.627207 5.639746 -0.705127 66
1.612679 5.578822 -0.235273 101
1.793031 5.535234 -0.729877 83
1.797040 5.544426 -0.426987 101
1.458682 5.707501 -1.421363 101
1.796088 5.538312 -0.336730 101
1.459924 5.708358 -0.686949 101
1.964350 5.456600 -0.615683 92
1.458346 5.698194 -0.408204 101
1.970941 5.472018 -0.527264 101
1.460688 5.703350 -0.317821 101
2.142465 5.400253 -0.852933 101
1.626756 5.606299 -0.597074 101
2.139128 5.389198 -0.626816 101
1.627841 5.606517 -0.506657 101
2.137001 5.373951 -0.535479 101
1.630015 5.600806 -0.416081 101
1.631435 5.602172 -0.326221 101
2.324487 5.339334 -0.947771 100
1.807079 5.541215 -0.607451 101
2.311678 5.307472 -0.637072 75
1.806984 5.537764 -0.516804 101
1.465819 5.684574 -0.589060 101
1.973954 5.449455 -0.778494 101
1.461891 5.665402 -0.496462 101
1.969329 5.433830 -0.434577 101
1.466010 5.677414 -0.226283 64
1.643541 5.622596 -0.703696 66
1.633267 5.576994 -0.235435 100
1.809870 5.521399 -0.728881 83
1.812653 5.526748 -0.426110 101
1.476644 5.694847 -1.419487 101
1.816654 5.535804 -0.336961 77
1.480839 5.707073 -0.687413 101
1.976584 5.431021 -0.613572 92
1.470204 5.662170 -0.405989 101
1.988667 5.461362 -0.526903 101
1.477574 5.686619 -0.317174 101
2.149524 5.363354 -0.848285 101
1.641827 5.585316 -0.595446 101
2.157927 5.381698 -0.626816 101
1.645153 5.593154 -0.505965 101
2.161725 5.381227 -0.536954 101
1.652982 5.606551 -0.416935 101
1.651006 5.596436 -0.326221 101
2.339943 5.323955 -0.946486 100
1.825173 5.531093 -0.607036 101
2.328585 5.295733 -0.636634 75
1.828796 5.538991 -0.517511 101
1.483616 5.671728 -0.588262 101
1.992928 5.442544 -0.778494 101
1.485658 5.675698 -0.497815 101
1.993721 5.441922 -0.435776 87
1.483739 5.664544 -0.225975 101
1.663089 5.616845 -0.703696 66
1.829002 5.515090 -0.728881 83
1.833045 5.524221 -0.426402 101
1.497353 5.693458 -1.420425 101
1.492496 5.671174 -0.683707 101
1.998103 5.431618 -0.614417 92
1.492828 5.668627 -0.406820 101
2.004777 5.446980 -0.526181 101
1.492128 5.662167 -0.316096 101
2.175456 5.374241 -0.851190 101
1.665645 5.594868 -0.597074 101
2.174990 5.370535 -0.626386 101
