# This PCD file was generated using the MATLAB® pcwrite function
# from Computer Vision Toolbox®.
# .PCD v.7 - Point Cloud Data file format
VERSION .7
FIELDS x y z intensity
SIZE 4 4 4 1
TYPE F F F U
COUNT 1 1 1 1
WIDTH 1529
HEIGHT 1
VIEWPOINT 0 0 0 1 0 0 0
POINTS 1529
DATA ascii
0.157223 3.012933 -0.133837 100
0.062687 3.079548 0.153341 70
-0.034165 3.012091 -0.308102 100
-0.133515 3.113042 -0.024473 61
0.560380 3.095325 0.466191 74
0.428246 2.880685 -0.146004 101
0.349314 3.000813 0.132960 100
0.244537 2.900750 -0.314698 101
0.156144 2.982662 -0.086558 81
0.063883 3.112736 0.202971 66
-0.033443 2.992564 -0.259727 86
-0.132142 3.093091 0.023235 81
0.495717 2.728065 -0.576326 101
0.432164 2.894146 -0.101675 101
0.350516 2.994238 0.179105 78
0.245111 2.885221 -0.268108 101
0.158128 2.983536 -0.040676 90
0.065742 3.105223 0.250442 99
-0.031626 3.004200 -0.214302 88
-0.131452 3.124418 0.071512 84
0.508499 2.795748 -0.323761 101
0.439332 2.938785 -0.057573 101
0.354370 3.022788 0.227773 100
0.249297 2.928681 -0.226681 100
0.162039 3.047691 0.005327 79
0.066899 3.135123 0.356175 18
-0.031237 3.015129 -0.168581 90
-0.131872 3.146936 0.120449 74
0.518960 2.850558 -0.195494 101
0.442708 2.957988 0.079887 101
0.333753 2.842813 -0.465854 101
0.251768 2.951869 -0.091550 84
0.164279 3.080092 0.147618 84
0.063899 2.971216 -0.309738 101
-0.031350 3.075693 -0.030064 84
0.522778 2.868808 -0.151803 101
0.446522 2.980065 0.126823 100
0.339380 2.886571 -0.319849 101
0.254735 2.980774 -0.046474 95
0.165506 3.093382 0.195983 68
0.064578 2.979594 -0.264411 100
-0.031077 3.099796 0.017314 76
0.531852 2.915839 -0.017589 101
0.452089 3.013783 0.276272 100
0.344492 2.925834 -0.187414 101
0.260603 3.043438 0.093326 95
0.158346 2.950317 -1.377735 35
0.065796 3.012569 -0.127875 84
-0.030755 3.119680 0.161320 70
-0.124962 3.018245 -0.303117 93
0.537354 2.943216 0.028199 94
0.466105 3.103676 0.536470 71
0.344810 2.924322 -0.141953 101
0.261642 3.049569 0.140595 71
0.156650 2.909619 -0.391377 101
0.066511 3.022162 -0.081797 68
-0.030554 3.152758 0.211627 62
-0.124306 3.014596 -0.256010 94
0.542786 2.970155 0.167750 100
0.427399 2.842706 -0.277304 101
0.349452 2.959433 -0.006241 91
0.263162 3.061280 0.308308 101
0.158532 2.935424 -0.221037 98
0.068093 3.070689 0.058438 74
-0.125139 3.047161 -0.117692 79
0.548498 2.998578 0.216368 100
0.431425 2.866223 -0.234736 101
0.349447 2.955149 0.039474 100
0.161563 2.982298 -0.178487 97
0.069293 3.101391 0.106704 58
-0.028166 3.010225 -0.361628 67
-0.125669 3.072603 -0.071396 70
0.514979 2.807372 -0.280864 101
0.441444 2.922828 -0.011866 100
0.360186 3.032920 0.290324 101
0.254319 2.935403 -0.181758 100
0.165728 3.031029 0.051926 67
-0.026507 2.993427 -0.121280 89
-0.126563 3.132938 0.168166 47
0.519766 2.830801 -0.238648 101
0.446692 2.954228 0.033897 100
0.255367 2.941776 -0.136670 100
0.168142 3.065774 0.099709 84
0.067567 2.936205 -0.368424 101
-0.026540 3.054919 -0.076798 81
-0.127364 3.165895 0.218782 2
0.529622 2.881767 -0.107439 101
0.454248 3.000803 0.174465 100
0.345677 2.902458 -0.276302 101
0.260638 2.996687 -0.000525 96
0.169976 3.089760 0.243537 77
0.069240 2.987190 -0.218900 100
-0.026475 3.107206 0.065089 63
0.531063 2.886894 -0.062512 101
0.457881 3.021390 0.222802 100
0.347096 2.910231 -0.231693 101
0.264929 3.040127 0.046341 71
0.173564 3.145395 0.335545 75
0.070276 3.010148 -0.174139 96
-0.026278 3.145816 0.114256 69
-0.119894 3.005237 -0.350654 101
0.542365 2.945564 0.074244 101
0.420257 2.769996 -0.511478 101
0.350376 2.933559 -0.096975 101
0.267748 3.066548 0.188811 61
0.162886 2.942933 -0.312909 101
0.071269 3.030955 -0.035455 81
-0.026073 3.185055 0.262987 63
-0.121020 3.046264 -0.211580 79
0.544036 2.951865 0.120556 88
0.434568 2.861094 -0.324092 101
0.353377 2.954489 -0.051938 101
0.270062 3.087091 0.237902 80
0.164287 2.959289 -0.268688 100
0.072822 3.075117 0.011274 79
-0.120309 3.041190 -0.164301 73
0.553032 2.997865 0.265632 98
0.439829 2.892473 -0.191762 101
0.355206 2.965579 0.085515 86
0.251909 2.874055 -0.423561 101
0.166629 2.992417 -0.132951 100
0.073531 3.083304 0.153540 64
-0.023526 2.996275 -0.306473 100
-0.122491 3.109492 -0.024441 68
0.568308 3.077786 0.463846 78
0.438299 2.879172 -0.146004 101
0.360263 3.003543 0.133135 87
0.254661 2.899879 -0.314698 101
0.166554 2.982099 -0.086558 71
0.074940 3.120474 0.203491 65
-0.022966 2.988678 -0.259381 89
-0.121814 3.105524 0.023325 78
0.505237 2.726318 -0.576326 101
0.443472 2.900523 -0.101953 101
0.361443 2.996960 0.179342 81
0.254830 2.880381 -0.267740 101
0.168993 2.990952 -0.040785 85
0.076188 3.089032 0.249156 98
-0.021196 3.012272 -0.214871 80
-0.120545 3.124858 0.071512 79
0.516080 2.782233 -0.322403 101
0.448982 2.933280 -0.057496 101
0.365876 3.029452 0.228370 100
0.259166 2.923820 -0.226373 94
0.172224 3.039119 0.005313 82
0.077744 3.130898 0.355723 35
-0.020740 3.019214 -0.168804 100
-0.120273 3.131401 0.119837 70
0.527450 2.840881 -0.194955 101
0.452425 2.952472 0.079781 101
0.343200 2.837712 -0.465211 101
0.262777 2.958936 -0.091797 74
0.174349 3.067533 0.147044 87
0.073972 2.959043 -0.308494 101
-0.020614 3.075784 -0.030064 84
0.532789 2.866966 -0.151803 101
0.457528 2.982439 0.126991 100
0.348976 2.881422 -0.319411 101
0.264784 2.975883 -0.046412 92
0.176757 3.100757 0.196488 80
0.074978 2.979350 -0.264411 100
-0.020231 3.095886 0.017291 71
0.542027 2.913965 -0.017589 101
0.462002 3.008249 0.275911 101
0.354222 2.920651 -0.187160 101
0.269805 3.026580 0.092837 94
0.167816 2.935269 -1.370974 25
0.076109 3.004331 -0.127536 89
-0.019941 3.131752 0.161939 72
-0.114125 3.010708 -0.302318 91
0.546161 2.933458 0.028123 100
0.475138 3.090339 0.534448 68
0.353570 2.911202 -0.141376 101
0.270152 3.024758 0.139494 72
0.166352 2.901139 -0.390312 101
0.076958 3.017914 -0.081689 73
-0.019524 3.148854 0.211359 63
-0.113182 2.999080 -0.254657 100
0.553150 2.968242 0.167750 84
0.436713 2.837261 -0.276920 101
0.362194 2.978049 -0.006283 79
0.273492 3.056379 0.307909 101
0.168548 2.930871 -0.220737 93
0.078606 3.062437 0.058286 76
-0.114201 3.039591 -0.117383 81
0.558962 2.996645 0.216368 100
0.443856 2.880462 -0.236028 101
0.362661 2.977733 0.039792 98
0.172202 2.985703 -0.178726 97
0.080118 3.101131 0.106704 66
-0.017588 2.998391 -0.360197 72
-0.114943 3.073022 -0.071396 70
0.522579 2.793818 -0.279689 101
0.450422 2.913363 -0.011834 100
0.372704 3.047454 0.291838 101
0.263847 2.926545 -0.181265 100
0.176075 3.026439 0.051857 74
-0.016186 3.017481 -0.122251 91
-0.115773 3.137352 0.168380 53
0.530378 2.832888 -0.238978 101
0.458225 2.960556 0.033988 100
0.264556 2.928928 -0.136115 100
0.178144 3.053195 0.099320 90
0.078342 2.955789 -0.370913 101
-0.015877 3.054994 -0.076798 81
-0.115872 3.154356 0.217955 22
0.538942 2.875972 -0.107293 101
0.467166 3.014985 0.175383 100
0.354837 2.893328 -0.275549 101
0.271097 2.995759 -0.000525 100
0.180760 3.089147 0.243537 77
0.080092 3.002882 -0.220069 94
-0.015609 3.103280 0.065005 71
0.541874 2.888954 -0.062597 101
0.469036 3.023716 0.223093 96
0.356281 2.901086 -0.231062 101
0.274456 3.027234 0.046159 72
0.183844 3.132858 0.334274 73
0.080461 2.997909 -0.173446 100
-0.015219 3.129900 0.113676 72
-0.109258 3.001667 -0.350191 101
0.554119 2.951513 0.074443 101
0.428716 2.760736 -0.510041 101
0.361102 2.936286 -0.097107 101
0.278089 3.061619 0.188566 64
0.171755 2.918521 -0.310375 101
0.082064 3.038684 -0.035548 95
-0.014880 3.169181 0.261671 66
-0.109953 3.034704 -0.210749 91
0.552860 2.942092 0.120235 97
0.440888 2.835992 -0.321421 101
0.363199 2.949268 -0.051869 101
0.279752 3.074214 0.236983 81
0.174382 2.954721 -0.268327 100
0.083338 3.066847 0.011245 79
-0.109405 3.033608 -0.163870 78
0.559810 2.976335 0.263896 98
0.448081 2.879089 -0.190977 101
0.364577 2.956385 0.085286 95
0.260862 2.861335 -0.421818 101
0.177073 2.991817 -0.132951 100
0.084075 3.075041 0.153142 59
-0.012997 2.980422 -0.304845 100
-0.111636 3.109901 -0.024441 68
0.577583 3.068007 0.462673 78
0.448961 2.881572 -0.146204 101
0.370255 2.998301 0.132960 99
0.264782 2.898972 -0.314698 101
0.176963 2.981499 -0.086558 84
0.085612 3.112214 0.202971 64
-0.012517 2.984755 -0.259035 91
-0.110830 3.101933 0.023295 78
0.515463 2.728388 -0.577140 101
0.454814 2.906859 -0.102231 101
0.373362 3.007570 0.180054 89
0.266327 2.895340 -0.269215 100
0.179895 2.998330 -0.040894 79
0.087627 3.112660 0.251085 94
-0.010640 2.996368 -0.213732 86
-0.109933 3.133252 0.071695 71
0.522087 2.760891 -0.320139 101
0.459209 2.931697 -0.057496 101
0.375455 3.020241 0.227773 100
0.268629 2.914956 -0.225758 100
0.182581 3.034508 0.005306 82
0.088662 3.130608 0.355723 38
-0.010183 3.011280 -0.168358 83
-0.109073 3.123812 0.119532 86
0.538102 2.842945 -0.195224 101
0.462105 2.946925 0.079674 101
0.354076 2.844332 -0.466496 101
0.273101 2.958002 -0.091797 79
0.185533 3.074882 0.147427 78
0.084523 2.966721 -0.309323 101
-0.009907 3.083837 -0.030142 90
0.539078 2.845464 -0.150763 101
0.466698 2.972927 0.126655 101
0.358050 2.872295 -0.318536 101
0.274436 2.966975 -0.046288 95
0.186859 3.088167 0.195731 59
0.084809 2.959157 -0.262644 100
-0.009422 3.095937 0.017291 66
0.548478 2.892404 -0.017470 101
0.472508 3.006617 0.275911 100
0.361951 2.899590 -0.185891 101
0.280745 3.029600 0.092959 89
0.177191 2.920191 -1.364212 15
0.086604 3.004047 -0.127536 91
-0.009012 3.135798 0.162146 75
-0.104154 3.026999 -0.303915 87
0.557903 2.939390 0.028199 96
0.485937 3.088659 0.534448 64
0.363744 2.909948 -0.141376 101
0.282201 3.039710 0.140228 76
0.176492 2.900540 -0.390312 101
0.087507 3.017627 -0.081689 80
-0.008495 3.140921 0.210823 67
-0.102834 3.003441 -0.254995 100
0.562038 2.958442 0.167307 100
0.443537 2.816051 -0.275000 101
0.371117 2.964857 -0.006258 85
0.284180 3.055403 0.307909 101
0.179041 2.934245 -0.221037 91
0.089433 3.066141 0.058362 78
-0.103434 3.035977 -0.117229 89
0.569445 2.994671 0.216368 100
0.451449 2.863137 -0.234736 101
0.371587 2.964540 0.039633 100
0.182650 2.985082 -0.178726 100
0.091087 3.104827 0.106841 63
-0.007076 2.990491 -0.359243 74
-0.104053 3.069409 -0.071304 67
0.530133 2.780238 -0.278514 101
0.460632 2.911766 -0.011834 101
0.380402 3.022424 0.289566 101
0.272987 2.913677 -0.180527 92
0.185698 3.009836 0.051584 65
-0.005534 2.977552 -0.120632 98
-0.104907 3.141731 0.168594 51
0.538816 2.823179 -0.238317 101
0.467981 2.954980 0.033942 100
0.275948 2.939917 -0.136670 100
0.188853 3.052552 0.099320 83
0.087875 2.927726 -0.367428 101
-0.005147 3.047033 -0.076597 81
-0.104807 3.154744 0.217955 37
0.547532 2.866210 -0.107000 101
0.474618 2.993606 0.174235 99
0.363992 2.884163 -0.274796 101
0.281235 2.990806 -0.000524 93
0.191601 3.088494 0.243537 78
0.090390 2.994607 -0.219485 100
-0.004705 3.095317 0.064838 71
0.550514 2.879177 -0.062426 101
0.478401 3.014170 0.222511 99
0.365966 2.895861 -0.230747 101
0.285085 3.026251 0.046159 83
0.195091 3.136163 0.334698 82
0.090989 2.997608 -0.173446 89
-0.004222 3.125936 0.113530 80
-0.098717 3.002032 -0.350191 101
0.566742 2.961330 0.074740 101
0.440266 2.770871 -0.512197 101
0.371417 2.934999 -0.097107 101
0.289220 3.064598 0.188811 62
0.183247 2.937750 -0.312487 101
0.092985 3.046373 -0.035642 92
-0.003716 3.145295 0.259696 76
-0.099289 3.035072 -0.210749 84
0.565456 2.951906 0.120716 100
0.452105 2.842276 -0.322312 101
0.372560 2.940037 -0.051729 101
0.290558 3.073212 0.236983 80
0.183525 2.934210 -0.266521 100
0.093506 3.046545 0.011171 87
-0.098349 3.021998 -0.163223 78
0.576280 3.005656 0.266674 95
0.459462 2.885378 -0.191500 101
0.376485 2.966984 0.085630 97
0.271299 2.864339 -0.422399 101
0.187346 2.987187 -0.132773 100
0.094892 3.074727 0.153142 62
-0.002526 2.996367 -0.306473 100
-0.100954 3.118270 -0.024504 72
0.590616 3.077613 0.464432 65
0.459101 2.879974 -0.146204 101
0.381310 3.000943 0.133135 95
0.274233 2.890104 -0.313838 101
0.188209 2.992829 -0.086905 73
0.096938 3.123862 0.203752 61
-0.002014 2.988765 -0.259381 86
-0.100169 3.110300 0.023355 76
0.524983 2.726573 -0.577140 101
0.460536 2.877622 -0.101258 101
0.382341 2.994366 0.179342 71
0.275296 2.882498 -0.268108 100
0.189853 2.989700 -0.040785 79
0.098239 3.104365 0.250442 77
-0.000180 2.984417 -0.212879 89
-0.098364 3.113632 0.071237 76
0.536234 2.782467 -0.322856 101
0.468174 2.922178 -0.057341 101
0.385995 3.018912 0.227773 97
0.280322 2.929881 -0.226988 100
0.193173 3.033852 0.005306 79
0.099337 3.122334 0.354820 44
0.000328 3.011297 -0.168358 73
-0.098042 3.120178 0.119379 82
0.548778 2.844968 -0.195494 101
0.474289 2.957138 0.079994 101
0.364002 2.843079 -0.466496 101
0.283806 2.961010 -0.091921 74
0.195501 3.062254 0.146853 82
0.095006 2.970384 -0.309738 101
0.000857 3.079853 -0.030103 77
0.550521 2.851409 -0.151179 101
0.475806 2.963388 0.126318 100
0.366557 2.859197 -0.317223 101
0.284791 2.965999 -0.046288 100
0.197128 3.079528 0.195225 68
0.095138 2.958843 -0.262644 100
0.001376 3.075952 0.017180 70
0.558571 2.890472 -0.017470 101
0.481736 2.997083 0.275189 101
0.373087 2.906227 -0.186399 101
0.289788 3.012683 0.092471 87
0.187616 2.923172 -1.365902 12
0.096702 2.991743 -0.127027 95
0.001921 3.115837 0.161113 74
-0.092603 2.995519 -0.300720 93
0.566641 2.929570 0.028123 100
0.498595 3.098622 0.536470 62
0.373900 2.908661 -0.141376 101
0.293193 3.042683 0.140411 67
0.186615 2.899906 -0.390312 101
0.098040 3.017303 -0.081689 78
0.002469 3.140932 0.210823 58
-0.092227 2.999798 -0.254657 100
0.575397 2.972146 0.168194 101
0.458429 2.845933 -0.278072 101
0.382996 2.975445 -0.006283 84
0.295608 3.062316 0.308708 101
0.188512 2.921660 -0.220138 91
0.100266 3.069807 0.058438 84
-0.092591 3.028330 -0.116921 73
0.579895 2.992665 0.216368 100
0.462076 2.865480 -0.235059 101
0.381422 2.959258 0.039580 93
0.193069 2.984426 -0.178726 100
0.101662 3.096499 0.106566 64
0.003376 3.002412 -0.360674 67
-0.093338 3.069754 -0.071304 69
0.540594 2.782279 -0.278905 101
0.471432 2.914089 -0.011850 101
0.392483 3.032925 0.290702 101
0.283156 2.912706 -0.180527 100
0.198025 3.037106 0.052063 70
0.004892 2.997537 -0.121442 84
-0.093940 3.142078 0.168594 55
0.548668 2.821281 -0.238317 101
0.474457 2.929638 0.033670 101
0.285434 2.930982 -0.136300 100
0.198985 3.043895 0.099060 87
0.098228 2.931368 -0.367926 101
0.005496 3.051031 -0.076697 77
-0.093913 3.159079 0.218231 43
0.555242 2.852510 -0.106560 101
0.485704 2.995873 0.174465 100
0.373032 2.874977 -0.274043 101
0.291673 2.989806 -0.000524 100
0.202120 3.083827 0.243223 78
0.100843 2.994273 -0.219485 100
0.006084 3.087317 0.064670 78
0.559796 2.873313 -0.062341 101
0.488280 3.008544 0.222220 93
0.374017 2.878748 -0.229486 101
0.294091 3.009315 0.045916 74
0.206037 3.135463 0.334698 73
0.101452 2.997272 -0.173446 100
0.006672 3.117937 0.113240 79
-0.088120 2.998387 -0.349728 101
0.576310 2.955409 0.074641 101
0.449935 2.769317 -0.512197 101
0.381660 2.933685 -0.097107 101
0.299916 3.063569 0.188811 60
0.192194 2.917247 -0.310375 101
0.103482 3.042032 -0.035595 100
0.007226 3.129343 0.258379 82
-0.088461 3.027423 -0.210195 91
0.576522 2.953837 0.120877 92
0.462023 2.840680 -0.322312 101
0.384370 2.950617 -0.051938 101
0.301673 3.076148 0.237290 76
0.193766 2.933552 -0.266521 100
0.104413 3.054195 0.011201 79
-0.087800 3.022322 -0.163223 86
0.581420 2.976250 0.264244 98
0.469531 2.883757 -0.191500 101
0.386322 2.961686 0.085515 100
0.282070 2.871252 -0.423561 101
0.197772 2.986515 -0.132773 92
0.105899 3.082362 0.153540 55
0.007912 2.988399 -0.305660 93
-0.089953 3.114605 -0.024473 72
0.600596 3.071649 0.463846 77
0.468508 2.874411 -0.146004 101
0.390748 2.991669 0.132784 99
0.284709 2.893087 -0.314268 101
0.197595 2.976196 -0.086442 76
0.107566 3.115526 0.203231 63
0.008419 2.988754 -0.259381 82
-0.089197 3.106632 0.023325 86
0.536005 2.732409 -0.578768 101
0.471869 2.883887 -0.101536 101
0.393311 2.996972 0.179580 76
0.285749 2.885483 -0.268477 101
0.200021 2.985029 -0.040731 90
0.109075 3.104003 0.250442 80
0.010238 2.984400 -0.212879 89
-0.087607 3.117954 0.071329 72
0.542880 2.764979 -0.321044 101
0.477725 2.916579 -0.057263 101
0.397050 3.021501 0.228071 100
0.290153 2.924916 -0.226681 100
0.202689 3.017195 0.005278 70
0.110656 3.133884 0.356175 40
0.010811 3.003290 -0.167911 79
-0.087039 3.116506 0.119226 80
0.560245 2.850867 -0.196032 101
0.485255 2.959411 0.080101 101
0.373924 2.841791 -0.466496 101
0.292954 2.948066 -0.091550 80
0.206995 3.073512 0.147427 80
0.105374 2.970034 -0.309738 101
0.011607 3.079831 -0.030103 90
0.562013 2.857309 -0.151595 101
0.488089 2.973540 0.126823 100
0.378613 2.873667 -0.318974 101
0.295934 2.972947 -0.046412 87
0.207876 3.078821 0.195225 77
0.105465 2.958493 -0.262644 100
0.012145 3.083928 0.017224 71
0.573293 2.912052 -0.017612 101
0.494133 3.007176 0.276272 101
0.382185 2.896992 -0.185891 101
0.303079 3.039501 0.093326 94
0.201735 2.980371 -1.392950 10
0.107288 2.995382 -0.127196 96
0.012814 3.119806 0.161320 70
-0.082037 2.991846 -0.300321 100
0.576863 2.927575 0.028123 100
0.510688 3.104644 0.537818 62
0.383004 2.899416 -0.140990 101
0.302224 3.025738 0.139677 75
0.197005 2.903192 -0.390844 101
0.108428 3.012946 -0.081581 70
0.013415 3.136913 0.210555 65
-0.081972 3.008070 -0.255333 100
0.586541 2.974038 0.168416 100
0.466420 2.832530 -0.276920 101
0.390758 2.954263 -0.006241 100
0.305899 3.057305 0.308308 101
0.198438 2.917005 -0.219838 91
0.110836 3.065442 0.058362 78
-0.082344 3.040621 -0.117383 87
0.587247 2.974965 0.215235 100
0.469481 2.848114 -0.233768 101
0.391224 2.953943 0.039527 100
0.203485 2.983734 -0.178726 100
0.112325 3.092131 0.106429 73
0.013820 2.994439 -0.359720 78
-0.082299 3.058069 -0.071025 73
0.551076 2.784280 -0.279297 101
0.480296 2.904533 -0.011818 100
0.403067 3.031536 0.290702 101
0.293722 2.915672 -0.180773 95
0.207255 3.016446 0.051721 74
0.015335 2.993505 -0.121280 84
-0.082972 3.142387 0.168594 56
0.560062 2.827169 -0.238978 101
0.488599 2.951641 0.033942 100
0.296465 2.937919 -0.136670 100
0.210708 3.059135 0.099579 86
0.108900 2.942906 -0.369419 101
0.016040 3.031000 -0.076194 82
-0.083199 3.171355 0.219057 57
0.564418 2.846634 -0.106413 101
0.495505 2.990220 0.174235 93
0.385170 2.889446 -0.275549 101
0.302108 2.988770 -0.000524 93
0.212608 3.079125 0.242909 75
0.110850 2.981944 -0.218608 96
0.016839 3.083278 0.064586 69
0.570601 2.875264 -0.062426 101
0.499432 3.010757 0.222511 100
0.385119 2.885330 -0.230117 101
0.306205 3.024187 0.046159 74
0.216431 3.126788 0.333850 71
0.111913 2.996900 -0.173446 100
0.017466 3.101906 0.112659 74
-0.077551 2.994705 -0.349265 101
0.585843 2.949457 0.074542 101
0.458955 2.763848 -0.511478 101
0.390839 2.924409 -0.096844 101
0.309400 3.050587 0.188076 66
0.202926 2.924494 -0.311220 101
0.113650 3.029662 -0.035455 86
0.018103 3.121326 0.257721 100
-0.077790 3.023724 -0.209918 97
0.586050 2.947887 0.120716 100
0.471285 2.835129 -0.321867 101
0.393076 2.937365 -0.051729 101
0.312006 3.071109 0.236983 78
0.204282 2.936831 -0.266882 100
0.115224 3.057809 0.011215 86
-0.077147 3.018618 -0.163007 86
0.592583 2.978110 0.264591 100
0.478939 2.878163 -0.191239 101
0.395065 2.948431 0.085172 93
0.291289 2.862375 -0.422399 101
0.208196 2.985807 -0.132773 101
0.116053 3.066005 0.152744 56
0.018295 2.980394 -0.304845 100
-0.078471 3.090909 -0.024284 70
0.607450 3.050131 0.460914 78
0.475257 2.853055 -0.145003 101
0.399063 2.974444 0.132080 100
0.293597 2.880207 -0.312978 101
0.207425 2.967510 -0.086210 84
0.117834 3.099177 0.202190 63
0.018726 2.968782 -0.257652 97
-0.078150 3.098927 0.023265 78
0.544787 2.726679 -0.577954 101
0.481289 2.878277 -0.101397 101
0.402719 2.987664 0.179105 88
0.295428 2.880504 -0.268108 101
0.211018 2.992291 -0.040839 74
0.120079 3.107587 0.250763 65
0.020616 2.976366 -0.212309 86
-0.076510 3.110246 0.071146 72
0.554096 2.770859 -0.321950 101
0.487913 2.914892 -0.057263 101
0.406004 3.008237 0.227176 100
0.297926 2.900080 -0.224835 100
0.213230 3.016468 0.005278 79
0.121913 3.141422 0.357078 41
0.021332 3.007228 -0.168134 78
-0.076345 3.124783 0.119532 80
0.568630 2.841066 -0.195494 101
0.490961 2.930093 0.079353 101
0.382788 2.832643 -0.465211 101
0.302837 2.943048 -0.091427 77
0.216879 3.060814 0.146853 67
0.115124 2.953746 -0.308079 101
0.022217 3.059773 -0.029907 89
0.570412 2.847497 -0.151179 101
0.497802 2.967877 0.126655 100
0.387040 2.860508 -0.317661 101
0.304258 2.952004 -0.046101 96
0.218902 3.082059 0.195478 64
0.115945 2.962088 -0.262997 100
0.022878 3.079867 0.017202 77
0.580301 2.894348 -0.017517 101
0.501980 2.989719 0.274827 100
0.392287 2.895642 -0.185891 101
0.310394 3.006610 0.092348 100
0.211872 2.976033 -1.391259 8
0.117578 2.990996 -0.127027 87
0.023696 3.119742 0.161320 69
-0.071601 2.992114 -0.300321 97
0.585491 2.917703 0.028048 96
0.522161 3.106733 0.538492 71
0.392035 2.890145 -0.140605 101
0.312358 3.020691 0.139494 75
0.206560 2.894579 -0.389779 101
0.118457 3.000564 -0.081256 79
0.024226 3.120883 0.209484 56
-0.071297 3.000368 -0.254657 101
0.595326 2.964145 0.167972 100
0.477606 2.838740 -0.277688 101
0.399971 2.944957 -0.006225 100
0.316139 3.052262 0.307909 101
0.209453 2.928232 -0.220737 100
0.121198 3.057045 0.058210 79
-0.071845 3.044885 -0.117538 91
0.599961 2.984637 0.216085 100
0.480719 2.854326 -0.234413 101
0.402585 2.960490 0.039633 93
0.213016 2.971059 -0.178010 100
0.122773 3.083732 0.106154 80
0.024278 2.998344 -0.360197 74
-0.071370 3.046343 -0.070747 67
0.560750 2.782347 -0.279297 101
0.491721 2.910734 -0.011850 100
0.414140 3.034063 0.291081 101
0.305096 2.926546 -0.181512 100
0.217450 3.011718 0.051652 79
0.025808 3.001427 -0.121604 84
-0.072232 3.150643 0.169023 63
0.569091 2.821299 -0.238648 101
0.498849 2.949926 0.033942 100
0.435894 3.189453 0.669574 0
0.306254 2.932897 -0.136485 100
0.219890 3.038448 0.098930 71
0.119282 2.946475 -0.369917 101
0.026604 3.034925 -0.076295 79
-0.072364 3.179604 0.219608 58
0.577462 2.860330 -0.107000 101
0.505883 2.988481 0.174235 99
0.394659 2.884146 -0.275173 101
0.310818 2.971790 -0.000522 100
0.223297 3.078368 0.242909 78
0.121525 2.989513 -0.219192 100
0.027507 3.079202 0.064503 74
0.581366 2.877187 -0.062512 101
0.511208 3.016872 0.223093 93
0.394045 2.876075 -0.229486 101
0.317113 3.027084 0.046219 81
0.226702 3.118085 0.333003 64
0.122148 2.992503 -0.173215 89
0.028373 3.117815 0.113240 84
-0.067071 2.990984 -0.348802 101
0.594482 2.939569 0.074343 101
0.469852 2.769999 -0.512915 101
0.402064 2.930958 -0.097107 101
0.320809 3.057438 0.188566 69
0.212777 2.919806 -0.310798 101
0.124483 3.037242 -0.035548 97
0.028964 3.125231 0.258050 101
-0.067571 3.035944 -0.210749 86
0.592298 2.926251 0.119914 95
0.478445 2.817802 -0.320086 101
0.402709 2.932023 -0.051659 101
0.323481 3.077942 0.237596 86
0.214748 2.940079 -0.267243 101
0.125163 3.041405 0.011157 79
-0.066509 3.010880 -0.162576 92
0.602103 2.972135 0.264244 100
0.486898 2.864682 -0.190454 101
0.404730 2.943084 0.085057 100
0.299544 2.845606 -0.420075 101
0.218828 2.989053 -0.132951 100
0.127001 3.073568 0.153142 57
0.028617 2.980313 -0.304845 100
-0.067678 3.087163 -0.024253 72
0.620363 3.059644 0.462673 81
0.490490 2.882900 -0.146605 101
0.409902 2.977004 0.132256 100
0.304399 2.887083 -0.313838 101
0.218281 2.974750 -0.086442 84
0.129223 3.114703 0.203231 66
0.029080 2.976669 -0.258343 92
-0.067249 3.091182 0.023205 73
0.551960 2.713247 -0.575512 101
0.492006 2.880520 -0.101536 101
0.413693 2.990196 0.179342 81
0.304220 2.867573 -0.267002 101
0.220576 2.979570 -0.040676 76
0.130591 3.099182 0.250120 73
0.031005 2.976276 -0.212309 89
-0.065906 3.122488 0.071420 76
0.562972 2.765014 -0.321497 101
0.498759 2.917114 -0.057341 101
0.415955 3.002850 0.226877 100
0.308890 2.906954 -0.225450 100
0.223758 3.015706 0.005278 71
0.132710 3.137006 0.356626 49
0.031787 3.003142 -0.167911 67
-0.065437 3.125030 0.119532 67
0.577747 2.835154 -0.195224 101
0.504559 2.948068 0.079887 101
0.392131 2.827379 -0.464569 101
0.312685 2.937997 -0.091303 80
0.227266 3.056054 0.146662 87
0.125434 2.953326 -0.308079 101
0.032768 3.047678 -0.029790 77
0.581147 2.849402 -0.151387 101
0.508159 2.966121 0.126655 100
0.398117 2.867016 -0.318536 101
0.316256 2.966832 -0.046350 85
0.229363 3.077295 0.195225 70
0.126794 2.973607 -0.264058 100
0.033585 3.075769 0.017180 74
0.590400 2.892304 -0.017517 101
0.514433 2.999728 0.275911 85
0.404041 2.906116 -0.186653 101
0.321312 3.009484 0.092471 100
0.220639 2.953584 -1.381117 10
0.127847 2.986574 -0.126857 96
0.034497 3.111651 0.160906 70
-0.061156 2.992345 -0.300321 100
0.596473 2.919560 0.028085 100
0.533002 3.104892 0.538492 71
0.404324 2.904588 -0.141376 101
0.322900 3.019582 0.139494 79
0.216662 2.893841 -0.389779 101
0.129273 3.008121 -0.081473 78
0.035434 3.148715 0.211359 66
-0.061065 3.012554 -0.255671 100
0.607269 2.969875 0.168416 100
0.486838 2.833132 -0.277304 101
0.414113 2.971274 -0.006283 95
0.328486 3.066970 0.309506 101
0.219375 2.923505 -0.220437 100
0.132903 3.080576 0.058667 73
-0.061296 3.049114 -0.117692 97
0.609576 2.978616 0.215802 100
0.489328 2.844772 -0.233768 101
0.411258 2.947182 0.039474 100
0.223685 2.974279 -0.178249 100
0.133363 3.079291 0.106016 81
0.034744 2.998241 -0.360197 78
-0.060736 3.046573 -0.070747 71
0.572859 2.792072 -0.280472 101
0.501199 2.905058 -0.011834 101
0.425833 3.040486 0.291838 101
0.315310 2.925464 -0.181512 100
0.228867 3.022905 0.051857 78
0.036189 2.993325 -0.121280 76
-0.061079 3.142889 0.168594 64
0.578936 2.819295 -0.238648 101
0.507782 2.940284 0.033852 100
0.449743 3.207303 0.673647 0
0.315632 2.923865 -0.136115 100
0.230193 3.033675 0.098800 91
0.128869 2.930181 -0.367926 101
0.037296 3.042810 -0.076496 83
-0.060957 3.163878 0.218506 54
0.589052 2.866128 -0.107293 101
0.516992 2.990632 0.174465 99
0.405832 2.890638 -0.275926 101
0.322479 2.982617 -0.000524 90
0.234343 3.081546 0.243223 73
0.132312 2.997041 -0.219777 100
0.038255 3.079087 0.064503 62
0.589794 2.867306 -0.062341 101
0.520376 3.007208 0.222511 100
0.403527 2.870733 -0.229171 101
0.324663 2.998125 0.045794 77
0.236376 3.101410 0.331308 59
0.131886 2.976101 -0.172291 100
0.038954 3.093715 0.112369 80
-0.056329 2.975310 -0.346949 101
0.601514 2.921809 0.073947 101
0.476160 2.748956 -0.509323 101
0.411178 2.921619 -0.096844 101
0.331480 3.056299 0.188566 62
0.222967 2.919045 -0.310798 101
0.134551 3.024802 -0.035408 83
0.039923 3.129097 0.258379 101
-0.056823 3.028182 -0.210195 82
0.600896 2.916337 0.119593 96
0.490995 2.831782 -0.321867 101
0.413499 2.934559 -0.051729 101
0.332931 3.064899 0.236677 80
0.225618 2.947255 -0.267966 101
0.135243 3.028962 0.011113 86
-0.055850 3.003107 -0.162145 86
0.612474 2.970015 0.264244 100
0.499625 2.878695 -0.191500 101
0.416118 2.949572 0.085286 95
0.311188 2.860281 -0.422399 101
0.228955 2.984287 -0.132773 101
0.137550 3.069115 0.152943 70
0.039125 2.988153 -0.305660 101
-0.057196 3.103377 -0.024379 68
0.626241 3.034209 0.459154 81
0.495080 2.849682 -0.145003 101
0.419732 2.971598 0.132080 100
0.314044 2.882049 -0.313408 101
0.227744 2.962010 -0.086094 91
0.139736 3.106258 0.202711 60
0.039365 2.968580 -0.257652 99
-0.056239 3.079400 0.023115 79
0.563016 2.718974 -0.577140 101
0.502058 2.878785 -0.101536 101
0.423567 2.984780 0.179105 85
0.315530 2.878371 -0.268108 100
0.230975 2.978782 -0.040676 100
0.141953 3.110656 0.251085 67
0.041394 2.976150 -0.212309 94
-0.054865 3.114702 0.071237 79
0.571814 2.759140 -0.321044 101
0.508251 2.911415 -0.057263 101
0.427557 3.009278 0.227474 97
0.318600 2.901894 -0.225143 101
0.234283 3.014906 0.005278 73
0.143477 3.132553 0.356175 62
0.042214 2.999019 -0.167688 72
-0.054388 3.117247 0.119226 80
0.586019 2.825304 -0.194686 101
0.513470 2.938411 0.079674 101
0.402554 2.829902 -0.465211 101
0.323376 2.940862 -0.091427 88
0.237311 3.047275 0.146280 69
0.135194 2.940948 -0.306835 101
0.043634 3.063543 -0.029947 85
-0.054472 3.152294 0.266408 13
0.589465 2.839534 -0.150971 101
0.517821 2.960393 0.126486 100
0.405880 2.849864 -0.316786 101
0.326610 2.965710 -0.046350 85
0.239792 3.072496 0.194973 68
0.136805 2.965186 -0.263351 100
0.044494 3.087631 0.017247 70
0.601307 2.894142 -0.017541 101
0.521465 2.978294 0.274105 97
0.411929 2.888880 -0.185637 101
0.331815 3.008344 0.092471 96
0.229251 2.931111 -1.370974 10
0.138271 2.986110 -0.126857 93
0.045300 3.107518 0.160700 71
-0.050643 2.988561 -0.299922 96
0.603403 2.901796 0.027935 100
0.538392 3.071943 0.533100 68
0.415025 2.907114 -0.141568 101
0.332561 3.010494 0.139126 77
0.225523 2.877258 -0.387649 101
0.139587 3.003658 -0.081364 73
0.046072 3.124629 0.209752 63
-0.050549 3.012748 -0.255671 100
0.617633 2.967737 0.168416 97
0.498101 2.839258 -0.278072 101
0.422785 2.957931 -0.006258 90
0.337002 3.046025 0.307510 101
0.230203 2.930675 -0.221037 100
0.143283 3.072104 0.058515 89
0.042473 2.848263 -0.819077 3
-0.050254 3.025330 -0.116766 89
0.620783 2.980376 0.216085 100
0.497876 2.835193 -0.233122 101
0.421543 2.945729 0.039474 100
0.234379 2.977461 -0.178487 100
0.144298 3.082800 0.106154 80
0.044850 2.974276 -0.357334 94
-0.050167 3.050765 -0.070839 64
0.581788 2.786158 -0.280081 101
0.512030 2.907230 -0.011850 100
0.434745 3.027156 0.290702 101
0.324195 2.912441 -0.180773 100
0.238470 3.010127 0.051652 68
0.046637 2.993181 -0.121280 80
-0.049980 3.135095 0.168166 72
0.587958 2.813355 -0.238317 101
0.518043 2.938493 0.033852 100
0.447002 3.108806 0.653283 6
0.324951 2.914803 -0.135745 100
0.240148 3.024883 0.098541 88
0.138532 2.917820 -0.366432 101
0.047539 3.018672 -0.075893 86
-0.049724 3.152101 0.217679 62
0.598235 2.860142 -0.107146 101
0.523264 2.965214 0.173088 96
0.413650 2.873438 -0.274420 101
0.332888 2.981474 -0.000524 88
0.244466 3.072759 0.242596 63
0.141823 2.976637 -0.218316 100
0.049194 3.090930 0.064754 71
0.600618 2.869143 -0.062426 101
0.529482 2.997516 0.221929 100
0.415252 2.881148 -0.230117 101
0.336904 3.012872 0.046037 78
0.248465 3.116426 0.333003 69
0.142846 2.987589 -0.172984 100
0.050075 3.113544 0.113095 72
-0.046127 2.987406 -0.348338 101
0.615810 2.939261 0.074443 101
0.487123 2.755027 -0.510760 101
0.422516 2.928080 -0.097107 101
0.340369 3.039253 0.187586 64
0.232522 2.910319 -0.309953 101
0.144533 3.012328 -0.035267 87
0.050651 3.116981 0.257392 101
-0.046192 3.024372 -0.209918 87
0.612713 2.922045 0.119914 92
0.500877 2.830051 -0.321867 101
0.421453 2.917265 -0.051450 101
0.343183 3.059755 0.236371 83
0.235269 2.938508 -0.267243 101
0.146777 3.048448 0.011186 91
-0.045548 3.015265 -0.162792 86
0.623656 2.971759 0.264591 100
0.509670 2.876934 -0.191500 101
0.427556 2.956015 0.085515 97
0.319403 2.843446 -0.420075 101
0.240010 2.991436 -0.133128 101
0.148263 3.068616 0.152943 68
0.049291 2.972083 -0.304031 100
-0.046184 3.091560 -0.024284 76
0.640082 3.047494 0.461500 71
0.507815 2.863671 -0.145804 101
0.430675 2.974070 0.132256 100
0.322324 2.865128 -0.311689 101
0.238082 2.961197 -0.086094 89
0.150384 3.101764 0.202451 68
0.049794 2.972409 -0.257997 87
-0.045549 3.083577 0.023145 75
0.572489 2.716995 -0.577140 101
0.512089 2.877018 -0.101536 101
0.432243 2.971432 0.178394 92
0.323321 2.857466 -0.266264 101
0.241356 2.977958 -0.040676 74
0.152011 3.094213 0.249799 67
0.051836 2.979977 -0.212594 97
-0.043952 3.110876 0.071146 71
0.579792 2.749352 -0.320139 101
0.519804 2.917500 -0.057418 101
0.436899 2.999874 0.226877 100
0.330065 2.912654 -0.226066 100
0.245444 3.022045 0.005292 89
0.154205 3.128064 0.355723 64
0.052672 2.998853 -0.167688 67
-0.043405 3.109424 0.118920 80
0.598346 2.834957 -0.195494 101
0.525826 2.948411 0.079994 101
0.414135 2.840200 -0.467139 101
0.334087 2.943688 -0.091550 75
0.249564 3.066340 0.147236 69
0.146242 2.956353 -0.308494 101
0.054466 3.071370 -0.030025 77
-0.043473 3.152465 0.266408 58
0.601027 2.845275 -0.151387 101
0.527451 2.954633 0.126318 100
0.416976 2.856298 -0.317661 101
0.335608 2.952629 -0.046163 86
0.250194 3.067661 0.194720 70
0.146565 2.952752 -0.262290 100
0.054772 3.059462 0.017090 70
0.611413 2.892024 -0.017541 101
0.534670 2.992141 0.275550 100
0.422019 2.887424 -0.185637 101
0.342774 3.011139 0.092593 93
0.238899 2.923066 -1.367593 20
0.148702 2.985609 -0.126857 98
0.056228 3.111335 0.160906 70
-0.040203 2.988720 -0.299922 96
0.616026 2.911409 0.028048 100
0.552597 3.089448 0.536470 76
0.423449 2.893786 -0.140990 101
0.343082 3.009313 0.139126 70
0.235579 2.876452 -0.387649 101
0.149886 2.999158 -0.081256 82
0.056921 3.120458 0.209484 64
-0.039965 3.008921 -0.255333 100
0.621389 2.934301 0.166641 95
0.505221 2.821822 -0.276536 101
0.431388 2.944561 -0.006233 88
0.347653 3.044828 0.307510 101
0.239147 2.913950 -0.219838 100
0.153025 3.051613 0.058134 85
0.052364 2.844254 -0.817972 13
-0.039830 3.037478 -0.117229 91
0.628727 2.966475 0.215235 100
0.509905 2.845206 -0.234090 101
0.431849 2.944236 0.039474 100
0.244797 2.976622 -0.178487 100
0.155487 3.090261 0.106429 78
0.055258 2.974101 -0.357334 80
-0.039542 3.054921 -0.070932 70
0.592379 2.787996 -0.280472 101
0.521511 2.901481 -0.011834 101
0.441875 3.001976 0.288431 101
0.334403 2.911287 -0.180773 100
0.248691 3.005287 0.051584 79
0.056901 2.981011 -0.120794 81
-0.038940 3.131257 0.167952 75
0.597822 2.811275 -0.238317 101
0.526222 2.924848 0.033716 100
0.458475 3.111093 0.654097 15
0.334260 2.905706 -0.135375 101
0.251417 3.031990 0.098800 93
0.148968 2.921280 -0.366930 101
0.058204 3.022485 -0.075993 80
-0.038570 3.144276 0.217128 69
0.607437 2.854115 -0.107000 101
0.536499 2.979079 0.174006 100
0.423732 2.871968 -0.274420 101
0.342892 2.976313 -0.000523 90
0.255909 3.079830 0.243223 60
0.152677 2.984089 -0.218900 100
0.059964 3.086740 0.064670 74
0.609857 2.863105 -0.062341 101
0.540712 2.999564 0.222220 96
0.425367 2.879672 -0.230117 101
0.346566 3.003724 0.045916 83
0.259407 3.115534 0.333003 73
0.152722 2.975105 -0.172291 100
0.060930 3.109353 0.112950 79
-0.035636 2.987550 -0.348338 101
0.624466 2.929257 0.074244 101
0.496102 2.749425 -0.510041 101
0.432217 2.922622 -0.096975 101
0.349671 3.026139 0.186852 64
0.242085 2.901556 -0.309109 101
0.154911 3.007807 -0.035221 89
0.061840 3.128740 0.258379 101
-0.035565 3.024515 -0.209918 95
0.622982 2.919873 0.119914 88
0.510117 2.824361 -0.321421 101
0.434050 2.931590 -0.051729 101
0.353480 3.054567 0.236065 72
0.245598 2.937663 -0.267243 101
0.157494 3.047913 0.011186 91
-0.034855 3.007419 -0.162360 92
0.636602 2.981237 0.265632 100
0.519788 2.875123 -0.191500 101
0.435607 2.938673 0.085057 100
0.330770 2.854098 -0.421818 101
0.248530 2.966680 -0.132064 100
0.158850 3.064085 0.152744 61
0.059746 2.971892 -0.304031 101
-0.035308 3.091703 -0.024284 83
0.649150 3.037483 0.460327 79
0.516468 2.854003 -0.145403 101
0.439967 2.964630 0.131904 100
0.332865 2.867926 -0.312118 101
0.249172 2.968309 -0.086326 89
0.160886 3.093244 0.201930 62
0.060175 2.968231 -0.257652 96
-0.034740 3.087718 0.023175 81
0.580675 2.711252 -0.576326 101
0.519486 2.863504 -0.101119 101
0.443270 2.977881 0.178868 98
0.334178 2.868247 -0.267371 101
0.251230 2.977142 -0.040676 93
0.162063 3.089711 0.249477 68
0.061387 2.963832 -0.211456 93
-0.033550 3.103007 0.070963 74
0.591405 2.759072 -0.321497 101
0.528046 2.907890 -0.057263 101
0.449196 3.014190 0.228071 100
0.338336 2.899659 -0.225143 100
0.254790 3.013242 0.005278 81
0.165622 3.147380 0.357980 65
0.062700 3.002655 -0.167911 74
-0.033222 3.121542 0.119379 78
0.603558 2.813446 -0.194147 101
0.533455 2.934848 0.079674 101
0.420638 2.819287 -0.463926 101
0.341990 2.926680 -0.091056 77
0.257707 3.041608 0.146088 85
0.155625 2.947906 -0.307664 101
0.064145 3.047179 -0.029790 85
-0.032977 3.148606 0.266071 63
0.607943 2.831550 -0.150763 101
0.532954 2.929276 0.125309 100
0.424683 2.843102 -0.316348 101
0.344932 2.947528 -0.046101 99
0.259352 3.054881 0.193963 66
0.156356 2.952250 -0.262290 100
0.065003 3.063263 0.017113 68
0.618479 2.878248 -0.017470 101
0.543162 2.982512 0.274827 88
0.432772 2.893904 -0.186145 101
0.350431 2.990131 0.091982 81
0.248283 2.918645 -1.365902 19
0.158390 2.981108 -0.126688 82
0.066289 3.099150 0.160287 70
-0.030130 2.972918 -0.298324 100
0.629882 2.928902 0.028236 92
0.559304 3.068205 0.533100 70
0.430085 2.872609 -0.140027 101
0.351662 2.996253 0.138576 73
0.245117 2.875655 -0.387649 101
0.159618 2.994651 -0.081148 69
0.067269 3.120252 0.209484 55
-0.029908 3.001066 -0.254657 100
0.634478 2.947842 0.167528 100
0.513146 2.812297 -0.275768 101
0.442929 2.954982 -0.006258 85
0.357748 3.043658 0.307510 101
0.250166 2.929038 -0.221037 100
0.163144 3.051088 0.058134 81
0.061462 2.828691 -0.813551 33
-0.029718 3.033596 -0.117075 85
0.642762 2.983876 0.216651 100
0.519337 2.843500 -0.234090 101
0.442204 2.946743 0.039527 100
0.254667 2.975794 -0.178487 101
0.165520 3.085737 0.106291 75
0.065381 2.985813 -0.358766 78
-0.029257 3.039040 -0.070561 70
0.599940 2.778234 -0.279689 101
0.530409 2.895801 -0.011818 101
0.453014 3.008369 0.289188 101
0.344524 2.914127 -0.181019 100
0.259342 3.012415 0.051721 68
0.066875 2.984802 -0.120956 85
-0.028556 3.131369 0.167952 74
0.607142 2.809278 -0.238317 101
0.537361 2.930956 0.033806 100
0.468205 3.105683 0.653283 34
0.345773 2.920454 -0.136115 101
0.261470 3.031140 0.098800 91
0.158869 2.924733 -0.367428 101
0.068498 3.034268 -0.076295 83
-0.028143 3.144387 0.217128 74
0.616053 2.848178 -0.106853 101
0.545654 2.973356 0.173776 99
0.433254 2.870547 -0.274420 101
0.353702 2.983104 -0.000524 96
0.265777 3.074992 0.242909 77
0.162138 2.975600 -0.218316 100
0.069927 3.074530 0.064419 67
-0.025675 2.923977 -0.705521 0
0.621040 2.868884 -0.062512 101
0.550656 2.997755 0.222220 100
0.435510 2.882188 -0.230432 101
0.357468 3.010502 0.046037 74
0.269394 3.110694 0.332579 71
0.163241 2.986544 -0.172984 100
0.071149 3.105137 0.112804 74
-0.025626 2.975733 -0.346949 101
0.635023 2.931078 0.074343 101
0.505217 2.747765 -0.510041 101
0.440710 2.913267 -0.096713 101
0.361118 3.036857 0.187586 65
0.251362 2.896775 -0.308686 101
0.165104 3.011271 -0.035267 99
0.072030 3.120547 0.257721 101
-0.025434 3.012646 -0.209087 100
0.629274 2.902167 0.119272 84
0.515163 2.799196 -0.318750 101
0.441972 2.918272 -0.051520 101
0.365022 3.065259 0.236983 83
0.254648 2.928895 -0.266521 101
0.166941 3.035392 0.011142 90
-0.024914 3.011512 -0.162576 86
0.645640 2.975216 0.265285 100
0.527873 2.865533 -0.190977 101
0.445949 2.941165 0.085172 100
0.338827 2.841196 -0.420075 101
0.258713 2.969821 -0.132241 101
0.168350 3.051575 0.152147 56
0.069507 2.967699 -0.303624 100
-0.024861 3.067805 -0.024096 72
0.662579 3.050780 0.462673 80
0.526654 2.856204 -0.145604 101
0.451595 2.975007 0.132432 100
0.343788 2.878653 -0.313408 101
0.259362 2.971450 -0.086442 96
0.171584 3.100664 0.202451 67
0.070017 2.968015 -0.257652 94
-0.024437 3.079816 0.023115 79
0.592636 2.720688 -0.578768 101
0.530205 2.865604 -0.101258 101
0.450052 2.952631 0.177445 91
0.342764 2.855199 -0.266264 101
0.261270 2.972262 -0.040622 100
0.172401 3.081165 0.248834 61
0.071732 2.963600 -0.211456 90
-0.022630 3.091109 0.070689 74
0.595107 2.729809 -0.318327 101
0.537465 2.902097 -0.057186 101
0.460317 3.016547 0.228370 100
0.349407 2.906380 -0.225758 100
0.266008 3.020304 0.005292 76
0.175271 3.122974 0.355272 74
0.072889 2.990440 -0.167241 82
-0.022268 3.113644 0.119073 76
0.616778 2.826919 -0.195224 101
0.541510 2.921173 0.079353 101
0.431669 2.825607 -0.465211 101
0.353160 2.933407 -0.091303 75
0.269727 3.056610 0.146853 84
0.165467 2.939400 -0.306835 101
0.074978 3.054934 -0.029868 85
-0.022264 3.188559 0.269439 66
0.621232 2.845021 -0.151595 101
0.548280 2.954903 0.126486 100
0.436408 2.853394 -0.317661 101
0.355219 2.946306 -0.046101 93
0.270366 3.057934 0.194215 80
0.166660 2.951686 -0.262290 100
0.075991 3.075013 0.017180 62
0.629377 2.879980 -0.017494 101
0.553569 2.980598 0.274827 93
0.440455 2.876592 -0.185129 101
0.363262 3.008736 0.092593 87
0.256870 2.899705 -1.357450 19
0.168569 2.976547 -0.126518 89
0.077405 3.110880 0.160906 65
-0.019700 2.965045 -0.297525 100
0.636684 2.911056 0.028085 96
0.574334 3.089492 0.537144 70
0.443136 2.890836 -0.140990 101
0.363078 3.002941 0.138943 63
0.255153 2.874782 -0.387649 101
0.170750 3.006052 -0.081473 68
0.077960 3.112019 0.208948 61
-0.019406 2.997167 -0.254319 100
0.645618 2.949511 0.167750 100
0.521503 2.802660 -0.275000 101
0.448387 2.921788 -0.006191 99
0.368849 3.046342 0.307909 101
0.257916 2.900336 -0.218938 99
0.173565 3.046508 0.058058 76
0.070075 2.778500 -0.799181 21
-0.019028 3.017694 -0.116458 88
0.648051 2.958230 0.214952 99
0.527069 2.829911 -0.233122 101
0.452487 2.945181 0.039527 100
0.264344 2.966933 -0.178010 101
0.174922 3.061193 0.105466 65
0.075299 2.965715 -0.356380 82
-0.018747 3.055119 -0.070932 78
0.607073 2.764458 -0.278514 101
0.540514 2.893932 -0.011818 101
0.465332 3.018576 0.290324 101
0.352763 2.897054 -0.180034 100
0.269141 3.003524 0.051584 71
0.077087 2.976559 -0.120632 90
-0.017580 3.123461 0.167523 74
0.616088 2.803248 -0.237987 101
0.544648 2.913336 0.033625 100
0.478446 3.100160 0.652468 40
0.354998 2.911296 -0.135745 101
0.272050 3.030209 0.098800 89
0.169078 2.924160 -0.367428 101
0.078880 3.026016 -0.076094 78
-0.017188 3.148456 0.217404 75
0.626850 2.849914 -0.107000 101
0.558234 2.983209 0.174465 90
0.443879 2.872953 -0.274796 101
0.364598 2.985822 -0.000525 88
0.275081 3.058159 0.241654 80
0.172292 2.971033 -0.218023 100
0.080868 3.082263 0.064586 71
-0.015633 2.955156 -0.713027 5
0.630191 2.862793 -0.062426 101
0.559648 2.987972 0.221638 100
0.443739 2.868828 -0.229486 101
0.367974 3.009236 0.046037 78
0.279536 3.101812 0.331732 74
0.173433 2.981969 -0.172753 97
0.081882 3.100874 0.112659 82
-0.015218 2.971831 -0.346486 101
0.640949 2.909318 0.073848 100
0.515530 2.749853 -0.510760 101
0.451488 2.915662 -0.096844 101
0.370746 3.027652 0.187097 57
0.262187 2.903803 -0.309531 101
0.176313 3.022655 -0.035408 89
0.082817 3.116292 0.257392 101
-0.014957 3.020697 -0.209641 86
0.644564 2.923371 0.120235 88
0.528596 2.816916 -0.320976 101
0.451544 2.912759 -0.051450 101
0.375234 3.060008 0.236677 91
0.264871 2.927988 -0.266521 101
0.177770 3.038784 0.011157 95
-0.014421 3.015575 -0.162792 89
0.656021 2.972944 0.265285 100
0.538609 2.867595 -0.191239 101
0.455599 2.935639 0.085057 100
0.349707 2.847852 -0.421237 101
0.269439 2.972879 -0.132419 101
0.179234 3.054957 0.152346 58
0.079973 2.971416 -0.304031 101
-0.014226 3.083872 -0.024221 76
0.674077 3.052312 0.463259 57
0.537359 2.858274 -0.145804 101
0.462591 2.977361 0.132608 91
0.353349 2.873488 -0.312978 101
0.269732 2.970527 -0.086442 89
0.182641 3.104031 0.202711 70
0.080377 2.967752 -0.257652 92
-0.013704 3.083883 0.023145 73
0.597075 2.695655 -0.573884 46
0.541716 2.871587 -0.101536 101
0.466540 2.990490 0.179817 84
0.351780 2.846076 -0.265527 101
0.271309 2.967347 -0.040567 90
0.183896 3.092482 0.249799 65
0.081996 2.959342 -0.211171 100
-0.011870 3.107165 0.071055 71
0.607229 2.739352 -0.319686 101
0.549836 2.911989 -0.057418 101
0.466554 2.987331 0.226280 100
0.358589 2.897224 -0.225143 101
0.274379 2.995455 0.005250 81
0.186900 3.134244 0.356626 70
0.083345 2.990167 -0.167241 82
-0.011394 3.117700 0.119226 80
0.625785 2.820851 -0.194955 101
0.553195 2.927122 0.079567 101
0.439707 2.812380 -0.463283 101
0.361929 2.920253 -0.090933 86
0.279307 3.043713 0.146280 89
0.176208 2.946747 -0.307664 101
0.085312 3.042659 -0.029751 78
-0.011001 3.152745 0.266408 60
0.629424 2.835037 -0.151179 101
0.554130 2.929411 0.125477 100
0.445132 2.843997 -0.316786 101
0.365497 2.945049 -0.046101 96
0.281034 3.056972 0.194215 73
0.176719 2.947110 -0.261937 94
0.086269 3.058736 0.017090 66
0.642013 2.889483 -0.017565 101
0.563954 2.978651 0.274827 90
0.451096 2.878983 -0.185383 101
0.375719 3.023322 0.093081 95
0.267308 2.902402 -1.359140 18
0.178702 2.971952 -0.126348 91
0.088020 3.102605 0.160493 70
-0.009441 2.988975 -0.299922 98
0.644210 2.897108 0.027972 100
0.579948 3.060357 0.532426 73
0.450722 2.873488 -0.140220 101
0.372544 2.993728 0.138576 66
0.265889 2.881771 -0.388714 101
0.180734 2.997457 -0.081256 68
0.088908 3.115718 0.209216 54
-0.008983 3.001202 -0.254657 100
0.657606 2.955045 0.168194 97
0.534215 2.816477 -0.276536 101
0.462889 2.947872 -0.006250 85
0.379441 3.045041 0.307909 101
0.269102 2.911336 -0.219838 100
0.184401 3.049877 0.058134 76
0.080400 2.801296 -0.805813 25
-0.008556 3.025736 -0.116766 97
0.661793 2.971539 0.216085 100
0.538384 2.835897 -0.233768 101
0.460853 2.931738 0.039368 100
0.274649 2.965997 -0.178010 100
0.185555 3.060567 0.105466 75
0.085831 2.973375 -0.357334 86
-0.008091 3.039170 -0.070561 67
0.617508 2.766225 -0.278905 101
0.550531 2.892043 -0.011818 101
0.472680 2.997280 0.288431 101
0.363785 2.903738 -0.180527 100
0.279169 2.998592 0.051515 77
0.087275 2.972280 -0.120470 94
-0.006739 3.111521 0.166880 73
0.626649 2.804991 -0.238317 101
0.556967 2.923222 0.033761 101
0.486723 3.083013 0.649210 45
0.365065 2.910051 -0.135745 101
0.281415 3.017308 0.098411 90
0.178219 2.907712 -0.365436 101
0.088756 3.005740 -0.075591 80
-0.006251 3.124554 0.215751 72
0.637565 2.851632 -0.107146 101
0.570033 2.989108 0.174924 100
0.454424 2.875336 -0.275173 101
0.372917 2.968669 -0.000522 89
0.287128 3.073071 0.242909 80
0.182801 2.974402 -0.218316 100
0.090923 3.061978 0.064168 62
-0.005330 2.904643 -0.700830 46
0.640067 2.860602 -0.062426 101
0.572948 3.001697 0.222802 100
0.453014 2.863341 -0.229171 101
0.376360 2.992075 0.045794 73
0.291351 3.112709 0.333003 81
0.183477 2.977367 -0.172522 100
0.092702 3.104568 0.112804 72
-0.004982 2.983785 -0.347875 101
0.655343 2.926602 0.074343 101
0.524268 2.744194 -0.510041 101
0.461536 2.914088 -0.096844 101
0.381181 3.026356 0.187097 62
0.272567 2.906842 -0.309953 101
0.185251 2.998077 -0.035127 99
0.093439 3.112003 0.257063 101
-0.004538 3.016740 -0.209364 91
0.654626 2.921134 0.120235 90
0.539786 2.822888 -0.321867 101
0.462823 2.919087 -0.051589 101
0.385768 3.058697 0.236677 85
0.276441 2.942924 -0.267966 101
0.188727 3.046139 0.011186 87
0.094893 3.143089 0.384984 7
-0.004048 3.023595 -0.163223 74
0.666243 2.970670 0.265285 100
0.546218 2.853965 -0.190454 101
0.466947 2.941953 0.085286 100
0.359501 2.846633 -0.421237 101
0.280786 2.983871 -0.132951 101
0.190236 3.062297 0.152744 64
0.089952 2.963169 -0.303217 101
-0.003623 3.087903 -0.024253 81
0.548679 2.864258 -0.146204 101
0.473444 2.979701 0.132784 91
0.364716 2.884093 -0.314268 101
0.279561 2.965602 -0.086326 92
0.193056 3.099401 0.202451 66
0.090695 2.971442 -0.257997 99
-0.003113 3.087911 0.023175 77
0.609922 2.708837 -0.577140 101
0.547962 2.850050 -0.100842 101
0.473830 2.969128 0.178631 79
0.363722 2.860635 -0.267002 101
0.282044 2.970363 -0.040622 82
0.194439 3.087842 0.249477 61
0.092326 2.959038 -0.211171 96
-0.001021 3.099190 0.070872 84
0.615041 2.729461 -0.318780 101
0.553952 2.878634 -0.056799 101
0.475091 2.973868 0.225385 100
0.367188 2.884086 -0.224220 101
0.283697 2.982533 0.005229 86
0.196086 3.105807 0.353466 72
0.093407 2.977883 -0.166571 75
-0.000508 3.093739 0.118309 83
0.632994 2.806970 -0.194147 101
0.564166 2.929100 0.079674 101
0.448898 2.806930 -0.462641 101
0.371615 2.915005 -0.090809 83
0.289551 3.038742 0.146088 80
0.186242 2.942143 -0.307250 101
0.095428 3.026351 -0.029595 85
0.000004 3.124864 0.264050 63
0.639316 2.832823 -0.151179 101
0.568891 2.951005 0.126486 100
0.455685 2.846352 -0.317223 101
0.376281 2.947722 -0.046163 99
0.292461 3.063920 0.194720 70
0.187006 2.946475 -0.261937 100
0.097199 3.066412 0.017135 68
0.652096 2.887224 -0.017565 101
0.575858 2.984487 0.275550 90
0.462406 2.885275 -0.185891 101
0.382722 2.994231 0.092226 94
0.276747 2.894234 -1.355759 18
0.190091 2.987264 -0.127027 82
0.098850 3.102279 0.160493 63
0.000996 2.996950 -0.300720 86
0.653437 2.890940 0.027935 100
0.593618 3.073799 0.535122 74
0.460749 2.871897 -0.140220 101
0.382992 2.992409 0.138576 68
0.276324 2.884772 -0.389247 101
0.190686 2.988827 -0.081040 68
0.099528 3.107411 0.208680 67
0.001487 2.989258 -0.253642 100
0.666155 2.944940 0.167750 100
0.541776 2.802867 -0.275384 101
0.468736 2.918593 -0.006191 100
0.388550 3.031854 0.306711 101
0.278882 2.906409 -0.219538 100
0.194025 3.033251 0.057830 83
0.090054 2.797156 -0.804708 70
0.002003 3.021750 -0.116612 87
0.671281 2.965319 0.215802 96
0.549038 2.837915 -0.234090 101
