# This PCD file was generated using the MATLAB® pcwrite function
# from Computer Vision Toolbox®.
# .PCD v.7 - Point Cloud Data file format
VERSION .7
FIELDS x y z intensity
SIZE 4 4 4 1
TYPE F F F U
COUNT 1 1 1 1
WIDTH 483
HEIGHT 1
VIEWPOINT 0 0 0 1 0 0 0
POINTS 483
DATA ascii
-5.503535 21.741150 -0.477609 18
-5.388217 21.586737 -0.815836 0
-5.422771 21.740828 -0.477183 21
-5.309425 21.589787 -0.815249 34
-5.343489 21.743979 -0.476842 25
-5.237370 21.464354 -1.150168 20
-5.227443 21.564541 -0.813637 34
-5.264763 21.734371 -0.476246 25
-5.153080 21.443665 -1.148089 27
-5.152137 21.582657 -0.813637 33
-5.187936 21.748726 -0.476161 27
-5.071764 21.434309 -1.146633 23
-5.074185 21.588799 -0.813197 32
-5.108509 21.751087 -0.475820 27
-5.042103 21.629591 -1.498516 5
-4.996007 21.447990 -1.146425 19
-4.986834 21.538359 -1.833159 5
-4.996993 21.598591 -0.812904 35
-5.033453 21.772684 -0.475906 25
-4.947829 21.565372 -1.492861 7
-4.921109 21.465300 -1.146425 22
-4.900108 21.505108 -1.828862 18
-4.917132 21.596415 -0.812171 36
-4.954761 21.778423 -0.475650 27
-4.876955 21.601969 -1.494207 7
-4.846128 21.482351 -1.146425 26
-4.861997 21.689455 -1.843075 15
-4.840271 21.609673 -0.812025 33
-4.876325 21.787924 -0.475480 25
-5.568818 21.787346 -0.435714 10
-4.814499 21.677301 -1.498246 6
-4.765053 21.471840 -1.144970 31
-4.809433 21.811401 -1.851999 20
-4.766531 21.634245 -0.812318 36
-4.798522 21.797001 -0.475309 30
-5.489802 21.795019 -0.435481 32
-4.756688 21.775854 -1.503901 9
-4.689222 21.484440 -1.144762 28
-4.800088 22.010271 -0.133683 23
-4.687598 21.635124 -0.811731 35
-4.721560 21.809710 -0.475224 28
-5.367802 21.613991 -0.773813 14
-5.404948 21.779133 -0.434784 25
-4.610862 21.485050 -1.143930 29
-4.714065 21.983858 -0.133422 15
-4.607463 21.627811 -0.810852 39
-4.644195 21.818138 -0.475054 31
-5.260998 21.444351 -1.106948 9
-5.287572 21.613180 -0.773119 27
-5.326043 21.786213 -0.434551 21
-4.535013 21.497107 -1.143722 26
-4.631524 21.972782 -0.133256 14
-4.530301 21.635937 -0.810559 35
-4.567188 21.830301 -0.474969 25
-5.187988 21.470352 -1.107348 43
-5.204605 21.600414 -0.772008 22
-5.247154 21.793007 -0.434319 23
-4.454270 21.485426 -1.142266 28
-4.553174 21.980982 -0.133208 15
-4.451528 21.635958 -0.809973 36
-4.484517 21.814774 -0.474287 29
-5.106538 21.461124 -1.105946 38
-5.127385 21.610659 -0.771730 21
-5.165550 21.787834 -0.433854 24
-4.379237 21.500845 -1.142266 26
-4.472399 21.977150 -0.133090 20
-4.374189 21.643570 -0.809679 35
-4.408905 21.834261 -0.474373 26
-5.025815 21.455555 -1.104745 35
-5.054783 21.623650 -0.771591 24
-5.090542 21.793159 -0.433622 23
-4.401065 21.999704 -0.133137 11
-5.020444 21.591431 -1.795231 14
-4.302392 21.657955 -0.809679 38
-4.334140 21.836992 -0.474117 27
-4.989772 21.607767 -1.453519 12
-4.954638 21.472103 -1.104745 37
-4.974790 21.621683 -0.770897 24
-5.013542 21.806898 -0.433544 24
-4.926368 21.527208 -1.788451 20
-4.224470 21.661072 -0.809240 32
-4.254829 21.836288 -0.473776 23
-4.909894 21.605593 -1.452211 11
-4.873464 21.461996 -1.103343 41
-4.896478 21.627256 -0.770480 28
-4.936409 21.820389 -0.433467 29
-4.867224 21.614225 -1.794263 24
-4.146397 21.659872 -0.808653 33
-4.842226 21.653580 -1.454304 17
-4.800255 21.482582 -1.103543 40
-4.821825 21.648119 -0.770619 26
-4.857605 21.825775 -0.433234 27
-4.833137 21.817928 -1.809761 57
-4.070764 21.674215 -0.808653 27
-5.512568 21.736458 -0.391423 1
-4.782902 21.744417 -1.459275 15
-4.722665 21.487501 -1.102942 41
-4.742807 21.649199 -0.770063 30
-4.777114 21.823065 -0.432847 25
-5.405182 21.614403 -0.731318 6
-5.440538 21.771088 -0.391702 21
-4.723004 21.835104 -1.464245 4
-4.646787 21.499952 -1.102742 43
-4.666526 21.661678 -0.769924 29
-4.699325 21.831766 -0.432692 25
-4.706386 22.026628 -0.090417 44
-5.325186 21.617783 -0.730793 20
-5.359930 21.774597 -0.391423 23
-4.567522 21.500593 -1.101941 47
-4.588399 21.666103 -0.769508 27
-4.621433 21.840212 -0.432537 28
-5.234605 21.432392 -1.063591 2
-4.624537 22.019434 -0.090321 45
-5.244980 21.616814 -0.730137 20
-5.274466 21.754307 -0.390724 24
-4.490810 21.508585 -1.101540 52
-4.514896 21.673372 -0.769230 29
-4.549798 21.859333 -0.432614 28
-5.170050 21.476824 -1.064940 30
-4.543401 21.995476 -0.090160 43
-5.169549 21.618534 -0.729612 17
-5.198579 21.756119 -0.390445 22
-4.418657 21.519445 -1.101340 50
-4.433827 21.681942 -0.768952 30
-4.464045 21.848433 -0.432072 25
-5.055555 21.328718 -1.394434 10
-5.082090 21.456751 -1.063014 22
-4.460369 22.000219 -0.090112 41
-5.087532 21.625662 -0.729218 15
-5.124296 21.798386 -0.390864 23
-4.341332 21.543329 -1.101740 46
-4.360327 21.688688 -0.768674 26
-4.389993 21.855274 -0.431917 27
-4.996600 21.395901 -1.397735 18
-5.006370 21.454031 -1.062051 25
-5.013722 21.616957 -1.754246 5
-5.015790 21.642414 -0.729218 19
-5.049274 21.803570 -0.390655 28
-4.267540 21.545851 -1.101140 46
-4.286916 21.715542 -0.769091 27
-4.313677 21.870466 -0.431917 27
-4.967490 21.611626 -1.410687 7
-4.932345 21.475269 -1.062243 27
-4.917825 21.544912 -1.746995 12
-4.934879 21.636404 -0.728431 21
-4.974024 21.824963 -0.390724 31
-4.185442 21.525322 -1.099337 6
-4.207886 21.714706 -0.768535 27
-4.893866 21.636602 -1.411195 7
-4.858376 21.496222 -1.062436 30
-4.852829 21.604603 -1.750463 11
-4.861766 21.661144 -0.728694 23
-4.895942 21.830315 -0.390515 31
-4.129075 21.713554 -0.767980 23
-4.818310 21.653555 -1.411195 7
-4.778108 21.489649 -1.061280 29
-4.816100 21.796625 -1.764648 31
-4.783539 21.666271 -0.728300 27
-4.819711 21.847271 -0.390515 23
-4.758912 21.744333 -1.416020 7
-4.700505 21.494486 -1.060702 29
-4.754381 21.879545 -1.770007 18
-4.703639 21.663303 -0.727644 30
-4.739180 21.844419 -0.390166 27
-5.395203 21.647146 -0.689407 31
-4.624998 21.490427 -1.059739 29
-4.658453 21.786009 -1.761181 5
-4.632610 21.682692 -0.727775 26
-4.665045 21.852194 -0.390026 30
-5.316747 21.654198 -0.689036 35
-5.351275 21.810404 -0.348867 23
-4.551608 21.514257 -1.060125 31
-4.645148 21.974348 -0.047040 0
-5.232128 21.447395 -1.021788 16
-4.554430 21.686993 -0.727381 29
-4.588738 21.868343 -0.390026 33
-5.229850 21.625992 -0.687554 21
-5.269473 21.805626 -0.348494 24
-4.474855 21.522190 -1.059739 27
-4.570043 21.998262 -0.047057 12
-5.158164 21.469414 -1.021973 25
-4.477893 21.698843 -0.727250 28
-4.507530 21.860725 -0.389608 27
-5.152529 21.636326 -0.687307 21
-5.188664 21.804440 -0.348183 24
-4.397906 21.529890 -1.059354 28
-4.492142 22.010220 -0.047048 21
-5.056174 21.360001 -1.354073 32
-5.082502 21.487452 -1.021973 24
-4.400384 21.710615 -0.727119 30
-4.430953 21.880457 -0.389677 28
-5.076060 21.650286 -0.687183 23
-5.111609 21.818525 -0.348121 25
-4.320368 21.533360 -1.058776 26
-4.976146 21.354191 -1.352595 30
-5.003841 21.489494 -1.021233 28
-4.323793 21.721922 -0.726988 27
-4.352989 21.887945 -0.389538 28
-4.981816 21.570446 -1.707333 9
-4.996859 21.652290 -0.686689 25
-5.032721 21.824543 -0.347935 24
-4.244404 21.544390 -1.058584 29
-4.896221 21.348083 -1.351117 22
-4.918980 21.463989 -1.019199 27
-4.244109 21.717264 -0.726332 29
-4.274260 21.891232 -0.389328 6
-4.894929 21.537163 -1.703335 8
-4.919450 21.661810 -0.686442 26
-4.955640 21.838074 -0.347873 21
-4.168519 21.555130 -1.058391 23
-4.867698 21.567484 -1.363924 8
-4.847908 21.496538 -1.019938 31
-4.167270 21.723999 -0.726069 31
-4.842349 21.655312 -1.711332 10
-4.842062 21.671045 -0.686195 24
-4.879380 21.855238 -0.347873 25
-4.803633 21.635012 -1.367126 8
-4.771976 21.509428 -1.019753 32
-4.096590 21.765915 -0.726988 5
-4.787658 21.749149 -1.717483 29
-4.766737 21.671364 -0.685701 24
-4.803445 21.855673 -0.347624 22
-4.746354 21.717127 -1.371313 8
-4.699769 21.521231 -1.019568 31
-5.438618 21.678825 -0.647734 15
-4.703245 21.726755 -1.714407 22
-4.687668 21.672243 -0.685206 27
-4.727132 21.872307 -0.347624 20
-4.622244 21.525753 -1.019014 33
-5.353565 21.658802 -0.646575 31
-4.612821 21.692385 -0.685330 26
-4.647429 21.873026 -0.347376 21
-4.547903 21.545668 -1.019199 25
-5.243562 21.520622 -0.982593 31
-5.276037 21.669588 -0.646343 34
-4.533801 21.692699 -0.684836 26
-4.570232 21.885199 -0.347314 23
-4.468608 21.541849 -1.018274 24
-5.174003 21.562109 -0.983657 33
-5.196635 21.672319 -0.645880 31
-5.221298 21.838419 -0.305697 26
-4.457272 21.704472 -0.684712 27
-4.488973 21.877514 -0.346941 26
-5.087948 21.392025 -1.314076 20
-4.393061 21.557383 -1.018274 29
-4.499477 22.098583 -0.003936 5
-5.088998 21.541271 -0.981884 30
-5.117635 21.678785 -0.645532 31
-5.142287 21.844831 -0.305533 18
-4.379900 21.712061 -0.684465 28
-4.412579 21.893051 -0.346941 22
-5.014155 21.413544 -1.314315 23
-4.314648 21.556913 -1.017534 23
-5.006533 21.527765 -0.980466 28
-5.041026 21.692623 -0.645416 31
-5.064197 21.854856 -0.305425 17
-4.304862 21.731138 -0.684589 25
-4.333801 21.896549 -0.346754 24
-4.971033 21.551695 -1.663028 7
-4.936687 21.419243 -1.313599 24
-4.237833 21.564001 -1.017164 28
-4.929574 21.537319 -0.980111 27
-4.964383 21.706190 -0.645300 30
-4.987975 21.855968 -0.305207 19
-4.229681 21.729605 -0.684094 28
-4.895324 21.548567 -1.661529 7
-4.865010 21.431543 -1.313361 22
-4.167565 21.581760 -1.017349 25
-4.860692 21.561163 -0.980466 30
-4.889736 21.706734 -0.644837 29
-4.910777 21.869345 -0.305152 20
-4.152305 21.736382 -0.683847 29
-4.837476 21.643377 -1.667527 13
-4.784079 21.421116 -1.311690 22
-4.089973 21.584400 -1.016794 28
-4.785400 21.577999 -0.980466 27
-4.806150 21.688538 -0.643794 28
-4.830958 21.870731 -0.304935 20
-5.505030 21.708675 -0.606013 3
-4.767036 21.683506 -1.669326 12
-4.722983 21.500084 -1.315508 5
-4.010954 21.578903 -1.015870 24
-4.710049 21.594570 -0.980466 30
-4.732968 21.716902 -0.644142 29
-4.752141 21.875713 -0.304771 19
-5.421372 21.696749 -0.605147 21
-4.695400 21.719536 -1.670826 9
-4.673871 21.637465 -1.322905 4
-4.629095 21.587549 -0.979402 29
-4.652383 21.713861 -0.643562 29
-4.675752 21.892168 -0.304771 20
-5.306232 21.540085 -0.941423 9
-5.336045 21.676714 -0.604065 23
-4.550416 21.587934 -0.978693 33
-4.574912 21.722145 -0.643331 29
-4.596840 21.896612 -0.304608 19
-5.230068 21.554592 -0.941253 24
-5.253751 21.668007 -0.603308 22
-5.174908 21.468199 -1.277171 10
-4.474221 21.599773 -0.978516 29
-4.497438 21.730152 -0.643099 28
-4.518879 21.904667 -0.304499 21
-5.142663 21.522200 -0.939048 26
-5.169622 21.651236 -0.602334 19
-5.078277 21.396875 -1.271859 32
-4.396617 21.607548 -0.978161 29
-4.419332 21.738010 -0.642867 30
-4.440802 21.912468 -0.304390 19
-5.055607 21.489449 -0.936844 21
-5.099504 21.692505 -0.602983 23
-5.000831 21.402805 -1.271166 31
-5.108886 21.881979 -0.262775 26
-4.319600 21.614927 -0.977807 27
-4.341076 21.741541 -0.642519 31
-4.363424 21.903538 -0.304063 20
-4.980709 21.490522 -0.936165 25
-5.028443 21.713190 -0.603091 26
-4.968785 21.571823 -1.621732 10
-4.925351 21.399813 -1.270011 23
-5.033605 21.887106 -0.262635 31
-4.243278 21.605604 -0.976743 32
-4.269725 21.759741 -0.642635 33
-4.916440 21.554506 -0.938200 26
-4.951928 21.726667 -0.602983 26
-4.896875 21.600533 -1.622608 9
-4.850589 21.412788 -1.269780 26
-4.956361 21.896526 -0.262541 38
-4.171210 21.631844 -0.977275 29
-4.189645 21.746799 -0.641824 30
-4.840296 21.567638 -0.938031 32
-4.876058 21.743820 -0.602983 25
-4.834471 21.675900 -1.626992 13
-4.777552 21.437386 -1.270242 27
-4.873812 21.886366 -0.262214 36
-4.093446 21.634493 -0.976743 29
-4.762397 21.572695 -0.937522 31
-4.796682 21.745090 -0.602550 26
-5.499494 21.735987 -0.563618 19
-4.772456 21.754990 -1.631668 9
-4.700983 21.446131 -1.269780 27
-4.796529 21.899338 -0.262167 35
-4.015715 21.636862 -0.976211 30
-4.689525 21.600922 -0.938031 33
-4.714670 21.734379 -0.601793 24
-5.409536 21.700857 -0.562211 42
-4.703485 21.806736 -1.634298 4
-4.618738 21.431314 -1.267932 10
-4.716832 21.904367 -0.262027 36
-4.608256 21.589802 -0.936844 33
-4.637940 21.746794 -0.601685 23
-5.298471 21.560276 -0.899478 75
-5.333753 21.719608 -0.562211 43
-4.638686 21.912872 -0.261933 39
-5.237772 21.496538 -1.237005 10
-4.532045 21.601845 -0.936674 33
-4.558720 21.747196 -0.601252 25
-5.207195 21.512604 -0.896726 64
-5.255085 21.726435 -0.561909 40
-4.559723 21.917183 -0.261793 37
-5.146777 21.432262 -1.232316 35
-4.458854 21.608910 -0.936335 29
-4.484302 21.750416 -0.600927 26
-5.138128 21.537422 -0.897050 72
-5.179810 21.728060 -0.561507 36
-4.486916 21.928122 -0.261746 35
-5.067338 21.430664 -1.231199 35
-4.379427 21.604757 -0.935487 36
-4.408351 21.765936 -0.600927 24
-5.058348 21.535772 -0.896240 76
-5.103933 21.746010 -0.561507 38
-4.407981 21.931887 -0.261606 35
-5.039143 21.632399 -1.584352 6
-4.985257 21.417105 -1.229413 33
-4.303206 21.615993 -0.935317 31
-4.330007 21.769426 -0.600603 24
-4.984044 21.557192 -0.896402 79
-5.025294 21.752005 -0.561205 37
-4.945986 21.572029 -1.578660 12
-4.909708 21.430452 -1.229190 32
-5.027755 21.962791 -0.220221 25
-4.226079 21.623062 -0.934978 36
-4.253793 21.784447 -0.600603 26
-4.906383 21.566801 -0.896078 65
-4.942433 21.742277 -0.560502 41
-4.876801 21.616405 -1.580652 10
-4.830481 21.427979 -1.228073 30
-4.936118 21.913874 -0.219556 43
-4.145305 21.610207 -0.933791 31
-4.178478 21.803089 -0.600711 6
-4.827579 21.568195 -0.895430 72
-4.869999 21.775005 -0.560904 34
-4.813419 21.687828 -1.584636 8
-4.757383 21.452509 -1.228520 29
-4.862190 21.942684 -0.219673 48
-4.071324 21.632401 -0.934130 34
-5.522790 21.743530 -0.520850 26
-4.749684 21.573206 -0.894945 72
-4.786229 21.756725 -0.559999 37
-4.753794 21.778574 -1.590044 11
-4.678180 21.449482 -1.227403 34
-4.781293 21.939987 -0.219478 57
-5.443070 21.747135 -0.520479 10
-4.673667 21.585712 -0.894783 77
-4.709595 21.769350 -0.559899 43
-4.601604 21.457870 -1.226957 39
-4.701327 21.940899 -0.219322 60
-5.326105 21.584023 -0.857932 56
-5.359467 21.734941 -0.519736 10
-4.594963 21.586260 -0.894135 67
-4.631913 21.777836 -0.559698 36
-5.255421 21.437063 -1.191506 5
-4.529969 21.489433 -1.227850 20
-4.623062 21.949347 -0.219243 55
-5.246010 21.583063 -0.857161 40
-5.280733 21.741859 -0.519458 10
-4.518766 21.598255 -0.893973 70
-4.553411 21.782129 -0.559396 42
-5.181497 21.459160 -1.191721 38
-4.545592 21.961437 -0.219204 53
-5.161407 21.562355 -0.855618 35
-5.203973 21.756247 -0.519365 10
-4.441897 21.606033 -0.893649 66
-4.476729 21.793936 -0.559295 40
-5.096663 21.434309 -1.189350 41
-4.464920 21.957573 -0.219009 60
-5.087943 21.588020 -0.855927 36
-5.119748 21.739248 -0.518529 12
-4.360913 21.593985 -0.892516 74
-4.398254 21.797670 -0.558994 37
-5.020902 21.448080 -1.189134 43
-4.382762 21.945568 -0.218735 48
-5.011652 21.601755 -0.855773 34
-5.044736 21.760883 -0.518622 10
-4.289397 21.628677 -0.893325 72
-4.315921 21.781509 -0.558190 40
-4.979874 21.595966 -1.538106 7
-4.939726 21.438229 -1.187625 38
-4.916043 21.514181 -1.872556 33
-4.933548 21.607428 -0.855310 38
-4.968745 21.778358 -0.518622 11
-4.213109 21.639595 -0.893163 72
-4.241390 21.804293 -0.558391 42
-4.902694 21.605434 -1.537552 3
-4.863979 21.451447 -1.187409 39
-4.879383 21.702309 -1.887437 23
-4.854590 21.608919 -0.854693 38
-4.889191 21.779964 -0.518251 11
-4.129295 21.610987 -0.891382 72
-4.833333 21.649677 -1.539490 4
-4.783852 21.444904 -1.186115 42
-4.901947 21.991604 -0.176964 18
-4.825976 21.820391 -1.896229 41
-4.780856 21.633537 -0.855001 38
-4.807961 21.773468 -0.517694 11
-4.057516 21.644911 -0.892192 72
-4.773993 21.740471 -1.544752 4
-4.707254 21.453669 -1.185684 44
-4.822583 21.996859 -0.176870 43
-4.699222 21.622786 -0.853922 37
-4.731735 21.790161 -0.517694 11
-4.627588 21.450563 -1.184606 43
-4.735059 21.966766 -0.176493 30
-4.623716 21.639057 -0.853922 39
-4.653140 21.794811 -0.517415 11
-4.554341 21.474401 -1.185037 45
-4.652548 21.955770 -0.176273 26
-4.548644 21.638624 -0.853305 38
-4.580018 21.806210 -0.517322 11
-4.479842 21.473745 -1.184175 47
-4.579714 21.971079 -0.176273 26
-4.472481 21.650414 -0.853150 37
-4.500100 21.802425 -0.516858 11
-4.405607 21.489100 -1.184175 22
-4.502217 21.978924 -0.176210 30
-4.396879 21.665894 -0.853150 37
-4.419199 21.794487 -0.516301 11
-4.423102 21.982742 -0.176116 33
-4.317318 21.661510 -0.852379 39
-4.341534 21.801935 -0.516115 12
-4.240012 21.668629 -0.852071 37
-4.263698 21.809143 -0.515930 12
-4.161333 21.667597 -0.851454 39
-4.082713 21.666279 -0.850837 31