# This PCD file was generated using the MATLAB® pcwrite function
# from Computer Vision Toolbox®.
# .PCD v.7 - Point Cloud Data file format
VERSION .7
FIELDS x y z intensity
SIZE 4 4 4 1
TYPE F F F U
COUNT 1 1 1 1
WIDTH 1477
HEIGHT 1
VIEWPOINT 0 0 0 1 0 0 0
POINTS 1477
DATA ascii
-1.769867 3.790199 0.329214 43
-1.810908 3.576974 -0.293718 101
-1.974127 3.610657 0.086199 100
-1.243971 3.884764 -0.086869 94
-1.403885 3.950857 0.305698 73
-1.462263 3.735478 -0.317120 101
-1.622787 3.786429 0.062557 73
-1.813933 3.584445 -0.232339 101
-1.987989 3.637463 0.150551 100
-2.020386 3.434869 -0.464606 101
-1.256625 3.926554 0.102197 95
-1.309006 3.685811 -0.714058 101
-1.474146 3.767700 -0.132800 101
-1.633443 3.813064 0.254442 74
-1.673333 3.586616 -0.420168 101
-1.834289 3.626185 -0.047522 100
-2.044791 3.477697 -0.279983 101
-1.331056 3.749897 -0.445627 101
-1.475538 3.773128 -0.070717 101
-1.645200 3.842294 0.320877 53
-1.681994 3.606765 -0.360779 101
-1.850037 3.658844 0.015027 100
-2.036024 3.464121 -0.216912 101
-1.350556 3.806864 -0.264752 101
-1.497813 3.831989 0.117798 79
-1.549370 3.620171 -0.578112 101
-1.706883 3.661744 -0.179217 100
-1.868771 3.697440 0.206244 79
-1.910416 3.499723 -0.407817 101
-2.086970 3.552169 -0.032358 100
-1.345774 3.795413 -0.201882 100
-1.509421 3.863603 0.182556 85
-1.557860 3.641700 -0.428196 101
-1.703851 3.656845 -0.116917 100
-1.880900 3.722992 0.271929 60
-1.908785 3.498133 -0.345841 101
-2.084353 3.549081 0.030890 100
-1.348256 3.810042 -0.140428 101
-1.502886 3.854046 0.245766 80
-1.551704 3.633648 -0.365837 101
-1.702101 3.659116 -0.054943 100
-1.908894 3.503588 -0.284597 101
-2.081628 3.549567 0.094099 101
-1.200410 3.767814 -0.450549 101
-1.357510 3.838245 -0.078883 100
-1.506483 3.865193 0.310463 88
-1.565641 3.667992 -0.307572 100
-1.721878 3.703261 0.007128 92
-1.915900 3.517856 -0.223956 101
-2.100269 3.582734 0.158815 47
-1.219329 3.829425 -0.271160 100
-1.371294 3.879295 0.109899 91
-1.420211 3.645657 -0.636774 101
-1.579905 3.703135 -0.124415 87
-1.737813 3.739178 0.197334 81
-1.779829 3.531418 -0.412154 101
-1.946895 3.576199 -0.039798 100
-1.224649 3.848372 -0.210237 100
-1.372581 3.885013 0.173414 85
-1.433974 3.682816 -0.434924 101
-1.587689 3.723116 -0.062877 75
-1.752521 3.772485 0.263163 62
-1.787251 3.547629 -0.352431 101
-1.955916 3.594208 0.022854 91
-1.243822 3.910899 -0.024353 100
-1.452128 3.731299 -0.254711 101
-1.617868 3.795655 0.126063 84
-1.802843 3.580079 -0.170104 100
-2.002362 3.681034 0.216676 94
-2.015092 3.441415 -0.400162 101
-1.244343 3.914815 0.038716 88
-1.454196 3.738472 -0.193380 101
-1.624111 3.812078 0.190335 66
-1.657352 3.570768 -0.528758 101
-1.819383 3.614438 -0.109496 100
-2.027447 3.463851 -0.340557 101
-1.320464 3.743513 -0.382926 101
-1.474095 3.791516 -0.008520 85
-1.638892 3.848568 0.419730 100
-1.675317 3.611064 -0.299315 101
-1.847872 3.672573 0.078222 100
-2.050801 3.505104 -0.156717 101
-1.333564 3.782681 -0.324821 97
-1.480574 3.810079 0.054224 93
-1.698284 3.662181 -0.241244 100
-1.859070 3.696377 0.142318 93
-1.897871 3.493142 -0.477559 92
-2.061279 3.524372 -0.094793 82
-1.200262 3.787163 -0.390938 100
-1.357252 3.856078 -0.016410 98
-1.508157 3.886868 0.396309 100
-1.566435 3.685296 -0.247023 100
-1.716020 3.705327 0.069850 78
-1.884462 3.751578 -1.493453 14
-1.917706 3.533899 -0.162894 100
-1.213333 3.830644 -0.333181 101
-1.360509 3.867409 0.046512 91
-1.565551 3.684939 -0.185309 100
-1.728180 3.733229 0.133595 87
-1.766656 3.518526 -0.493887 100
-1.933331 3.564124 -0.101928 100
-1.222065 3.860468 -0.148480 100
-1.377574 3.918022 0.238742 83
-1.439278 3.713055 -0.376433 101
-1.601003 3.770146 -0.000715 72
-1.754951 3.792734 0.328901 42
-1.796621 3.579708 -0.293426 101
-1.955793 3.606980 0.085948 100
-1.227991 3.881457 -0.086699 100
-1.444894 3.729405 -0.316174 101
-1.604872 3.781026 0.062375 73
-1.801409 3.590755 -0.232339 100
-1.971470 3.637352 0.150261 90
-1.994368 3.417879 -0.461363 101
-1.297436 3.694070 -0.714776 101
-1.465316 3.784007 -0.133194 101
-1.624801 3.829769 0.255176 59
-1.655795 3.581604 -0.418901 101
-1.828792 3.646868 -0.047709 100
-2.028618 3.477920 -0.279429 101
-1.315325 3.747018 -0.444737 101
-1.456584 3.763336 -0.070438 101
-1.631778 3.848013 0.320877 51
-1.664381 3.601765 -0.359695 101
-1.833669 3.658128 0.014998 89
-2.021908 3.467756 -0.216696 101
-1.331973 3.796489 -0.263705 101
-1.484428 3.837193 0.117798 81
-1.541358 3.636489 -0.579855 101
-1.695767 3.671307 -0.179395 100
-1.857643 3.707512 0.206443 71
-1.898188 3.506370 -0.407817 101
-2.072544 3.555977 -0.032327 79
-1.333840 3.803857 -0.202083 100
-1.494484 3.865121 0.182380 95
-1.548241 3.654439 -0.429055 101
-1.702808 3.688181 -0.117728 93
-1.873255 3.740242 0.272710 62
-1.902252 3.515289 -0.346878 101
-2.073965 3.559791 0.030920 100
-1.331651 3.803173 -0.140011 100
-1.485782 3.847834 0.245054 88
-1.539646 3.638774 -0.365837 101
-1.696657 3.679269 -0.055160 100
-1.897265 3.509899 -0.284597 101
-2.069846 3.556451 0.094099 101
-1.185521 3.764193 -0.449643 101
-1.347417 3.850276 -0.079038 100
-1.497966 3.881332 0.311359 78
-1.559683 3.687857 -0.308802 100
-1.712937 3.716216 0.007142 80
-1.909920 3.534731 -0.224626 101
-2.094406 3.600044 0.159273 66
-1.206624 3.833447 -0.271160 100
-1.362383 3.895144 0.110219 100
-1.408114 3.650347 -0.636774 101
-1.569173 3.712036 -0.124538 82
-1.723732 3.741291 0.197143 76
-1.771666 3.544418 -0.412984 101
-1.940728 3.593193 -0.039916 100
-1.214278 3.860033 -0.210653 100
-1.361009 3.893316 0.173583 84
-1.421753 3.687551 -0.434924 101
-1.572221 3.720992 -0.062753 82
-1.741671 3.781902 0.263415 66
-1.780819 3.564229 -0.353491 101
-1.949687 3.611234 0.022921 94
-1.232046 3.918818 -0.024377 97
-1.438312 3.732369 -0.254457 101
-1.602161 3.793633 0.125819 86
-1.801675 3.607490 -0.171122 101
-1.986350 3.680623 0.216263 100
-2.005668 3.451520 -0.400561 101
-1.233752 3.926552 0.038792 93
-1.443227 3.747002 -0.193573 101
-1.611460 3.817443 0.190335 62
-1.640530 3.565440 -0.527161 101
-1.803815 3.613296 -0.109279 101
-2.013947 3.467109 -0.340219 101
-1.310666 3.755389 -0.383694 101
-1.460077 3.792651 -0.008512 87
-1.616837 3.831980 0.417334 101
-1.658333 3.605729 -0.298415 101
-1.833898 3.675102 0.078146 101
-2.033145 3.501515 -0.156254 101
-1.318387 3.779553 -0.324175 100
-1.466495 3.811235 0.054171 91
-1.686130 3.667793 -0.241244 100
-1.852156 3.713253 0.142730 85
-1.886277 3.499416 -0.477559 92
-2.049580 3.531188 -0.094793 96
-1.188886 3.794921 -0.391329 100
-1.341827 3.853003 -0.016378 100
-1.492403 3.884414 0.395552 101
-1.555755 3.694149 -0.247270 100
-1.703724 3.710998 0.069850 93
-1.863608 3.740940 -1.486750 16
-1.898398 3.526163 -0.162246 100
-1.199432 3.830843 -0.332851 101
-1.350307 3.879454 0.046603 86
-1.553323 3.690110 -0.185309 100
-1.714123 3.735306 0.133465 97
-1.760286 3.535024 -0.495380 100
-1.921502 3.570515 -0.101928 101
-1.210450 3.868315 -0.148627 100
-1.365886 3.926340 0.238971 81
-1.431238 3.728961 -0.377563 101
-1.586941 3.771748 -0.000714 76
-1.745690 3.805782 0.329528 40
-1.786518 3.589217 -0.293718 101
-1.947610 3.620489 0.086115 100
-1.221081 3.904592 -0.087124 98
-1.432519 3.734176 -0.316174 101
-1.596977 3.797388 0.062557 73
-1.787713 3.593133 -0.232108 101
-1.963184 3.650911 0.150551 100
-1.990986 3.438227 -0.463216 101
-1.283887 3.694635 -0.714058 101
-1.449897 3.781379 -0.132931 101
-1.608998 3.827775 0.254687 59
-1.647224 3.594307 -0.419746 101
-1.811346 3.642168 -0.047569 98
-2.013075 3.477721 -0.278875 101
-1.304196 3.755115 -0.445182 101
-1.449821 3.783084 -0.070717 101
-1.612829 3.838695 0.319652 61
-1.659064 3.621752 -0.361140 101
-1.826870 3.674934 0.015042 100
-2.016398 3.484813 -0.217343 101
-1.324612 3.815968 -0.264752 101
-1.474555 3.849563 0.118027 79
-1.520096 3.619687 -0.576369 101
-1.683583 3.676910 -0.179395 100
-1.841783 3.706497 0.206045 81
-1.888433 3.516151 -0.408224 101
-2.064746 3.569755 -0.032389 74
-1.315981 3.793162 -0.201281 100
-1.477372 3.858860 0.181852 88
-1.533035 3.652220 -0.428196 101
-1.678921 3.668358 -0.116917 94
-1.850188 3.724984 0.271148 73
-1.884930 3.511045 -0.345841 101
-2.052139 3.549335 0.030770 100
-1.320965 3.815360 -0.140289 101
-1.478024 3.867923 0.246003 89
-1.529996 3.651481 -0.366574 101
-1.685448 3.688814 -0.055215 83
-1.888755 3.523542 -0.285166 101
-2.061401 3.570590 0.094282 101
-1.175905 3.779696 -0.451002 101
-1.332649 3.851180 -0.078960 100
-1.478705 3.871636 0.310165 84
-1.540627 3.678569 -0.307572 100
-1.693296 3.707624 0.007114 80
-1.893787 3.534342 -0.224179 101
-2.059839 3.569258 0.157592 74
-1.197971 3.852881 -0.272237 100
-1.351388 3.907435 0.110433 100
-1.402399 3.673683 -0.639987 101
-1.563921 3.735933 -0.125156 78
-1.717294 3.761826 0.197908 81
-1.761045 3.554148 -0.413398 101
-1.930058 3.603474 -0.039955 100
-1.201985 3.868062 -0.210861 100
-1.347413 3.898042 0.173583 83
-1.411710 3.699920 -0.435799 101
-1.562313 3.733836 -0.062877 100
-1.723490 3.777061 0.262658 76
-1.763064 3.559711 -0.352431 101
-1.935184 3.614490 0.022899 89
-1.217183 3.919271 -0.024353 100
-1.429551 3.748553 -0.255219 101
-1.590461 3.802887 0.125941 84
-1.783761 3.603008 -0.170613 100
-1.960305 3.662876 0.214817 84
-1.993616 3.458495 -0.400561 101
-1.215312 3.915549 0.038641 83
-1.427309 3.744545 -0.193188 101
-1.599683 3.826725 0.190519 66
-1.628090 3.571138 -0.527161 101
-1.792981 3.623147 -0.109387 100
-1.997867 3.467203 -0.339542 101
-1.296274 3.756170 -0.383310 101
-1.445428 3.793977 -0.008503 85
-1.608078 3.848608 0.418532 101
-1.642451 3.604226 -0.297816 101
-1.815761 3.670716 0.077918 101
-2.024921 3.515506 -0.156563 101
-1.305215 3.784122 -0.324175 100
-1.454636 3.820057 0.054224 91
-1.675001 3.677276 -0.241483 100
-1.833896 3.708931 0.142318 93
-1.877822 3.512969 -0.478513 91
-2.037269 3.538305 -0.094793 94
-1.180390 3.814244 -0.392896 100
-1.332327 3.868992 -0.016426 98
-1.478886 3.889580 0.395552 101
-1.544436 3.703222 -0.247516 100
-1.690809 3.716900 0.069850 93
-1.848920 3.744019 -1.485410 22
-1.888007 3.536269 -0.162408 100
-1.186111 3.834988 -0.332851 101
-1.338117 3.887906 0.046648 98
-1.542026 3.699175 -0.185494 101
-1.697821 3.733963 0.133205 91
-1.746232 3.537561 -0.494882 100
-1.905315 3.570116 -0.101727 101
-1.199366 3.880134 -0.148920 100
-1.354836 3.938613 0.239430 96
-1.416861 3.730187 -0.377186 101
-1.576906 3.784622 -0.000716 73
-1.734108 3.815454 0.329842 41
-1.775805 3.598979 -0.294010 101
-1.940669 3.637818 0.086367 100
-1.202795 3.893524 -0.086784 100
-1.420960 3.742855 -0.316489 101
-1.580707 3.795525 0.062436 75
-1.778760 3.606481 -0.232570 100
-1.941091 3.640069 0.149825 100
-1.971121 3.431338 -0.461363 101
-1.274895 3.710232 -0.716213 101
-1.439603 3.793864 -0.133194 101
-1.595706 3.833335 0.254687 61
-1.631452 3.592758 -0.418901 101
-1.804002 3.659194 -0.047709 100
-2.008943 3.498527 -0.279983 101
-1.292455 3.763375 -0.445627 101
-1.435273 3.784350 -0.070647 101
-1.602569 3.851631 0.320264 63
-1.641553 3.616602 -0.360056 101
-1.808808 3.670484 0.014998 100
-1.994357 3.474466 -0.216265 101
-1.310080 3.816762 -0.264490 101
-1.459785 3.850912 0.117912 90
-1.512098 3.635897 -0.578112 101
-1.672477 3.686364 -0.179572 100
-1.825392 3.705691 0.205648 79
-1.874362 3.519164 -0.407817 101
-2.050368 3.573422 -0.032358 92
-1.310608 3.820372 -0.202483 100
-1.469657 3.878903 0.182556 90
-1.521899 3.661181 -0.428625 101
-1.671154 3.685077 -0.117264 77
-1.842560 3.742115 0.271929 64
-1.876499 3.524590 -0.346533 101
-2.045799 3.566833 0.030860 100
-1.307639 3.819947 -0.140289 101
-1.465926 3.876794 0.246240 84
-1.517241 3.656799 -0.366574 101
-1.669263 3.687388 -0.055106 92
-1.852096 3.767769 0.338531 21
-1.880189 3.537160 -0.285735 101
-2.054886 3.588175 0.094556 97
-1.161537 3.779979 -0.450549 101
-1.316609 3.848240 -0.078805 100
-1.468001 3.884237 0.310762 86
-1.529305 3.687608 -0.307880 100
-1.685291 3.724445 0.007135 100
-1.879564 3.537404 -0.223956 101
-2.053325 3.586833 0.158051 83
-1.179828 3.841779 -0.271160 100
-1.337740 3.912129 0.110433 89
-1.382592 3.660089 -0.636774 101
-1.547808 3.733982 -0.124909 89
-1.702506 3.764157 0.197717 69
-1.743366 3.549560 -0.412154 101
-1.917467 3.610189 -0.039955 100
-1.187304 3.868416 -0.210653 100
-1.332505 3.898940 0.173414 80
-1.400190 3.708545 -0.436237 101
-1.546208 3.731877 -0.062753 82
-1.713584 3.790330 0.263163 72
-1.752383 3.569420 -0.352784 101
-1.916928 3.610624 0.022832 89
-1.203495 3.923496 -0.024353 100
-1.416457 3.753520 -0.255219 101
-1.575647 3.804721 0.125819 84
-1.771173 3.609212 -0.170613 100
-1.945635 3.666167 0.214611 77
-1.971654 3.448158 -0.398564 101
-1.415639 3.753242 -0.193380 101
-1.584787 3.828593 0.190335 71
-1.620510 3.587638 -0.528758 101
-1.775040 3.618613 -0.109063 100
-1.983774 3.470695 -0.339204 101
-1.285726 3.768208 -0.384078 101
-1.434998 3.806486 -0.008520 90
-1.599199 3.865230 0.419730 101
-1.634784 3.620843 -0.298715 100
-1.806458 3.684214 0.078070 100
-2.004706 3.508671 -0.155946 101
-1.290711 3.784882 -0.323852 100
-1.437062 3.813883 0.054065 83
-1.652300 3.661264 -0.240051 100
-1.813901 3.700951 0.141768 83
-1.856248 3.501958 -0.476128 92
-2.013006 3.524560 -0.094236 100
-1.164742 3.810727 -0.392113 100
-1.317525 3.869833 -0.016410 100
-1.463898 3.890992 0.395173 101
-1.528453 3.701210 -0.247023 95
-1.677824 3.722779 0.069850 93
-1.835840 3.750450 -1.485410 24
-1.877522 3.546370 -0.162570 100
-1.173882 3.842918 -0.333181 101
-1.324537 3.892553 0.046648 96
-1.529104 3.704535 -0.185494 100
-1.689703 3.750802 0.133595 85
-1.735617 3.547200 -0.495380 100
-1.900323 3.590883 -0.102129 101
-1.185815 3.884297 -0.148920 100
-1.402431 3.731383 -0.376810 101
-1.560634 3.782708 -0.000714 65
-1.720780 3.821484 0.329842 43
-1.761478 3.601573 -0.293718 101
-1.924219 3.637500 0.086199 100
-1.190364 3.901524 -0.086869 100
-1.412093 3.758991 -0.317435 101
-1.573548 3.815809 0.062679 80
-1.769668 3.619843 -0.233032 101
-1.932110 3.653890 0.150116 88
-1.966999 3.452006 -0.463216 101
-1.261936 3.714660 -0.716213 101
-1.423541 3.791380 -0.132931 100
-1.580793 3.835191 0.254442 60
-1.618901 3.598431 -0.418901 101
-1.782437 3.647501 -0.047475 100
-1.988819 3.491649 -0.278875 101
-1.275477 3.756571 -0.444292 101
-1.423459 3.793081 -0.070717 101
-1.592153 3.864576 0.320877 61
-1.624017 3.611410 -0.358973 101
-1.799496 3.683964 0.015027 100
-1.984193 3.484877 -0.216481 101
-1.291618 3.806193 -0.263444 101
-1.439312 3.837266 0.117340 92
-1.496383 3.633834 -0.576950 101
-1.656323 3.684890 -0.179217 100
-1.814198 3.715631 0.205846 92
-1.858350 3.518648 -0.407003 101
-2.031946 3.570128 -0.032264 100
-1.295982 3.821140 -0.202283 100
-1.456108 3.884009 0.182556 88
-1.507596 3.662794 -0.428196 101
-1.663197 3.701830 -0.117612 95
-1.825985 3.741350 0.271409 74
-1.864184 3.531118 -0.346533 101
-2.035314 3.577429 0.030890 94
-1.295579 3.828275 -0.140428 100
-1.448187 3.870668 0.245528 82
-1.502954 3.658389 -0.366206 101
-1.659654 3.700491 -0.055215 100
-1.833694 3.763458 0.337566 35
-1.856669 3.522524 -0.284028 101
-2.042349 3.595326 0.094556 100
-1.149489 3.787813 -0.451002 101
-1.305731 3.860390 -0.078960 100
-1.454434 3.889337 0.310762 83
-1.516423 3.692924 -0.307880 100
-1.669007 3.723005 0.007121 83
-1.876513 3.561610 -0.225072 101
-2.040792 3.593979 0.158051 92
-1.169885 3.857331 -0.271968 100
-1.324076 3.916775 0.110433 89
-1.369807 3.664893 -0.636774 101
-1.536283 3.743061 -0.125032 83
-1.687722 3.766431 0.197525 85
-1.729224 3.552047 -0.411740 101
-1.904854 3.616860 -0.039955 100
-1.178428 3.887828 -0.211485 100
-1.325284 3.922498 0.174255 80
-1.387237 3.713410 -0.436237 101
-1.534690 3.740952 -0.062815 93
-1.706870 3.810861 0.264173 78
-1.738170 3.571933 -0.352431 101
-1.911767 3.631451 0.022921 91
-1.189792 3.927673 -0.024353 100
-1.404743 3.762181 -0.255473 101
-1.557806 3.799101 0.125452 79
-1.753320 3.604591 -0.170104 100
-1.932826 3.672937 0.214611 75
-1.955679 3.448095 -0.397766 101
-1.402529 3.758161 -0.193380 101
-1.569898 3.830405 0.190152 66
-1.604739 3.586035 -0.527693 101
-1.764146 3.628383 -0.109171 100
-1.969682 3.474131 -0.338866 101
-1.271292 3.768901 -0.383694 101
-1.420304 3.807724 -0.008512 87
-1.582680 3.863423 0.418932 101
-1.615620 3.611964 -0.297516 101
-1.793587 3.690497 0.078070 100
-1.876756 3.569270 -1.159531 46
-2.000329 3.529557 -0.156563 101
-1.276218 3.785586 -0.323529 100
-1.423740 3.818877 0.054065 86
-1.639510 3.667010 -0.240051 100
-1.802718 3.710856 0.141905 80
-1.845861 3.511931 -0.476605 92
-2.004633 3.538524 -0.094422 100
-1.151433 3.814770 -0.392113 100
-1.305285 3.878199 -0.016426 98
-1.451696 3.899810 0.395552 100
-1.517035 3.710218 -0.247270 100
-1.663188 3.724961 0.069782 86
-1.819447 3.750054 -1.482728 28
-1.863274 3.549363 -0.162408 101
-1.162763 3.854625 -0.333842 101
-1.313492 3.904735 0.046739 98
-1.516163 3.709850 -0.185494 100
-1.676600 3.756677 0.133595 85
-1.726689 3.560380 -0.496376 100
-1.885919 3.593953 -0.102028 101
-1.172249 3.888412 -0.148920 100
-1.390786 3.739988 -0.377186 101
-1.547421 3.788133 -0.000714 74
-1.704180 3.820184 0.329214 42
-1.747156 3.604110 -0.293426 101
-1.909652 3.640653 0.086115 100
-1.900442 3.361127 -0.931626 0
-1.176738 3.905655 -0.086869 100
-1.392017 3.745208 -0.315859 101
-1.552660 3.802765 0.062375 75
-1.751798 3.615218 -0.232339 101
-1.917488 3.657072 0.149970 100
-1.949073 3.448474 -0.461826 101
-1.250214 3.722773 -0.716932 101
-1.410298 3.796326 -0.132931 100
-1.571922 3.851775 0.255176 72
-1.609568 3.611326 -0.419746 101
-1.773181 3.660900 -0.047569 100
-1.974656 3.495096 -0.278598 101
-1.266151 3.772306 -0.445627 101
-1.411602 3.801776 -0.070787 101
-1.580160 3.873803 0.321183 63
-1.617885 3.631613 -0.360418 101
-1.790112 3.697423 0.015057 86
-1.975945 3.498738 -0.216912 101
-1.280863 3.818247 -0.263967 101
-1.432865 3.861010 0.117912 79
-1.486678 3.646365 -0.578112 101
-1.643450 3.690649 -0.179217 100
-1.806438 3.732729 0.206443 81
-1.844210 3.521588 -0.406596 101
-2.023405 3.584166 -0.032327 100
-1.278826 3.814278 -0.201682 100
-1.438372 3.877828 0.182028 93
-1.496302 3.671717 -0.428625 101
-1.640510 3.685696 -0.116917 89
-1.811176 3.744108 0.271148 69
-1.846303 3.527012 -0.345495 101
-2.018882 3.577545 0.030830 100
-1.279689 3.825186 -0.140150 101
-1.434685 3.875693 0.245528 84
-1.491692 3.667295 -0.366574 101
-1.643497 3.698944 -0.055106 99
-1.818830 3.766237 0.337245 55
-1.855466 3.550191 -0.285735 101
-2.025877 3.595455 0.094374 100
-1.135131 3.787992 -0.450549 101
-1.293527 3.868713 -0.079038 94
-1.439476 3.890645 0.310463 88
-1.503534 3.698190 -0.307880 100
-1.659260 3.736115 0.007135 83
-1.856682 3.553974 -0.224179 101
-2.024322 3.594109 0.157745 100
-1.155273 3.857567 -0.271699 100
-1.311668 3.925164 0.110540 100
-1.359749 3.677057 -0.638059 101
-1.517192 3.733583 -0.124538 84
-1.677811 3.779601 0.197908 87
-1.723734 3.572392 -0.413398 101
-1.888518 3.616395 -0.039877 100
-1.162556 3.884265 -0.211069 100
-1.312847 3.930892 0.174424 80
-1.371507 3.710772 -0.435362 101
-1.524630 3.753698 -0.062939 89
-1.691936 3.813148 0.263921 78
-1.727419 3.581568 -0.352784 101
-1.895374 3.631012 0.022876 96
-1.176065 3.931806 -0.024353 78
-1.388826 3.759576 -0.254965 101
-1.552046 3.823041 0.126063 86
-1.740718 3.610694 -0.170104 101
-1.923680 3.686749 0.215024 69
-1.957282 3.479187 -0.400561 101
-1.388002 3.759291 -0.193188 101
-1.558004 3.839571 0.190335 79
-1.592196 3.591622 -0.527693 101
-1.753190 3.638129 -0.109279 100
-1.924997 3.690787 0.279401 31
-1.959481 3.484468 -0.339204 101
-1.261883 3.784654 -0.384846 101
-1.409750 3.820172 -0.008528 87
-1.572152 3.876310 0.419730 101
-1.609444 3.632178 -0.298715 101
-1.784142 3.703952 0.078222 100
-1.921134 3.684892 -1.194902 24
-1.982099 3.526077 -0.156100 101
-1.268008 3.805157 -0.324821 97
-1.414523 3.835092 0.054224 98
-1.626670 3.672723 -0.240051 100
-1.791459 3.720742 0.142043 85
-1.837234 3.525411 -0.477559 92
-1.988324 3.538543 -0.094236 100
-1.140333 3.826411 -0.392896 100
-1.291687 3.882749 -0.016426 98
-1.440775 3.912346 0.396309 62
-1.505523 3.719212 -0.247516 100
-1.654980 3.741739 0.069987 83
-1.814461 3.773388 -1.489432 23
-1.848980 3.552325 -0.162246 100
-1.146966 3.851037 -0.333181 101
-1.297271 3.901725 0.046648 91
-1.500151 3.707734 -0.185124 100
-1.658570 3.751562 0.133205 80
-1.709038 3.555679 -0.494882 100
-1.865925 3.586353 -0.101626 101
-1.155182 3.881007 -0.148480 100
-1.376284 3.741106 -0.376810 101
-1.531125 3.786121 -0.000713 61
-1.690771 3.826138 0.329214 44
-1.734503 3.610215 -0.293426 101
-1.895025 3.643781 0.086031 100
-1.928582 3.438994 -0.951328 12
-1.165305 3.917427 -0.087039 98
-1.385746 3.768783 -0.317435 101
-1.542302 3.815607 0.062496 71
-1.737371 3.617743 -0.232108 101
-1.908330 3.670872 0.150261 98
-1.938902 3.458759 -0.462290 101
-1.235896 3.723405 -0.716213 101
-1.396960 3.801255 -0.132931 101
-1.552406 3.842463 0.254197 61
-1.592059 3.606039 -0.418479 101
-1.756855 3.659892 -0.047475 100
-1.964322 3.505489 -0.278875 101
-1.252891 3.776731 -0.445627 101
-1.396859 3.802958 -0.070717 101
-1.566542 3.879330 0.321183 60
-1.603510 3.633629 -0.360056 101
-1.775382 3.700083 0.015042 100
-1.961690 3.502173 -0.216696 101
-1.272460 3.837879 -0.265013 101
-1.423419 3.877282 0.118256 75
-1.472372 3.647897 -0.577531 101
-1.632081 3.700058 -0.179395 100
-1.793308 3.739055 0.206443 79
-1.835488 3.535112 -0.407410 101
-2.008841 3.587765 -0.032295 100
-1.267918 3.826335 -0.202083 100
-1.427480 3.890365 0.182380 90
-1.483381 3.676956 -0.428625 101
-1.625926 3.687783 -0.116801 91
-1.796273 3.746855 0.270888 73
-1.832052 3.529946 -0.345149 101
-2.004335 3.581132 0.030800 100
-1.266329 3.829630 -0.140150 101
-1.423894 3.888176 0.246003 82
-1.477394 3.668785 -0.366206 101
-1.632186 3.708319 -0.055160 100
-1.795344 3.750985 0.335316 54
-1.832048 3.535391 -0.284028 101
-2.013314 3.602505 0.094374 100
-1.124156 3.799553 -0.451454 101
-1.281270 3.877002 -0.079115 100
-1.430000 3.906884 0.311359 78
-1.492105 3.707116 -0.308187 100
-1.647819 3.745545 0.007142 77
-1.842429 3.556887 -0.223956 101
-2.009815 3.597664 0.157592 95
-1.142932 3.865403 -0.271968 100
-1.295450 3.922125 0.110326 100
-1.352331 3.696612 -0.640629 101
-1.505642 3.742566 -0.124662 82
-1.663000 3.781777 0.197717 85
-1.711254 3.578387 -0.413398 101
-1.877722 3.626517 -0.039916 100
-1.147859 3.884468 -0.210861 100
-1.361276 3.723005 -0.436237 101
-1.510025 3.755286 -0.062877 80
-1.683434 3.829995 0.264678 75
-1.718343 3.594766 -0.353491 101
-1.884527 3.641158 0.022899 100
-1.377064 3.768150 -0.255219 101
-1.543164 3.839565 0.126429 76
-1.728104 3.616748 -0.170104 101
-1.908963 3.689893 0.214817 64
-1.939307 3.475571 -0.399363 101
-1.374871 3.764114 -0.193188 101
-1.544592 3.844985 0.190335 73
-1.581243 3.600788 -0.528225 101
-1.738757 3.640618 -0.109171 101
-1.917601 3.708119 0.280205 48
-1.947306 3.491287 -0.339204 101
-1.244926 3.777692 -0.383694 101
-1.390920 3.810040 -0.008495 82
-1.555646 3.874388 0.418932 101
-1.591946 3.626817 -0.297816 101
-1.766033 3.699330 0.077994 99
-1.890607 3.657426 -1.183849 17
-1.961993 3.519010 -0.155483 101
-1.254718 3.809560 -0.324821 97
-1.397014 3.828734 0.054065 81
-1.618653 3.689348 -0.240767 100
-1.780182 3.730581 0.142180 87
-1.823093 3.528275 -0.477082 92
-1.981800 3.555942 -0.094514 96
-1.126969 3.830368 -0.392896 100
-1.278126 3.887234 -0.016426 100
-1.491046 3.720738 -0.247270 100
-1.637093 3.736503 0.069782 80
-1.793172 3.762689 -1.482728 24
-1.834736 3.555206 -0.162084 101
-2.018494 3.626083 0.222579 23
-1.133517 3.855017 -0.333181 101
-1.284893 3.910029 0.046694 100
-1.487199 3.712948 -0.185124 100
-1.647068 3.760991 0.133335 93
-1.698323 3.565207 -0.495380 100
-1.847896 3.582184 -0.101325 101
-1.146135 3.900356 -0.149067 100
-1.368664 3.760856 -0.378315 101
-1.525333 3.810010 -0.000716 69
-1.683801 3.846628 0.330470 45
-1.725321 3.623452 -0.294010 101
-1.891459 3.668146 0.086450 98
-1.903336 3.421918 -0.944761 100
-1.150497 3.917634 -0.086954 96
-1.369856 3.766103 -0.316804 101
-1.533432 3.832107 0.062679 71
-1.726448 3.627392 -0.232339 101
-1.891842 3.670404 0.149970 84
-1.926817 3.465506 -0.462290 101
-1.226571 3.738913 -0.718368 101
-1.386414 3.813622 -0.133194 101
-1.547880 3.870101 0.255666 64
-1.582650 3.618863 -0.419324 101
-1.750942 3.680449 -0.047662 98
-1.954013 3.515812 -0.279152 101
-1.240939 3.784859 -0.446072 101
-1.382210 3.804051 -0.070647 100
-1.551510 3.881072 0.320877 61
-1.592412 3.642854 -0.360418 101
-1.760737 3.702645 0.015027 100
-1.945574 3.502016 -0.216265 101
-1.256569 3.834712 -0.264490 101
-1.405782 3.870953 0.117912 76
-1.456692 3.645665 -0.576369 101
-1.619156 3.705733 -0.179395 100
-1.768239 3.720035 0.205051 78
-1.824959 3.545035 -0.407817 101
-1.998247 3.598253 -0.032327 98
-1.255797 3.834535 -0.202283 100
-1.412528 3.891568 0.182204 93
-1.469062 3.678418 -0.428196 101
-1.617844 3.704429 -0.117148 89
-1.786609 3.760312 0.271409 64
-1.827013 3.550493 -0.346533 101
-1.991823 3.588107 0.030800 100
-1.257920 3.849226 -0.140706 100
-1.415753 3.908139 0.246952 69
-1.469003 3.685019 -0.367312 101
-1.619232 3.713994 -0.055160 100
-1.782240 3.757229 0.335316 57
-1.823343 3.548862 -0.284597 101
-2.002666 3.613008 0.094465 100
-1.113115 3.811084 -0.452360 100
-1.275179 3.904261 -0.079580 94
-1.414995 3.908101 0.311061 86
-1.483584 3.723416 -0.309110 100
-1.634734 3.751274 0.007142 89
-1.831826 3.566849 -0.224179 101
-2.003056 3.615146 0.158051 100
-1.130550 3.873200 -0.272237 100
-1.280511 3.922822 0.110219 89
-1.336732 3.693885 -0.639344 101
-1.494048 3.751513 -0.124785 69
-1.649788 3.787559 0.197717 78
-1.695345 3.577149 -0.412569 101
-1.863225 3.629491 -0.039877 100
-1.135411 3.892286 -0.211069 100
-1.352329 3.738951 -0.437549 101
-1.495429 3.756818 -0.062815 88
-1.668461 3.832187 0.264426 78
-1.704079 3.597141 -0.353138 101
-1.869979 3.644156 0.022876 100
-1.362545 3.769180 -0.254965 101
-1.522362 3.826354 0.125819 87
-1.718889 3.629982 -0.170443 101
-1.892425 3.689426 0.214404 72
-1.919455 3.468390 -0.397766 101
-1.364439 3.776405 -0.193573 101
-1.529684 3.846641 0.190152 75
-1.567083 3.602650 -0.527693 101
-1.727749 3.650280 -0.109279 101
-1.913751 3.732547 0.281544 63
-1.935108 3.498063 -0.339204 101
-1.232965 3.785800 -0.384078 101
-1.378971 3.818634 -0.008503 78
-1.540642 3.876096 0.418532 101
-1.579276 3.632351 -0.297816 101
-1.753109 3.705472 0.077994 100
-1.877828 3.664003 -1.183849 21
-1.955500 3.536331 -0.155946 101
-1.242646 3.817708 -0.325143 97
-1.389073 3.848635 0.054277 93
-1.602582 3.687652 -0.240290 100
-1.763731 3.729544 0.141905 76
-1.816199 3.545221 -0.478513 92
-1.961637 3.548838 -0.094143 100
-1.113592 3.834278 -0.392896 100
-1.264550 3.891672 -0.016426 100
-1.480994 3.733343 -0.247762 100
-1.628817 3.753201 0.069987 83
-1.789684 3.789371 -1.490772 29
-1.825956 3.568705 -0.162408 100
-2.011616 3.643597 0.223221 56
-1.122276 3.866606 -0.333842 101
-1.271236 3.914490 0.046694 91
-1.475702 3.721831 -0.185309 101
-1.638703 3.777720 0.133725 75
-1.677396 3.553168 -0.492891 100
-1.835380 3.588612 -0.101325 101
-1.131400 3.900494 -0.148920 100
-1.350133 3.750623 -0.376810 101
-1.507603 3.804155 -0.000714 79
-1.665604 3.841507 0.329528 43
-1.705852 3.615021 -0.292841 101
-1.871361 3.660483 0.086115 100
-1.893257 3.431946 -0.945699 100
-1.136814 3.921626 -0.086954 74
-1.358052 3.774614 -0.317120 101
-1.517100 3.829999 0.062557 73
-1.678110 3.872134 0.449512 11
-1.713776 3.633396 -0.232339 101
-1.882656 3.684105 0.150261 100
-1.916626 3.475690 -0.462753 101
-1.212299 3.739429 -0.717650 70
-1.370388 3.810915 -0.132931 100
-1.532892 3.871768 0.255421 61
-1.574751 3.635316 -0.420590 101
-1.734673 3.679303 -0.047569 100
-1.939802 3.519117 -0.278875 101
-1.225269 3.781604 -0.445182 101
-1.370276 3.812617 -0.070717 100
-1.536486 3.882755 0.320570 58
-1.578103 3.644735 -0.360056 101
-1.747802 3.708768 0.015027 100
-1.935265 3.512284 -0.216481 101
-1.243176 3.839075 -0.264490 101
-1.388206 3.864547 0.117569 81
-1.443958 3.650727 -0.576369 101
-1.603036 3.704028 -0.179040 100
-1.763756 3.744255 0.206045 79
-1.805337 3.537207 -0.406189 101
-1.977956 3.591191 -0.032201 100
-1.244865 3.846497 -0.202683 101
-1.402986 3.907758 0.182731 94
-1.459137 3.690921 -0.429055 101
-1.606490 3.713723 -0.117264 96
-1.778573 3.777360 0.272189 69
-1.809175 3.546200 -0.345495 101
-1.981215 3.598541 0.030830 100
-1.239562 3.838377 -0.140150 101
-1.398062 3.901781 0.246240 80
-1.454669 3.686420 -0.366943 101
-1.598329 3.701264 -0.054888 100
-1.762329 3.748994 0.334030 63
-1.809133 3.551650 -0.284312 101
-1.984262 3.609464 0.094191 100
-1.098704 3.811127 -0.451907 101
-1.257857 3.897270 -0.079347 100
-1.404035 3.920527 0.311658 73
-1.469115 3.724862 -0.308802 100
-1.621630 3.756958 0.007142 77
-1.819364 3.573222 -0.224179 101
-1.990424 3.622116 0.158051 100
-1.118128 3.880958 -0.272506 100
-1.268037 3.931073 0.110326 44
-1.323830 3.698529 -0.639344 101
-1.483876 3.764144 -0.125032 92
-1.633392 3.785958 0.197334 74
-1.684539 3.586646 -0.412984 101
-1.848730 3.632408 -0.039838 100
-1.122923 3.900064 -0.211277 100
-1.336591 3.736162 -0.436674 101
-1.486704 3.773179 -0.063001 86
-1.651912 3.830657 0.263921 68
-1.689819 3.599461 -0.352784 101
-1.857247 3.650661 0.022876 98
-1.356100 3.792708 -0.256235 101
-1.514857 3.846525 0.126307 71
-1.706208 3.635960 -0.170443 101
-1.884967 3.706691 0.215024 80
-1.913081 3.485536 -0.398964 101
-1.355282 3.792432 -0.194151 100
-1.519175 3.859393 0.190519 75
-1.557635 3.615380 -0.528758 101
-1.714996 3.656288 -0.109279 100
-1.902518 3.742762 0.281812 72
-1.922885 3.504796 -0.339204 101
-1.222182 3.797661 -0.384846 101
-1.371014 3.838492 -0.008537 82
-1.530017 3.888857 0.419331 101
-1.571320 3.648833 -0.298715 101
-1.745257 3.722432 0.078222 95
-1.865027 3.670536 -1.183849 24
-1.945066 3.546640 -0.156100 100
-1.228092 3.818227 -0.324821 97
-1.370251 3.838393 0.054065 81
-1.592857 3.700558 -0.240767 100
-1.750701 3.735678 0.141905 80
-1.794820 3.533834 -0.476128 92
-1.945393 3.548651 -0.093957 100
-1.098007 3.830489 -0.392113 100
-1.253403 3.903679 -0.016458 86
-1.462116 3.723625 -0.246777 100
-1.612547 3.751515 0.069850 83
-1.784433 3.812662 -1.497475 40
-1.809872 3.567928 -0.162084 100
-1.995048 3.643590 0.222793 74
-1.107674 3.866668 -0.333512 101
-1.258786 3.922712 0.046739 96
-1.464162 3.730679 -0.185494 100
-1.622350 3.776071 0.133465 89
-1.673392 3.576976 -0.495380 100
-1.833693 3.616396 -0.101928 101
-1.119978 3.912105 -0.149213 100
-1.339704 3.762816 -0.377563 101
-1.494315 3.809394 -0.000714 70
-1.650611 3.843633 0.329214 41
-1.698293 3.631795 -0.293718 101
-1.863996 3.677694 0.086367 98
-1.877534 3.431711 -0.943823 101
-1.344867 3.779331 -0.317120 101
-1.503721 3.835272 0.062557 78
-1.667721 3.885278 0.450359 43
-1.699392 3.635738 -0.232108 101
-1.867978 3.687088 0.150116 100
-1.902576 3.478873 -0.462290 101
-1.200439 3.747385 -0.718368 28
-1.361096 3.826975 -0.133325 100
-1.514997 3.865943 0.254687 59
-1.558915 3.633480 -0.419746 101
-1.721819 3.685336 -0.047569 100
-1.927506 3.525866 -0.278875 101
-1.213273 3.789644 -0.445627 101
-1.356959 3.817377 -0.070717 101
-1.518560 3.876954 0.319652 59
-1.566941 3.653883 -0.360418 101
-1.731460 3.707598 0.014998 100
-1.915332 3.504998 -0.215618 101
-1.226119 3.831986 -0.263705 100
-1.381401 3.888208 0.118141 77
-1.432648 3.659431 -0.576950 101
-1.590097 3.709601 -0.179040 100
-1.745606 3.739529 0.205449 76
-1.800165 3.557689 -0.407817 101
-1.967325 3.601584 -0.032232 89
-1.228997 3.843208 -0.202283 100
-1.383988 3.897569 0.182028 85
-1.441897 3.684881 -0.427766 101
-1.588793 3.708283 -0.116917 98
-1.755251 3.761842 0.270628 66
-1.798584 3.556050 -0.345841 101
-1.964808 3.598414 0.030770 100
-1.229802 3.854106 -0.140567 100
-1.385767 3.910401 0.246477 70
-1.441792 3.691475 -0.366943 101
-1.591691 3.721530 -0.055106 89
-1.761017 3.780422 0.336280 78
-1.803919 3.572190 -0.285451 101
-1.973565 3.619879 0.094282 100
-1.087569 3.822585 -0.452813 100
-1.245461 3.905447 -0.079425 96
-1.395668 3.940444 0.312852 37
-1.456104 3.729968 -0.308802 100
-1.606934 3.758917 0.007135 77
-1.805081 3.575985 -0.223956 101
-1.977769 3.629042 0.158051 100
-1.104574 3.884837 -0.272506 100
-1.313546 3.710571 -0.640629 101
-1.464915 3.754403 -0.124538 82
-1.621736 3.795310 0.197525 87
-1.668652 3.585290 -0.412154 101
-1.834238 3.635268 -0.039798 100
-1.110394 3.907803 -0.211485 100
-1.322215 3.737056 -0.436237 101
-1.474978 3.782071 -0.063063 79
-1.641667 3.843742 0.264426 89
-1.682286 3.616175 -0.353845 101
-1.851698 3.671407 0.022966 100
-1.338860 3.786128 -0.255473 101
-1.504325 3.859239 0.126552 75
-1.693505 3.641894 -0.170443 101
-1.868420 3.706114 0.214611 81
-1.900903 3.492193 -0.398964 101
-1.340705 3.793373 -0.193958 100
-1.501342 3.853503 0.189968 77
-1.545006 3.620795 -0.528758 101
-1.705594 3.669505 -0.109496 100
-1.889442 3.749381 0.281812 75
-1.910640 3.511487 -0.339204 101
-1.207712 3.798110 -0.384462 101
-1.354943 3.835711 -0.008520 85
-1.514989 3.890465 0.418932 101
-1.553879 3.643288 -0.297816 101
-1.728883 3.721248 0.078070 101
-1.853933 3.680457 -1.184954 17
-1.932674 3.553408 -0.156100 101
-1.219586 3.837689 -0.326112 94
-1.358176 3.846925 0.054118 79
-1.579930 3.706096 -0.240767 100
-1.741018 3.749018 0.142180 80
-1.780688 3.536531 -0.475651 92
-1.942544 3.572986 -0.094422 100
-1.085713 3.838129 -0.392505 100
-1.237350 3.900405 -0.016426 100
-1.452002 3.736148 -0.247270 100
-1.597876 3.753442 0.069782 86
-1.772699 3.822286 -1.498816 37
-1.795611 3.570653 -0.161922 100
-1.988036 3.661062 0.223436 81
-1.098508 3.885855 -0.334834 101
-1.245086 3.927083 0.046739 100
-1.452577 3.739492 -0.185679 100
-1.610724 3.785390 0.133595 80
-1.659227 3.579195 -0.494882 100
-1.821058 3.622774 -0.101928 101
-1.103055 3.904451 -0.148773 84
-1.325238 3.763713 -0.377186 101
-1.479561 3.810858 -0.000713 63
-1.637185 3.849371 0.329214 41
-1.682250 3.630461 -0.293133 101
-1.843966 3.669885 0.086031 100
-1.854417 3.417738 -0.938193 101
-1.330343 3.780241 -0.316804 101
-1.488878 3.836769 0.062496 75
-1.654149 3.891076 0.450359 64
-1.683334 3.634401 -0.231646 101
-1.855096 3.693586 0.150116 96
-1.892315 3.488986 -0.462753 101
-1.343750 3.820389 -0.132931 101
-1.501493 3.871208 0.254687 59
-1.546222 3.638899 -0.419746 101
-1.703903 3.680435 -0.047429 101
-1.915187 3.532573 -0.278875 101
-1.206032 3.812806 -0.447853 101
-1.347605 3.833409 -0.070927 100
-1.510784 3.897106 0.320877 53
-1.552620 3.655663 -0.360056 101
-1.723547 3.724510 0.015042 100
-1.916407 3.536244 -0.217127 101
-1.216344 3.847660 -0.264490 101
-1.363844 3.881689 0.117798 83
-1.419865 3.664409 -0.576950 101
-1.580261 3.722485 -0.179395 100
-1.735896 3.752851 0.205846 79
-1.784167 3.556838 -0.407003 101
-1.954742 3.608429 -0.032232 100
-1.216777 3.851284 -0.202483 100
-1.378319 3.924999 0.183083 78
-1.431898 3.697309 -0.428625 101
-1.582087 3.728529 -0.117380 94
-1.748809 3.782438 0.271669 74
-1.789733 3.569431 -0.346533 101
-1.952235 3.605251 0.030770 100
-1.218745 3.866000 -0.140845 100
-1.373430 3.918983 0.246715 68
-1.431770 3.703915 -0.367681 101
-1.580251 3.730746 -0.055160 100
-1.749481 3.790166 0.336602 83
-1.789652 3.574897 -0.285166 101
-1.959015 3.623229 0.094191 100
-1.072071 3.818705 -0.451907 101
-1.224610 3.886885 -0.078960 90
-1.441637 3.731308 -0.308495 96
-1.593803 3.764503 0.007135 80
-1.789013 3.575121 -0.223509 101
-1.955587 3.618342 0.157286 100
-1.091007 3.888669 -0.272506 100
-1.301891 3.718859 -0.641272 101
-1.451800 3.759493 -0.124538 82
-1.608478 3.800948 0.197525 78
-1.657793 3.594706 -0.412569 101
-1.826905 3.652380 -0.039916 100
-1.096746 3.911655 -0.211485 100
-1.310475 3.745402 -0.436674 101
-1.460327 3.783466 -0.063001 89
-1.625129 3.842096 0.263921 63
-1.666317 3.614789 -0.353138 101
-1.833505 3.667116 0.022899 94
-1.326954 3.794546 -0.255727 101
-1.485088 3.849546 0.126063 75
-1.680782 3.647783 -0.170443 101
-1.855472 3.712614 0.214611 91
-1.888701 3.498807 -0.398964 101
-1.326137 3.794258 -0.193765 101
-1.493632 3.873633 0.190702 68
-1.532357 3.626166 -0.528758 101
-1.689429 3.668172 -0.109279 96
-1.860290 3.723820 0.279401 69
-1.896478 3.514627 -0.338866 101
-1.194446 3.802302 -0.384462 100
-1.346822 3.855523 -0.008554 78
-1.501399 3.895730 0.418932 101
-1.544256 3.656039 -0.298415 101
-1.715883 3.727260 0.078070 101
-1.834204 3.673149 -1.180533 17
-1.914567 3.549579 -0.155637 101
-1.201406 3.826708 -0.324821 97
-1.347376 3.859195 0.054224 84
-1.563878 3.704232 -0.240290 100
-1.724579 3.747809 0.141905 87
-1.771880 3.549832 -0.476605 92
-1.928163 3.576225 -0.094329 98
-1.074449 3.849564 -0.393288 100
-1.224924 3.908517 -0.016442 100
-1.440384 3.744920 -0.247516 100
-1.586318 3.762682 0.069850 93
-1.743609 3.794207 -1.485410 33
-1.783136 3.576899 -0.161922 100
-1.969563 3.657429 0.222793 67
-1.086008 3.893506 -0.335165 101
-1.231370 3.931405 0.046739 74
-1.438081 3.740810 -0.185494 100
-1.597501 3.790989 0.133595 84
-1.646723 3.584965 -0.494882 100
-1.801267 3.614793 -0.101526 100
-1.090493 3.912128 -0.148920 22
-1.310783 3.764555 -0.376810 101
-1.467684 3.819734 -0.000714 66
-1.622190 3.851388 0.328901 46
-1.669568 3.636312 -0.293133 101
-1.831144 3.676299 0.086031 100
-1.835105 3.410493 -0.934441 101
-1.319761 3.792394 -0.317435 101
-1.475476 3.841942 0.062496 78
-1.635926 3.885829 0.449088 62
-1.678965 3.658402 -0.232801 101
-1.840410 3.696461 0.149970 100
-1.882007 3.499069 -0.463216 101
-1.335659 3.840160 -0.133456 100
-1.490832 3.883881 0.255176 57
-1.536596 3.651607 -0.420590 101
-1.689378 3.682725 -0.047382 101
-1.900954 3.535722 -0.278598 101
-1.196272 3.828376 -0.449189 101
-1.335529 3.841868 -0.070996 100
-1.500028 3.909803 0.321489 60
-1.541394 3.664733 -0.360418 101
-1.712203 3.734140 0.015057 100
-1.898379 3.532357 -0.216481 101
-1.205286 3.859502 -0.265013 101
-1.351598 3.890203 0.117912 76
-1.408483 3.673038 -0.577531 101
-1.565709 3.724295 -0.179217 100
-1.717792 3.747993 0.205250 74
-1.768197 3.555918 -0.406189 101
-1.940241 3.611707 -0.032201 100
-1.202136 3.851694 -0.202283 100
-1.359366 3.914686 0.182380 76
-1.421830 3.709711 -0.429485 101
-1.561317 3.715598 -0.116801 96
-1.730608 3.777633 0.270888 74
-1.770167 3.561382 -0.345149 101
-1.937746 3.608519 0.030740 100
-1.208809 3.881681 -0.141262 100
-1.358434 3.919980 0.246477 82
-1.415986 3.701451 -0.366943 101
-1.565671 3.732551 -0.055106 100
-1.737898 3.799876 0.336923 97
-1.768295 3.563252 -0.283743 101
-1.952025 3.640618 0.094465 100
-1.061917 3.833914 -0.453266 100
-1.215788 3.906410 -0.079270 100
-1.432877 3.747493 -0.309418 100
-1.582199 3.773733 0.007142 75
-1.780072 3.588500 -0.223956 101
-1.946721 3.632192 0.157592 100
-1.076362 3.888608 -0.272237 100
-1.287610 3.719650 -0.640629 101
-1.440096 3.768273 -0.124662 90
-1.596745 3.810224 0.197717 83
-1.640274 3.589615 -0.411325 101
-1.808814 3.647985 -0.039798 100
-1.084150 3.919310 -0.211693 100
-1.298693 3.753711 -0.437112 101
-1.445684 3.784804 -0.062939 76
-1.605539 3.833017 0.262910 73
-1.653689 3.620583 -0.353138 101
-1.817140 3.666326 0.022854 100
-1.315005 3.802928 -0.255981 101
-1.474494 3.862177 0.126307 83
-1.668039 3.653628 -0.170443 100
-1.842502 3.719068 0.214611 99
-1.872720 3.498361 -0.398165 101
-1.316799 3.810192 -0.194343 101
-1.478677 3.875090 0.190519 68
-1.524282 3.642464 -0.530355 101
-1.673294 3.666772 -0.109063 100
-1.843738 3.723138 0.278865 71
-1.876676 3.507169 -0.337513 101
-1.179987 3.802646 -0.384078 101
-1.329437 3.848858 -0.008528 85
-1.486373 3.897228 0.418532 101
-1.529946 3.657727 -0.298115 100
-1.704522 3.736866 0.078146 100
-1.816255 3.669193 -1.177217 19
-1.904050 3.559765 -0.155791 101
-1.190403 3.838494 -0.325466 97
-1.336507 3.871436 0.054330 81
-1.558639 3.728087 -0.241483 100
-1.714803 3.761081 0.142180 83
-1.759478 3.555995 -0.476605 92
-1.913782 3.579407 -0.094236 100
-1.058892 3.845615 -0.392505 100
-1.213639 3.920411 -0.016474 92
-1.428724 3.753657 -0.247762 100
-1.573174 3.768196 0.069850 91
-1.717861 3.772832 -1.474685 32
-1.774181 3.590268 -0.162246 100
-1.954902 3.660758 0.222579 65
-1.067122 3.878056 -0.333512 101
-1.425014 3.745807 -0.185494 100
-1.582719 3.792853 0.133465 89
-1.635843 3.594303 -0.495380 100
-1.792180 3.628229 -0.101727 101
-1.300227 3.776639 -0.377563 101
-1.454342 3.824834 -0.000714 70
-1.610271 3.860707 0.329214 53
-1.660168 3.649379 -0.293718 101
-1.823612 3.693426 0.086283 100
-1.817698 3.406586 -0.931626 101
-1.303920 3.789436 -0.316804 101
-1.462056 3.847069 0.062496 96
-1.616230 3.876831 0.447393 50
-1.661226 3.653335 -0.232108 100
-1.825727 3.699278 0.149825 100
-1.864172 3.495100 -0.461826 101
-1.323547 3.848579 -0.133587 101
-1.478684 3.892793 0.255421 53
-1.520781 3.649605 -0.419746 101
-1.683132 3.703164 -0.047569 101
-1.888601 3.542336 -0.278598 101
-1.179384 3.821133 -0.447853 101
-1.318210 3.835159 -0.070787 101
-1.480709 3.900101 0.320264 54
-1.527061 3.666414 -0.360056 101
-1.695849 3.732810 0.015027 101
-1.878523 3.524863 -0.215618 101
-1.196512 3.878942 -0.266060 101
-1.338010 3.894897 0.117912 83
-1.394249 3.674232 -0.576950 101
-1.554235 3.733427 -0.179395 100
-1.706350 3.757603 0.205449 82
-1.755774 3.562068 -0.406189 101
-1.929502 3.621988 -0.032232 96
-1.189861 3.859685 -0.202483 100
-1.345693 3.919407 0.182380 77
-1.407462 3.710933 -0.429055 101
-1.546802 3.717334 -0.116685 86
-1.719061 3.787286 0.271148 71
-1.755964 3.563965 -0.344803 101
-1.925138 3.615261 0.030740 100
-1.195252 3.885877 -0.141262 101
-1.346037 3.928475 0.246715 10
-1.405877 3.713821 -0.367681 101
-1.554167 3.741688 -0.055160 100
-1.722978 3.802287 0.336602 101
-1.761129 3.580144 -0.284597 101
-1.935550 3.640348 0.094282 99
-1.045385 3.826096 -0.451907 101
-1.203320 3.914453 -0.079347 98
-1.411319 3.730091 -0.307572 100
-1.564415 3.768150 0.007121 80
-1.769297 3.598276 -0.224179 101
-1.934030 3.638965 0.157592 100
-1.066986 3.907741 -0.273314 100
-1.277175 3.731593 -0.641914 101
-1.425519 3.769537 -0.124538 82
-1.581904 3.812084 0.197525 74
-1.631016 3.602567 -0.412154 101
-1.792541 3.647097 -0.039720 100
-1.069411 3.919216 -0.211485 97
-1.284296 3.754459 -0.436674 101
-1.431049 3.786086 -0.062877 82
-1.595208 3.845973 0.263415 66
-1.637755 3.619074 -0.352431 101
-1.802567 3.669056 0.022832 98
-1.299139 3.799940 -0.255473 101
-1.461003 3.867301 0.126307 75
-1.653628 3.655787 -0.170274 100
-1.831269 3.729062 0.214817 100
-1.860497 3.504877 -0.398165 101
-1.299616 3.803423 -0.193765 101
-1.470787 3.895181 0.191253 64
-1.510040 3.644100 -0.529823 101
-1.668721 3.690808 -0.109604 100
-1.843041 3.754630 0.280740 78
-1.877500 3.538344 -0.339881 101
-1.170206 3.818162 -0.385230 100
-1.321165 3.868616 -0.008562 80
-1.479787 3.921011 0.420529 101
-1.514116 3.655675 -0.297516 101
-1.686526 3.731859 0.077918 100
-1.800050 3.668608 -1.175006 19
-1.891612 3.566389 -0.155791 101
-1.176997 3.842626 -0.325466 97
-1.320401 3.868507 0.054224 81
-1.539507 3.718748 -0.240528 100
-1.700018 3.763401 0.142043 83
-1.747054 3.562115 -0.476605 92
-1.897529 3.579000 -0.094050 100
-1.048592 3.860812 -0.393680 100
-1.201116 3.928449 -0.016491 100
-1.417019 3.762357 -0.248009 101
-1.563067 3.781056 0.069987 88
-1.664388 3.689488 -1.439828 21
-1.765154 3.603618 -0.162570 101
-1.942112 3.667560 0.222579 76
-1.056712 3.893298 -0.334504 101
-1.413338 3.754498 -0.185679 100
-1.572523 3.805744 0.133725 87
-1.618392 3.589137 -0.493887 100
-1.777746 3.630872 -0.101626 100
-1.285753 3.777385 -0.377186 101
-1.443799 3.837374 -0.000716 75
-1.596785 3.866305 0.329214 47
-1.645780 3.651515 -0.293426 101
-1.807192 3.692585 0.086115 92
-1.805796 3.412911 -0.931626 101
-1.290684 3.793965 -0.316804 101
-1.448618 3.852149 0.062496 73
-1.605723 3.889802 0.448241 56
-1.650103 3.662752 -0.232339 101
-1.816316 3.712810 0.150116 100
-1.853818 3.505098 -0.462290 101
-1.312678 3.860746 -0.133850 101
-1.465086 3.897931 0.255421 56
-1.511066 3.662245 -0.420590 101
-1.671838 3.712664 -0.047616 100
-1.842248 3.767425 0.346261 20
-1.879954 3.555963 -0.279152 101
-1.163720 3.817622 -0.446963 100
-1.307388 3.847311 -0.070927 101
-1.467086 3.905246 0.320264 63
-1.515772 3.675405 -0.360418 101
-1.682809 3.738707 0.015027 100
-1.871807 3.541993 -0.216265 101
-1.179475 3.871641 -0.265275 101
-1.324406 3.899544 0.117912 83
-1.380024 3.675372 -0.576369 101
-1.542716 3.742524 -0.179572 100
-1.694863 3.767180 0.205648 75
-1.741583 3.564600 -0.405782 101
-1.920584 3.635775 -0.032295 92
-1.177544 3.867637 -0.202683 100
-1.337142 3.939217 0.183083 76
-1.395897 3.719547 -0.429485 101
-1.544479 3.748589 -0.117496 91
-1.710741 3.804184 0.271929 78
-1.748759 3.580815 -0.345841 101
-1.912507 3.621959 0.030740 95
-1.177032 3.874726 -0.140706 100
-1.392905 3.718705 -0.367681 101
-1.544139 3.754488 -0.055269 100
-1.708062 3.804641 0.336280 101
-1.739878 3.568338 -0.283174 101
-1.924696 3.650619 0.094374 100
-1.033058 3.833560 -0.452360 100
-1.188487 3.914803 -0.079270 92
-1.399688 3.738729 -0.307880 100
-1.551253 3.773588 0.007121 75
-1.753226 3.597250 -0.223733 101
-1.917589 3.638622 0.157286 100
-1.053339 3.911442 -0.273314 100
-1.262876 3.732289 -0.641272 101
-1.413753 3.778235 -0.124662 77
-1.577698 3.839757 0.198673 83
-1.616802 3.604609 -0.411740 101
-1.786806 3.667715 -0.039877 100
-1.059876 3.938355 -0.212316 58
-1.276277 3.773985 -0.438424 101
-1.419226 3.794804 -0.062939 67
-1.583290 3.855211 0.263668 68
-1.628372 3.632040 -0.353138 101
-1.793252 3.682518 0.022876 94
-1.284589 3.800670 -0.255219 101
-1.446095 3.868632 0.126185 81
-1.637588 3.654243 -0.169934 101
-1.816493 3.731840 0.214611 99
-1.846398 3.507828 -0.397766 101
-1.291446 3.823078 -0.194536 100
-1.454384 3.892805 0.190886 68
-1.495806 3.645681 -0.529290 101
-1.652559 3.689312 -0.109387 100
-1.822939 3.746686 0.279669 83
-1.859569 3.534294 -0.338866 101
-1.154564 3.814602 -0.384462 101
-1.306374 3.869415 -0.008554 78
-1.468876 3.933610 0.421328 101
-1.501346 3.660938 -0.297516 101
-1.680026 3.752324 0.078222 100
-1.787233 3.674869 -1.175006 22
-1.871709 3.558820 -0.155174 101
-1.163576 3.846711 -0.325466 97
-1.306890 3.873092 0.054224 79
-1.529545 3.731489 -0.241005 100
-1.690137 3.776610 0.142318 85
-1.731137 3.561049 -0.475651 92
-1.885025 3.585602 -0.094050 100
-1.037168 3.872139 -0.394463 100
-1.189708 3.940276 -0.016523 97
-1.401089 3.759799 -0.247516 100
-1.549859 3.786489 0.069987 86
-1.654575 3.702157 -1.442510 20
-1.750818 3.606162 -0.162408 101
-1.938582 3.691999 0.223650 57
-1.040023 3.885411 -0.333512 101
-1.398829 3.755664 -0.185494 100
-1.557715 3.807510 0.133595 95
-1.605854 3.594765 -0.493887 100
-1.768553 3.644250 -0.101827 100
-1.277640 3.796947 -0.378692 101
-1.429000 3.838642 -0.000715 72
-1.580261 3.864473 0.328587 67
-1.633024 3.657238 -0.293426 101
-1.794292 3.698871 0.086115 100
-1.801097 3.432966 -0.935379 101
-1.279975 3.806006 -0.317435 101
-1.436558 3.860931 0.062557 78
-1.599660 3.913792 0.450359 60
-1.632425 3.657550 -0.231646 101
-1.799857 3.711934 0.149825 98
-1.841572 3.511548 -0.462290 101
-1.290278 3.838778 -0.132931 100
-1.447296 3.891795 0.254687 57
-1.493760 3.656451 -0.419324 101
-1.652350 3.703866 -0.047429 101
-1.841257 3.798943 0.348565 54
-1.860119 3.548366 -0.278044 101
-1.156116 3.840693 -0.449189 101
-1.295224 3.855642 -0.070996 100
-1.459003 3.925297 0.321489 60
-1.502934 3.680673 -0.360418 101
-1.673006 3.751865 0.015057 83
-1.863139 3.555581 -0.216696 101
-1.164804 3.871912 -0.265013 101
-1.315877 3.919305 0.118370 75
-1.369942 3.687586 -0.577531 101
-1.529643 3.747886 -0.179572 95
-1.683329 3.776722 0.205846 86
-1.734332 3.581402 -0.407003 101
-1.900458 3.628284 -0.032170 93
-1.167487 3.883201 -0.203284 100
-1.322112 3.940072 0.182907 68
-1.381520 3.720669 -0.429055 101
-1.526853 3.742851 -0.117148 89
-1.699076 3.813779 0.272189 73
-1.732776 3.579724 -0.345149 101
-1.899852 3.628613 0.030740 98
-1.168094 3.894127 -0.141262 100
-1.381300 3.727280 -0.368050 101
-1.526499 3.748742 -0.055106 100
-1.699632 3.821509 0.337245 100
-1.739565 3.599536 -0.285166 101
-1.911942 3.657315 0.094374 100
-1.019670 3.837142 -0.452360 100
-1.178260 3.930420 -0.079502 92
-1.389400 3.751072 -0.308495 98
-1.541087 3.786389 0.007135 68
-1.738922 3.599751 -0.223509 101
-1.910430 3.655921 0.157745 100
-1.040704 3.918952 -0.273583 100
-1.253597 3.747907 -0.643199 101
