# This PCD file was generated using the MATLAB® pcwrite function
# from Computer Vision Toolbox®.
# .PCD v.7 - Point Cloud Data file format
VERSION .7
FIELDS x y z intensity
SIZE 4 4 4 1
TYPE F F F U
COUNT 1 1 1 1
WIDTH 844
HEIGHT 1
VIEWPOINT 0 0 0 1 0 0 0
POINTS 844
DATA ascii
-1.054994 17.320238 -0.636281 34
-0.994986 17.331797 -0.636575 50
-0.935127 17.347137 -0.637014 39
-0.938203 17.458845 -0.372344 14
-0.895659 17.249374 -0.899173 14
-0.873799 17.338329 -0.636575 45
-0.877471 17.470011 -0.372514 30
-0.838065 17.244268 -0.898758 30
-0.815922 17.333145 -0.636281 43
-0.818222 17.444862 -0.371918 23
-0.776966 17.227137 -0.897718 18
-0.790346 17.589943 -0.104487 40
-0.755761 17.343874 -0.636575 44
-0.756803 17.435625 -0.371663 18
-0.717012 17.233734 -0.897926 21
-0.729009 17.592592 -0.104487 33
-0.708830 17.601280 -1.460643 3
-0.695994 17.354376 -0.636868 51
-0.696766 17.446133 -0.371833 21
-0.671783 17.551214 -1.185079 9
-0.657003 17.240124 -0.898134 21
-0.668050 17.607021 -0.104559 38
-0.668877 17.706583 0.167005 37
-0.643679 17.423901 -1.715739 16
-0.641819 17.452269 -1.448083 6
-0.634388 17.328737 -0.635842 49
-0.636155 17.456451 -0.372003 23
-0.607184 17.457727 -1.178617 9
-0.596543 17.234327 -0.897718 25
-0.605622 17.581263 -0.104392 36
-0.606654 17.696819 0.166892 35
-0.581923 17.398191 -1.712997 26
-0.580365 17.438467 -1.446761 8
-0.574160 17.338837 -0.636135 55
-0.575480 17.466560 -0.372174 22
-0.545388 17.431818 -1.176732 8
-0.536741 17.248283 -0.898342 23
-0.543586 17.563280 -0.104274 35
-0.543694 17.662849 0.166552 15
-0.521672 17.423998 -1.715347 17
-0.519701 17.456333 -1.448083 20
-0.513458 17.344740 -0.636281 51
-0.514062 17.464474 -0.372089 24
-1.037742 17.378538 -0.604911 24
-0.484093 17.417658 -1.175655 14
-0.476089 17.234079 -0.897510 27
-0.482605 17.577066 -0.104345 37
-0.463058 17.509279 -1.723573 23
-0.458345 17.442101 -1.446761 9
-0.453015 17.350422 -0.636428 51
-0.453201 17.470160 -0.372174 23
-0.982180 17.278372 -0.867613 20
-0.978306 17.349953 -0.603800 39
-0.427405 17.463055 -1.178617 10
-0.419033 17.239557 -0.897718 29
-0.424122 17.570572 -0.104297 42
-0.405085 17.514698 -1.723965 23
-0.401052 17.467436 -1.448744 10
-0.395477 17.351830 -0.636428 48
-0.395355 17.475565 -0.372259 21
-0.924023 17.265577 -0.866812 46
-0.917867 17.357260 -0.603938 38
-0.922727 17.504406 -0.339629 17
-0.366593 17.472420 -1.179155 11
-0.359114 17.252895 -0.898342 26
-0.363077 17.583942 -0.104369 45
-0.344725 17.543861 -1.726707 18
-0.340806 17.492638 -1.450727 18
-0.334967 17.341108 -0.635988 46
-0.334296 17.456841 -0.371833 25
-0.863398 17.252716 -0.866011 43
-0.857273 17.360357 -0.603938 31
-0.861423 17.503527 -0.339551 38
-0.306438 17.521477 -1.182387 12
-0.298750 17.246056 -0.897926 30
-0.301421 17.569105 -0.104274 52
-0.274433 17.342173 -0.635988 53
-0.273608 17.473896 -0.372174 24
-0.802426 17.239662 -0.865210 41
-0.796486 17.359251 -0.603800 32
-0.798492 17.466476 -0.338777 27
-0.239689 17.123386 -1.155459 8
-0.238383 17.235012 -0.897302 32
-0.240365 17.590048 -0.104392 50
-0.778299 17.602661 -0.070731 46
-0.213994 17.351019 -0.636281 58
-0.212563 17.470745 -0.372089 26
-0.741728 17.230383 -0.864609 38
-0.735460 17.349939 -0.603383 36
-0.737063 17.457169 -0.338544 26
-0.180061 17.136091 -1.156267 37
-0.178249 17.239733 -0.897510 32
-0.178797 17.578781 -0.104321 44
-0.715803 17.585297 -0.070651 43
-0.153028 17.339670 -0.635842 49
-0.151216 17.467384 -0.372003 23
-0.680975 17.228893 -0.864409 42
-0.675048 17.356396 -0.603522 35
-0.676741 17.475618 -0.338854 28
-0.119991 17.100697 -1.153844 42
-0.118043 17.236256 -0.897302 34
-0.117408 17.575298 -0.104297 48
-0.661216 17.454399 -1.684950 26
-0.659628 17.490263 -1.417458 14
-0.653968 17.575695 -0.070603 40
-0.656601 17.726702 0.201250 11
-0.092479 17.336102 -0.635695 51
-0.090243 17.467806 -0.372003 25
-0.634871 17.538857 -1.150310 5
-0.621118 17.239151 -0.864809 50
-0.614600 17.362642 -0.603661 39
-0.616158 17.489864 -0.339087 29
-0.060340 17.112984 -1.154651 47
-0.057836 17.224579 -0.896678 31
-0.056033 17.567602 -0.104250 46
-0.599054 17.420788 -1.681493 59
-0.597481 17.460583 -1.414875 12
-0.593018 17.589865 -0.070651 49
-0.031942 17.324327 -0.635255 51
-0.029241 17.452019 -0.371663 22
-0.572601 17.509050 -1.148217 7
-0.561068 17.245207 -0.865009 47
-0.556682 17.356596 -0.603383 41
-0.557340 17.467831 -0.338622 32
-0.003570 17.105108 -1.154113 46
-0.000729 17.224676 -0.896678 32
0.002180 17.563690 -0.104226 42
-0.540768 17.402777 -1.679573 46
-0.538852 17.434568 -1.412614 11
-0.534432 17.575735 -0.070587 51
0.025233 17.336330 -0.635695 51
0.028312 17.456018 -0.371748 23
-0.514488 17.494883 -1.147171 10
-0.504208 17.242966 -0.864809 48
-0.493177 17.362514 -0.603522 38
-0.494103 17.497740 -0.339164 34
0.062403 17.224564 -0.896678 34
0.066524 17.555565 -0.104179 43
-1.023411 17.249599 -0.833038 34
-0.481452 17.567823 -1.695320 58
-0.475490 17.456352 -1.414229 14
-0.470010 17.577576 -0.070587 49
0.088733 17.328127 -0.635402 46
0.092270 17.451799 -0.371663 24
-1.005580 17.389568 -0.571748 23
-0.449336 17.456749 -1.144555 7
-0.441006 17.244698 -0.864809 49
-0.435497 17.360060 -0.603383 40
-0.435976 17.495283 -0.339087 32
0.119521 17.224262 -0.896678 25
0.124768 17.559248 -0.104203 44
-0.966204 17.252899 -0.833038 41
-0.422234 17.529520 -1.691479 60
-0.418172 17.481749 -1.416166 13
-0.411718 17.579037 -0.070587 45
0.146161 17.323740 -0.635255 48
0.150280 17.467392 -0.372003 25
-0.944428 17.328938 -0.569649 24
-0.392161 17.490067 -1.146648 6
-0.383640 17.238077 -0.864409 37
-0.375152 17.369465 -0.603661 42
-0.374869 17.492701 -0.339009 32
-0.904225 17.224251 -0.831497 32
-0.361427 17.554773 -1.693784 51
-0.357661 17.514994 -1.418749 16
-0.349960 17.572374 -0.070554 56
0.207019 17.331116 -0.635548 52
0.211239 17.438766 -0.371407 22
-0.884188 17.344124 -0.570042 21
-0.887090 17.458815 -0.305138 21
-0.324876 17.184052 -1.126503 11
-0.323019 17.239321 -0.864409 43
-0.314519 17.370668 -0.603661 38
-0.313591 17.481907 -0.338777 30
-0.844877 17.243265 -0.832267 33
-0.288554 17.569489 -0.070538 51
0.272609 17.469912 -0.372089 24
-0.824399 17.363079 -0.570567 19
-0.827465 17.489769 -0.305627 39
-0.264644 17.169117 -1.125457 24
-0.262902 17.244337 -0.864609 43
-0.253882 17.371660 -0.603661 33
-0.252566 17.482895 -0.338777 31
-0.785408 17.262074 -0.833038 33
-0.797721 17.597891 -0.036895 5
-0.227274 17.574389 -0.070554 56
0.333284 17.452860 -0.371748 18
-0.763961 17.369844 -0.570698 23
-0.766059 17.484560 -0.305487 34
-0.204425 17.145988 -1.123887 26
-0.202800 17.253139 -0.865009 36
-0.193197 17.368444 -0.603522 37
-0.191625 17.491667 -0.338932 29
-0.725148 17.264709 -0.833038 34
-0.735118 17.572592 -0.036836 16
-0.165889 17.571075 -0.070538 51
-0.702677 17.356426 -0.570174 25
-0.705022 17.487127 -0.305487 39
-0.144405 17.126642 -1.122579 27
-0.142508 17.245752 -0.864609 41
-0.132569 17.369013 -0.603522 40
-0.130387 17.468235 -0.338467 32
-0.680014 17.583286 -1.119407 6
-0.664417 17.255159 -0.832460 34
-0.674233 17.587042 -0.036861 17
-0.104554 17.571547 -0.070538 59
-0.651342 17.450005 -1.650660 19
-0.650752 17.513239 -1.385428 9
-0.642531 17.370760 -0.570567 25
-0.643829 17.485485 -0.305417 34
-0.084680 17.139015 -1.123364 28
-0.082270 17.238155 -0.864208 42
-0.071856 17.349380 -0.602827 39
-0.069443 17.476582 -0.338622 33
-0.615966 17.509752 -1.114582 7
-0.603762 17.245394 -0.831882 37
-0.612700 17.585291 -0.036853 22
-0.043197 17.563805 -0.070506 57
-1.136028 17.248123 -0.800046 1
-0.589618 17.428293 -1.648401 24
-0.587603 17.455624 -1.380700 7
-0.581892 17.372896 -0.570567 31
-0.582923 17.491623 -0.305487 34
-0.024859 17.143198 -1.123626 32
-0.022097 17.238337 -0.864208 42
-0.011300 17.357521 -0.603105 37
-0.008438 17.476717 -0.338622 29
-0.553831 17.479876 -1.112551 9
-0.544190 17.267363 -0.832845 34
-0.551563 17.595318 -0.036870 22
0.018112 17.563848 -0.070506 54
-1.074322 17.228056 -0.798936 40
-0.529986 17.470049 -1.652166 19
-0.526187 17.441626 -1.379439 14
-0.521366 17.378817 -0.570698 28
-0.522101 17.501547 -0.305627 38
0.034982 17.143181 -1.123626 12
0.038067 17.234314 -0.864008 42
0.049266 17.349461 -0.602827 38
0.052579 17.480640 -0.338699 30
-0.492474 17.469732 -1.111789 13
-0.484024 17.273151 -0.833038 39
-0.490029 17.593138 -0.036861 21
0.079439 17.567678 -0.070522 24
-1.014413 17.235691 -0.799121 34
-0.471031 17.547428 -1.659318 22
-0.464982 17.431396 -1.378493 9
-0.460699 17.380531 -0.570698 30
-0.460900 17.499266 -0.305557 38
0.098248 17.238071 -0.864208 48
0.109877 17.357178 -0.603105 29
0.113546 17.472351 -0.338544 29
-0.989550 17.399565 -0.538553 39
-0.430504 17.431438 -1.109249 8
-0.423433 17.262754 -0.832460 42
-0.428712 17.598740 -0.036870 19
-0.955126 17.255085 -0.799861 33
-0.409125 17.521097 -1.656683 30
-0.405241 17.480753 -1.382276 11
-0.399751 17.370043 -0.570305 31
-0.399722 17.496769 -0.305487 35
0.158530 17.249607 -0.864809 7
0.170471 17.352690 -0.602966 34
0.174684 17.483845 -0.338777 31
-0.926879 17.366982 -0.537441 30
-0.363839 17.157452 -1.091727 25
-0.363213 17.264126 -0.832460 32
-0.367254 17.596128 -0.036861 21
-0.893586 17.230373 -0.798566 36
-0.348682 17.550285 -1.659318 25
-0.344795 17.501991 -1.383852 9
-0.339315 17.371328 -0.570305 29
-0.339018 17.506050 -0.305627 35
0.230723 17.328007 -0.602133 36
0.235551 17.471132 -0.338544 31
-0.866052 17.366117 -0.537317 33
-0.869412 17.492294 -0.272073 33
-0.303805 17.150635 -1.091219 31
-0.302738 17.253304 -0.831882 39
-0.305761 17.593306 -0.036853 20
-0.834593 17.257334 -0.799676 30
-0.278804 17.380402 -0.570567 29
-0.277781 17.499130 -0.305487 34
0.296671 17.478201 -0.338699 29
-0.805057 17.361048 -0.537070 31
-0.809824 17.527184 -0.272570 36
-0.243993 17.155582 -1.091473 34
-0.242511 17.254255 -0.831882 39
-0.244347 17.594265 -0.036853 21
-0.774707 17.268126 -0.800046 34
-0.218033 17.373274 -0.570305 27
-0.216548 17.487995 -0.305277 34
0.357651 17.477060 -0.338699 24
-0.744291 17.359756 -0.536947 35
-0.746584 17.481955 -0.271824 28
-0.184084 17.156330 -1.091473 30
-0.181986 17.231026 -0.830726 39
-0.182828 17.591011 -0.036845 23
-0.714444 17.274723 -0.800231 32
-0.726622 17.641041 -0.003082 49
-0.157297 17.385925 -0.570698 29
-0.155177 17.476648 -0.305068 34
-0.693257 17.530201 -1.353010 3
-0.683847 17.366245 -0.537070 33
-0.685086 17.472464 -0.271638 28
-0.124225 17.160860 -1.091727 33
-0.121894 17.239548 -0.831111 37
-0.121368 17.583542 -0.036828 21
-0.668640 17.581844 -1.085376 7
-0.653233 17.253155 -0.799121 35
-0.664737 17.635477 -0.003080 45
-0.096519 17.370377 -0.570174 31
-0.094193 17.481083 -0.305138 37
-0.630002 17.394144 -1.611600 10
-0.629618 17.464760 -1.347781 7
-0.623510 17.376516 -0.537317 32
-0.624234 17.478746 -0.271700 27
-0.064321 17.161190 -1.091727 33
-0.061716 17.239868 -0.831111 37
-0.060030 17.595860 -0.036853 19
-0.603956 17.488310 -1.079466 8
-0.593279 17.263317 -0.799491 34
-0.603174 17.637690 -0.003080 43
-0.035884 17.370607 -0.570174 32
-0.033187 17.489304 -0.305277 32
-1.131110 17.294006 -0.768809 0
-0.569412 17.400217 -1.611969 31
-0.567094 17.419020 -1.344090 8
-0.562980 17.382584 -0.537441 31
-0.564120 17.508801 -0.272135 30
-0.004416 17.157316 -1.091473 34
-0.001536 17.231987 -0.830726 45
0.001392 17.603962 -0.036870 4
-0.541916 17.458389 -1.077495 9
-0.532645 17.253302 -0.798936 33
-0.541358 17.631691 -0.003079 40
0.024745 17.366629 -0.570042 31
0.027862 17.489313 -0.305277 35
-1.069995 17.285883 -0.768277 36
-0.509485 17.429968 -1.614550 26
-0.506171 17.416906 -1.343783 12
-0.502069 17.376450 -0.537194 29
-0.502769 17.502668 -0.272011 29
0.058655 17.243874 -0.831304 35
-0.474156 17.212738 -1.062226 15
-0.472416 17.255054 -0.798936 39
-0.479591 17.625477 -0.003077 42
0.085385 17.370436 -0.570174 27
0.088870 17.481112 -0.305138 34
-1.011746 17.325417 -0.769872 36
-1.013816 17.411186 -0.505441 0
-0.452817 17.475359 -1.618607 28
-0.448822 17.434437 -1.345013 7
-0.444444 17.378019 -0.537194 31
-0.444319 17.488245 -0.271762 33
0.115838 17.243586 -0.831304 35
-0.415720 17.158339 -1.058778 36
-0.415290 17.260521 -0.799121 38
-0.420949 17.618973 -0.003076 46
0.142823 17.350067 -0.569517 29
0.146906 17.488718 -0.305277 30
-0.953848 17.320696 -0.769518 36
-0.955415 17.402475 -0.505093 37
-0.392356 17.504709 -1.621189 32
-0.388265 17.451847 -1.346243 9
-0.383761 17.379465 -0.537194 26
-0.383283 17.489691 -0.271762 30
0.175547 17.203125 -0.829378 6
-0.355969 17.155689 -1.058531 37
-0.355051 17.249876 -0.798566 35
-0.359905 17.628326 -0.003077 42
0.203076 17.353466 -0.569649 29
0.207610 17.492104 -0.305347 36
-0.891740 17.283991 -0.767745 38
-0.894498 17.393702 -0.504746 30
-0.331251 17.505972 -1.621189 23
-0.888756 17.507832 -0.238666 2
-0.328541 17.516895 -1.351165 8
-0.322945 17.372704 -0.536947 30
-0.322304 17.494921 -0.271824 35
-0.296220 17.164810 -1.059024 34
-0.294835 17.251011 -0.798566 39
-0.298369 17.629475 -0.003077 45
0.263650 17.352652 -0.569649 21
0.268545 17.483274 -0.305208 34
-0.831018 17.279015 -0.767390 37
-0.833777 17.396719 -0.504746 26
-0.827826 17.514822 -0.238720 30
-0.262240 17.369728 -0.536823 30
-0.261114 17.487940 -0.271700 34
-0.236027 17.145781 -1.057792 37
-0.234399 17.235952 -0.797827 42
-0.236883 17.634409 -0.003078 39
0.329345 17.470234 -0.304998 30
-0.771766 17.305763 -0.768454 31
-0.772869 17.395529 -0.504630 26
-0.766415 17.509611 -0.238611 24
-0.201673 17.374535 -0.536947 28
-0.200285 17.508741 -0.272011 30
-0.176030 17.154486 -1.058285 34
-0.174175 17.256645 -0.798751 41
-0.175107 17.643131 -0.003079 41
0.390983 17.480965 -0.305208 14
-0.710608 17.300385 -0.768100 31
-0.712018 17.406130 -0.504861 27
-0.703842 17.476212 -0.238121 21
-0.707859 17.649784 0.030829 37
-0.141056 17.379131 -0.537070 26
-0.139135 17.505335 -0.271948 32
-0.687934 17.521004 -1.318426 4
-0.689596 17.639030 -1.054936 1
-0.116121 17.151003 -1.058039 36
-0.113831 17.241167 -0.798012 36
-0.113443 17.631636 -0.003077 21
-0.660564 17.499723 -1.587570 9
-0.650514 17.310745 -0.768454 33
-0.650807 17.396523 -0.504514 32
-0.642688 17.474566 -0.238067 24
-0.645953 17.644154 0.030816 33
-0.080372 17.375519 -0.536947 28
-0.077976 17.493715 -0.271762 31
-0.624346 17.455532 -1.313327 3
-0.623048 17.501669 -1.046584 14
-0.056239 17.147312 -1.057792 39
-0.053623 17.233467 -0.797642 38
-0.597974 17.458128 -1.583598 8
-0.589812 17.304924 -0.768100 30
-0.590078 17.398687 -0.504514 31
-0.582351 17.496689 -0.238339 26
-0.584624 17.654295 0.030829 29
-0.019719 17.375694 -0.536947 28
-0.016926 17.509880 -0.272011 32
-0.562510 17.429699 -1.311228 6
-0.553624 17.244333 -1.031074 41
0.003617 17.151396 -1.058039 37
0.006537 17.241541 -0.798012 39
-0.536785 17.452147 -1.582876 31
-0.529281 17.302883 -0.767922 33
-0.529585 17.408634 -0.504746 30
-0.521987 17.522602 -0.238666 24
-0.522403 17.636238 0.030795 28
0.040914 17.367661 -0.536700 28
0.044144 17.489834 -0.271700 30
-1.054234 17.292301 -0.735195 32
-0.501436 17.423582 -1.310628 7
-0.492856 17.226206 -1.029881 27
0.063443 17.139301 -1.057300 22
0.066706 17.237417 -0.797827 40
-0.476840 17.489754 -1.586126 25
-0.468879 17.304625 -0.767922 32
-0.468491 17.398386 -0.504398 32
-0.460714 17.520319 -0.238611 23
-0.461360 17.657948 0.030829 29
0.101515 17.363415 -0.536576 29
0.105147 17.481575 -0.271576 29
-0.994554 17.307846 -0.735704 38
-0.996974 17.401083 -0.471632 9
-0.440916 17.437189 -1.311528 6
-0.432521 17.219837 -1.029404 24
0.126846 17.233084 -0.797642 41
-0.416354 17.515205 -1.588293 32
-0.408755 17.318140 -0.768454 29
-0.407944 17.407909 -0.504630 31
-0.402392 17.513754 -0.238502 22
-0.402688 17.655382 0.030822 29
0.158992 17.350988 -0.536206 27
0.163224 17.493128 -0.271762 32
-0.936524 17.299076 -0.735195 36
-0.939728 17.412277 -0.471848 20
-0.383574 17.458492 -1.313028 4
-0.374866 17.193232 -1.027733 26
0.183921 17.236565 -0.797827 15
-0.358848 17.536402 -1.590099 34
-0.351263 17.307411 -0.767922 31
-0.350573 17.417158 -0.504861 30
-0.338275 17.519110 -0.238557 22
-0.337822 17.648741 0.030809 29
0.222740 17.362282 -0.536576 26
0.227443 17.500410 -0.271886 30
-0.873315 17.306383 -0.735365 32
-0.874296 17.383657 -0.470982 20
-0.320605 17.515614 -1.317226 4
-0.312064 17.206467 -1.028449 26
-0.856147 17.549929 -0.205477 23
-0.294237 17.517683 -1.588293 7
-0.287826 17.308582 -0.767922 31
-0.286338 17.394339 -0.504166 29
-0.280050 17.512138 -0.238448 25
-0.279422 17.657763 0.030822 26
0.280314 17.361448 -0.536576 24
0.284953 17.467567 -0.271389 32
-0.815920 17.309183 -0.735365 35
-0.816457 17.382467 -0.470874 21
-0.254945 17.203415 -1.028211 25
-0.796128 17.512714 -0.205009 24
-0.230267 17.297455 -0.767390 29
-0.228708 17.399191 -0.504282 29
-0.216129 17.525043 -0.238611 24
-0.214434 17.630669 0.030774 20
0.349069 17.470406 -0.271451 31
-0.752412 17.312061 -0.735365 29
-0.753328 17.401325 -0.471307 20
-0.191696 17.204235 -1.028211 29
-0.722018 17.220070 -0.996794 1
-0.730423 17.491558 -0.204729 16
-0.735306 17.680597 0.064859 21
-0.166427 17.314173 -0.768100 32
-0.164293 17.399920 -0.504282 32
-0.157941 17.517664 -0.238502 25
0.407560 17.493141 -0.271824 26
-0.694839 17.310467 -0.735195 31
-0.695938 17.411718 -0.471523 23
-0.134675 17.208769 -1.028449 29
-0.680615 17.551737 -1.286806 7
-0.664448 17.210398 -0.996101 39
-0.673490 17.521862 -0.205056 20
-0.676518 17.678942 0.064844 32
-0.108885 17.294649 -0.767213 29
-0.106592 17.400368 -0.504282 32
-0.096814 17.522108 -0.238557 22
-0.644331 17.421661 -1.816962 28
-0.643346 17.475473 -1.551472 9
-0.634849 17.324768 -0.735704 28
-0.635010 17.410046 -0.471415 26
-0.074587 17.205143 -1.028211 27
-0.616531 17.474268 -1.280960 5
-0.604649 17.220594 -0.996563 40
-0.612603 17.532101 -0.205150 26
-0.614942 17.685194 0.064859 36
-0.048548 17.306911 -0.767745 35
-0.045842 17.396635 -0.504166 27
-0.035485 17.522341 -0.238557 19
-0.582676 17.399948 -1.814474 35
-0.581436 17.449738 -1.548998 9
-0.574058 17.314894 -0.735195 32
-0.575173 17.436131 -0.472064 28
-0.014799 17.205297 -1.028211 24
-1.105046 17.286507 -0.701771 1
-0.555356 17.452372 -1.279207 8
-0.544669 17.206614 -0.995639 34
-0.552366 17.542105 -0.205243 27
-0.553613 17.675213 0.064815 36
0.011036 17.306976 -0.767745 27
0.013988 17.396690 -0.504166 32
0.025674 17.518358 -0.238502 23
-0.525990 17.537083 -1.828572 7
-0.520759 17.459625 -1.549705 27
-0.513496 17.312798 -0.735025 32
-0.513716 17.418047 -0.471523 28
0.045269 17.209238 -1.028449 26
-1.047350 17.334143 -0.703552 76
-0.493867 17.434265 -1.277745 10
-0.483816 17.180468 -0.994022 31
-0.491354 17.551924 -0.205337 26
-0.491912 17.677038 0.064815 37
0.071382 17.290848 -0.767036 31
0.074697 17.392538 -0.504050 30
0.086805 17.514162 -0.238448 18
-0.465825 17.578583 -1.832718 37
-0.460335 17.481253 -1.551472 23
-0.452955 17.310490 -0.734856 33
-0.453225 17.431726 -0.471848 28
-0.984338 17.293798 -0.701771 77
-0.990338 17.450399 -0.439375 3
-0.433305 17.447847 -1.278622 9
-0.424335 17.202013 -0.995177 34
-0.429593 17.533539 -0.205103 27
-0.430205 17.678648 0.064815 42
0.131769 17.294489 -0.767213 30
0.135377 17.388172 -0.503935 31
0.147844 17.517754 -0.238502 18
-0.404310 17.572145 -1.831889 39
-0.399747 17.502668 -1.553240 29
-0.392551 17.315962 -0.735025 34
-0.391987 17.421213 -0.471523 28
-0.923392 17.293158 -0.701609 78
-0.929219 17.457766 -0.439475 59
-0.372276 17.465218 -1.279791 8
-0.363529 17.191423 -0.994484 36
-0.368328 17.558937 -0.205384 30
-0.367958 17.684053 0.064830 35
0.192567 17.273937 -0.766327 18
0.196777 17.387587 -0.503935 31
0.205793 17.505169 -0.238339 20
-0.347054 17.625099 -1.837279 12
-0.341938 17.515850 -1.554300 21
-0.334895 17.305182 -0.734517 28
-0.334367 17.430412 -0.471740 25
-0.865841 17.292133 -0.701447 85
-0.870126 17.436789 -0.438872 57
-0.315721 17.542139 -1.285344 4
-0.306661 17.200520 -0.994946 34
-0.309957 17.552063 -0.205290 34
-0.309523 17.697174 0.064874 15
0.254435 17.386837 -0.503935 27
0.266591 17.484346 -0.238067 19
-0.842552 17.578979 -0.172017 27
-0.281752 17.576694 -1.559602 7
-0.274677 17.318233 -0.735025 28
-0.273459 17.427475 -0.471632 27
-0.805289 17.291058 -0.701285 74
-0.808699 17.427736 -0.438570 49
-0.246618 17.201485 -0.994946 34
-0.248517 17.541040 -0.205150 27
0.315415 17.401834 -0.504398 8
0.330917 17.491249 -0.238176 17
-0.766029 17.244038 -0.965042 22
-0.777387 17.565968 -0.171861 34
-0.211249 17.319122 -0.735025 28
-0.209474 17.412367 -0.471199 24
-0.743024 17.313847 -0.702095 76
-0.744942 17.426575 -0.438470 46
-0.183974 17.206263 -0.995177 28
-0.184629 17.541828 -0.205150 32
0.392061 17.493986 -0.238230 16
-0.705995 17.250597 -0.965265 42
-0.717206 17.596548 -0.172134 46
-0.718018 17.689157 0.098877 15
-0.150688 17.307766 -0.734517 28
-0.148658 17.408993 -0.471091 28
-0.682111 17.304356 -0.701609 67
-0.684421 17.437059 -0.438671 46
-0.123883 17.202806 -0.994946 30
-0.123367 17.538366 -0.205103 35
-0.672381 17.503704 -1.791629 28
-0.669056 17.493408 -1.519279 7
-0.661877 17.522951 -1.250804 9
-0.648336 17.240871 -0.964596 36
-0.658101 17.578846 -0.171939 36
-0.659801 17.703432 0.098944 38
-0.093314 17.312166 -0.734686 34
-0.090927 17.409389 -0.471091 26
-0.624579 17.302528 -0.701447 67
-0.626451 17.435238 -0.438570 51
-0.066836 17.203123 -0.994946 29
-0.065207 17.538679 -0.205103 29
-0.612379 17.450161 -1.785931 33
-0.609373 17.447741 -1.515129 7
-0.599987 17.505219 -1.249381 12
-0.587038 17.211098 -0.962809 31
-0.595777 17.553053 -0.171665 38
-0.597331 17.685640 0.098833 37
-0.032894 17.308390 -0.734517 32
-0.030182 17.405603 -0.470982 24
-0.564671 17.316584 -0.701933 69
-0.565832 17.441311 -0.438671 46
-0.006930 17.211239 -0.995408 30
-0.004145 17.546801 -0.205196 35
-0.550265 17.408438 -1.781453 26
-0.548163 17.433823 -1.513746 22
-0.537283 17.455362 -1.245681 8
-0.526835 17.209051 -0.962586 29
-0.534502 17.555025 -0.171665 37
-0.535472 17.683619 0.098810 37
0.027485 17.284422 -0.733499 29
0.030568 17.401604 -0.470874 23
-1.064789 17.350418 -0.670828 33
-0.504105 17.314453 -0.701771 74
-0.504831 17.439182 -0.438570 52
0.053111 17.199177 -0.994715 31
0.057065 17.534708 -0.205056 35
-0.494304 17.581291 -1.798955 35
-0.487972 17.459530 -1.515821 27
-0.476023 17.445166 -1.244828 13
-0.466436 17.198807 -0.961916 32
-0.473328 17.560783 -0.171704 40
-0.473527 17.677383 0.098766 36
0.087840 17.288216 -0.733669 31
0.091332 17.405390 -0.470982 24
-1.001679 17.310137 -0.669132 30
-0.443663 17.316107 -0.701771 63
-0.443853 17.436842 -0.438470 46
0.118300 17.538403 -0.205103 35
-0.432343 17.559042 -1.796513 36
-0.427024 17.461126 -1.515821 20
-0.415207 17.446720 -1.244828 14
-0.406543 17.204323 -0.962139 35
-0.411577 17.542334 -0.171509 40
-0.411900 17.682928 0.098788 15
0.148366 17.303789 -0.734347 31
0.152127 17.400965 -0.470874 24
-0.940493 17.301559 -0.668669 30
-0.948197 17.497604 -0.406839 13
-0.382809 17.309565 -0.701447 85
-0.382809 17.442287 -0.438570 46
0.179715 17.521881 -0.204916 35
-0.370877 17.572388 -1.797734 34
-0.366870 17.522284 -1.521009 26
-0.354952 17.479975 -1.247104 9
-0.346486 17.205637 -0.962139 30
-0.350580 17.555660 -0.171626 39
0.208718 17.299170 -0.734177 12
0.212915 17.404327 -0.470982 24
-0.880702 17.316713 -0.669132 29
-0.883267 17.424927 -0.405075 7
-0.322459 17.314791 -0.701609 65
-0.321700 17.431524 -0.438269 50
0.241096 17.537144 -0.205103 26
-0.850727 17.241890 -0.931902 18
-0.306399 17.563301 -1.524467 7
-0.294940 17.540947 -1.251373 6
-0.286425 17.206741 -0.962139 32
-0.288968 17.536781 -0.171430 45
0.273478 17.391483 -0.470658 26
-0.821385 17.343636 -0.670057 27
-0.823757 17.455864 -0.405725 9
-0.262078 17.319807 -0.701771 74
-0.260791 17.428543 -0.438168 51
0.302104 17.524199 -0.204963 34
-0.790902 17.252735 -0.932333 49
-0.802628 17.573137 -0.138166 40
-0.226413 17.211630 -0.962363 31
-0.227855 17.545683 -0.171509 52
0.334722 17.418407 -0.471415 5
-0.761014 17.350391 -0.670211 28
-0.761772 17.434664 -0.405168 7
-0.201386 17.300634 -0.700962 69
-0.200136 17.445341 -0.438570 46
0.363273 17.523037 -0.204963 34
-0.729998 17.239428 -0.931470 42
-0.741281 17.575832 -0.138166 33
-0.166332 17.212315 -0.962363 27
-0.166646 17.550371 -0.171548 55
-0.700607 17.356936 -0.670366 36
-0.701070 17.441212 -0.405260 8
-0.141092 17.313221 -0.701447 72
-0.139207 17.441935 -0.438470 52
0.424244 17.513664 -0.204869 6
-0.684837 17.552393 -1.219075 3
-0.668732 17.213932 -0.929961 37
-0.679462 17.566322 -0.138072 29
-0.682050 17.710373 0.133016 33
-0.108228 17.068289 -1.217506 8
-0.106199 17.204803 -0.961916 27
-0.105359 17.546846 -0.171509 54
-0.650950 17.495975 -1.756798 10
-0.647011 17.469206 -1.483300 7
-0.639868 17.355282 -0.670211 31
-0.640038 17.439556 -0.405168 8
-0.080638 17.309612 -0.701285 74
-0.078215 17.418322 -0.437867 51
-0.621581 17.498846 -1.215198 6
-0.608922 17.224146 -0.930392 37
-0.618421 17.576582 -0.138134 29
-0.619105 17.680666 0.132776 29
-0.048716 17.108461 -1.220352 50
-0.046104 17.201077 -0.961693 27
-0.044067 17.535107 -0.171391 45
-0.586814 17.406652 -1.747612 26
-0.585536 17.455421 -1.481947 9
-0.578809 17.341429 -0.669594 36
-0.579633 17.453672 -0.405446 7
-0.020345 17.309788 -0.701285 65
-0.017588 17.446480 -0.438570 53
-0.559290 17.457031 -1.212151 5
-0.548755 17.218174 -0.929961 40
-0.557554 17.586622 -0.138197 30
-0.558145 17.698702 0.132896 25
0.013936 17.197138 -0.961470 28
0.017154 17.547153 -0.171509 51
-0.527973 17.472244 -1.754002 13
-0.524003 17.437441 -1.480256 35
-0.518869 17.363319 -0.670366 35
-0.518705 17.455589 -0.405446 7
0.040069 17.305758 -0.701124 74
0.043262 17.426441 -0.438068 46
-0.497667 17.434944 -1.210490 8
-0.488309 17.208008 -0.929314 38
-0.495485 17.564470 -0.138009 36
0.073948 17.192991 -0.961246 32
0.078405 17.546988 -0.171509 58
-0.469426 17.565489 -1.763188 23
-0.463449 17.451117 -1.481271 11
-0.457941 17.353037 -0.669903 27
-0.457247 17.437305 -0.404982 7
0.100407 17.293522 -0.700638 70
0.104115 17.430183 -0.438168 48
-0.437104 17.448544 -1.211321 6
-0.428239 17.209608 -0.929314 43
-0.434368 17.574091 -0.138072 43
0.139591 17.538607 -0.171430 54
-0.408015 17.563042 -1.762788 17
-0.403266 17.484505 -1.483976 11
-0.397273 17.350534 -0.669748 29
-0.396740 17.454786 -0.405353 9
0.160772 17.293066 -0.700638 67
0.164882 17.421717 -0.437967 46
-0.376281 17.453953 -1.211597 6
-0.368420 17.222977 -0.929961 38
-0.373190 17.583498 -0.138134 44
0.200811 17.538013 -0.171430 63
-0.347492 17.604151 -1.766782 16
-0.342855 17.517685 -1.486682 32
-0.336861 17.359808 -0.670057 31
-0.335655 17.448069 -0.405168 8
0.221646 17.332363 -0.702257 17
0.225694 17.421034 -0.437967 47
-0.316794 17.534954 -1.217136 4
-0.308012 17.208183 -0.929099 43
-0.311597 17.572695 -0.138040 50
0.261970 17.533205 -0.171391 54
-0.275944 17.340895 -0.669286 35
-0.274811 17.453133 -0.405260 8
0.286240 17.404148 -0.437565 49
-0.247943 17.209154 -0.929099 51
-0.250084 17.561678 -0.137946 50
0.323295 17.540182 -0.171470 26
-0.215293 17.341755 -0.669286 31
-0.213682 17.449989 -0.405168 9
0.347764 17.427025 -0.438168 20
-0.189465 17.129747 -1.188889 5
-0.187525 17.217907 -0.929530 45
-0.188348 17.566448 -0.137977 46
-0.158039 17.370352 -0.670366 29
-0.155815 17.450602 -0.405168 9
-0.132505 17.110331 -1.187504 22
-0.130428 17.218435 -0.929530 51
-0.130213 17.582975 -0.138103 44
-0.097224 17.338821 -0.669132 34
-0.094813 17.435043 -0.404796 8
-0.072693 17.090736 -1.186119 21
-0.070274 17.206802 -0.928883 43
-0.068758 17.563324 -0.137946 51
-0.036882 17.347048 -0.669440 30
-0.034184 17.443266 -0.404982 8
-0.013608 17.122808 -1.188335 23
-0.010802 17.190966 -0.928020 37
-0.008116 17.571457 -0.138009 48
0.023643 17.327085 -0.668669 30
0.026699 17.439280 -0.404889 7
0.049218 17.194893 -0.928236 37
0.053171 17.555378 -0.137883 46
0.084320 17.366869 -0.670211 30
0.087633 17.451077 -0.405168 7
0.109289 17.202604 -0.928667 37
0.114529 17.567085 -0.137977 43
0.144813 17.338490 -0.669132 31
0.148584 17.438667 -0.404889 8
0.176272 17.566574 -0.137977 46
0.205193 17.325888 -0.668669 28
0.209407 17.434044 -0.404796 8
0.237157 17.533855 -0.137726 12
0.270138 17.425209 -0.404611 7
0.331113 17.432158 -0.404796 6