# This PCD file was generated using the MATLAB® pcwrite function
# from Computer Vision Toolbox®.
# .PCD v.7 - Point Cloud Data file format
VERSION .7
FIELDS x y z intensity
SIZE 4 4 4 1
TYPE F F F U
COUNT 1 1 1 1
WIDTH 674
HEIGHT 1
VIEWPOINT 0 0 0 1 0 0 0
POINTS 674
DATA ascii
2.751410 18.349745 -0.965925 5
2.817890 18.355820 -0.966757 17
2.868443 18.498343 -0.686410 30
2.881946 18.345871 -0.966757 16
2.929865 18.468477 -0.685677 34
2.940265 18.300203 -0.964886 17
2.991754 18.442356 -0.685091 31
3.001537 18.274061 -0.964054 19
3.058073 18.443630 -0.685530 29
3.068613 18.283171 -0.965093 18
3.124438 18.444666 -0.685970 27
3.161693 18.645550 -0.402748 18
3.127202 18.261082 -0.964470 18
3.184904 18.430265 -0.685824 25
3.221462 18.623142 -0.402493 25
3.158857 18.084450 -1.238665 2
3.190914 18.250057 -0.964470 15
3.267354 18.541708 -1.561127 5
3.247519 18.411217 -0.685530 34
3.279843 18.576401 -0.401726 16
3.219863 18.061527 -1.237857 25
3.254599 18.238808 -0.964470 15
3.325749 18.512796 -1.850883 20
3.313714 18.428183 -1.552533 5
3.309642 18.387968 -0.685091 35
3.343249 18.556967 -0.401556 16
2.728192 18.375246 -0.931302 32
3.277599 18.038969 -1.237049 27
3.315063 18.227915 -0.964470 18
3.414227 18.755436 -0.113127 24
3.375651 18.439014 -1.844615 19
3.364747 18.362198 -1.547905 7
3.370600 18.376890 -0.685091 35
3.405489 18.549711 -0.401641 17
2.785512 18.342400 -0.930100 26
3.344171 18.047041 -1.238396 22
3.378677 18.216230 -0.964470 21
3.477510 18.731600 -0.113056 21
3.440133 18.427094 -1.844615 13
3.428246 18.346394 -1.547575 8
3.431962 18.349264 -0.684504 37
3.470414 18.537676 -0.401641 18
2.851630 18.344366 -0.930701 24
2.894295 18.540123 -0.651998 6
3.409369 18.047024 -1.239204 26
3.440759 18.196476 -0.964054 20
3.474667 18.258549 -1.828946 22
3.488537 18.314735 -1.545922 8
3.494495 18.329319 -0.684211 37
3.533603 18.517591 -0.401471 18
2.917529 18.346136 -0.931302 28
2.951430 18.482536 -0.650331 18
3.469326 18.019337 -1.238127 26
3.503500 18.180431 -0.963846 21
3.548232 18.297113 -1.834038 21
3.556243 18.322012 -1.547575 7
3.559217 18.320934 -0.684358 39
3.600510 18.516922 -0.401726 18
2.978987 18.320066 -0.930501 30
3.019754 18.495798 -0.651165 22
3.532196 18.007118 -1.238127 29
3.563097 18.148491 -0.962806 24
3.622215 18.335363 -1.839131 3
3.623283 18.308371 -0.684358 44
3.662167 18.488520 -0.401386 18
3.043124 18.309523 -0.930501 32
3.084956 18.489088 -0.651303 26
3.596594 18.002506 -1.238665 32
3.629559 18.151611 -0.963638 23
3.689538 18.307367 -0.684798 43
3.725891 18.471703 -0.401300 17
3.109693 18.314543 -0.931302 32
3.149477 18.478207 -0.651303 23
3.179455 18.635164 -0.366285 27
3.658617 17.985931 -1.238396 30
3.691303 18.131002 -0.963222 24
3.751010 18.282629 -0.684358 35
3.793564 18.474255 -0.401641 18
3.142504 18.142342 -1.206819 16
3.172239 18.295704 -0.930902 34
3.210822 18.467646 -0.651303 23
3.238545 18.608749 -0.365975 19
3.717453 17.969788 -1.238127 30
3.753015 18.126488 -0.963638 23
3.251231 18.571836 -1.526915 8
3.813757 18.281895 -0.684798 38
3.851192 18.445986 -0.401300 17
3.201518 18.127968 -1.206557 21
3.229637 18.269432 -0.930100 35
3.271076 18.432709 -0.650470 25
3.306980 18.617020 -0.366362 22
3.784267 17.976229 -1.239473 24
3.815442 18.109369 -0.963430 25
2.681346 18.391987 -0.896021 20
3.311237 18.551329 -1.817841 14
3.290094 18.415155 -1.514968 10
3.875060 18.256741 -0.684358 40
3.913894 18.424606 -0.401130 18
3.263361 18.108826 -1.206034 22
3.294099 18.261978 -0.930301 32
3.334686 18.417246 -0.650331 25
3.369806 18.593557 -0.366130 23
3.880307 18.103752 -0.963846 23
2.747300 18.394371 -0.896599 23
3.368127 18.496569 -1.813616 44
3.347921 18.368258 -1.512063 12
3.433503 18.784632 -0.076656 43
3.942138 18.258732 -0.684944 40
3.326553 18.097324 -1.206034 23
3.357102 18.246439 -0.930100 31
3.397415 18.397646 -0.650053 26
3.434634 18.581692 -0.366130 23
3.945191 18.097900 -0.964262 20
2.809154 18.368858 -0.895828 26
3.425514 18.445532 -1.809775 46
3.404876 18.317236 -1.508834 18
4.006157 18.244791 -0.684944 34
3.387198 18.069828 -1.204987 24
3.421982 18.238447 -0.930301 32
3.461614 18.385675 -0.650053 26
3.500957 18.577448 -0.366285 23
4.010069 18.091818 -0.964678 16
2.870785 18.343151 -0.895058 26
3.466180 18.308277 -1.797485 43
3.474733 18.336576 -1.511417 15
4.068948 18.226795 -0.684798 36
2.927196 18.519999 -0.615446 10
3.451751 18.065735 -1.205510 25
3.486376 18.230316 -0.930501 32
3.527278 18.381332 -0.650331 28
3.564274 18.557261 -0.366130 20
2.936692 18.344854 -0.895636 26
3.530066 18.296068 -1.797485 61
3.536450 18.312592 -1.510448 17
4.130778 18.204685 -0.684504 33
2.989911 18.497828 -0.615053 14
3.514791 18.053576 -1.205510 23
3.548462 18.210192 -0.930100 34
3.590652 18.364985 -0.650192 23
3.628261 18.540781 -0.366052 21
3.000064 18.330549 -0.895443 24
3.606197 18.346142 -1.803630 54
3.522618 17.905027 -1.477837 25
4.196095 18.197945 -0.684798 29
3.056417 18.499111 -0.615446 16
3.576236 18.033367 -1.204987 22
3.613561 18.205532 -0.930501 32
3.655517 18.356258 -0.650331 27
3.694522 18.535847 -0.366207 23
3.062054 18.308144 -0.894865 24
3.580397 17.869167 -1.475900 5
4.264151 18.202646 -0.685530 22
3.119642 18.480446 -0.615184 18
3.639162 18.020773 -1.204987 24
3.677880 18.196724 -0.930701 30
3.717981 18.335552 -0.650053 30
3.756815 18.511080 -0.365975 22
3.092649 18.120827 -1.169435 18
3.125943 18.297342 -0.894865 26
3.184811 18.473383 -0.615315 23
3.219756 18.657333 -0.330479 18
3.706063 18.027510 -1.206295 21
3.739766 18.175949 -0.930301 30
3.781961 18.322462 -0.650053 27
3.822217 18.501770 -0.366052 23
3.159311 18.129583 -1.170705 22
3.188421 18.278448 -0.894480 28
3.261294 18.548721 -1.488823 9
3.248583 18.458218 -0.615184 23
3.278617 18.610531 -0.329850 19
3.768151 18.010555 -1.206034 24
3.804008 18.166693 -0.930501 30
3.845895 18.309149 -0.650053 31
3.890068 18.503969 -0.366362 20
3.220478 18.106655 -1.169943 22
3.250804 18.259340 -0.894095 32
2.701018 18.443314 -0.862740 1
3.314964 18.493490 -1.776012 14
3.309824 18.446951 -1.481573 6
3.313701 18.450699 -0.615315 26
3.340730 18.583227 -0.329571 22
3.831827 18.001196 -1.206295 13
3.867398 18.153305 -0.930501 31
3.908112 18.287794 -0.649776 30
3.286514 18.111013 -1.170959 22
3.316664 18.259674 -0.894673 26
2.760046 18.398209 -0.861076 26
3.374484 18.454386 -1.773377 20
3.364863 18.384295 -1.477475 11
3.375924 18.427223 -0.614921 27
3.401970 18.551785 -0.329222 21
3.929049 18.131886 -0.930100 31
3.977019 18.297478 -0.650609 27
3.346081 18.079805 -1.169689 24
3.378926 18.240129 -0.894287 32
2.821824 18.372663 -0.860336 25
3.425741 18.372028 -1.766601 8
3.426090 18.356756 -1.476214 11
3.440961 18.419256 -0.615053 19
3.470383 18.559452 -0.329571 23
3.993177 18.121962 -0.930301 37
4.036811 18.280287 -0.650470 24
3.406017 18.068609 -1.169689 26
3.439394 18.228823 -0.894287 31
2.879636 18.343470 -0.859411 22
3.479217 18.321444 -1.762837 9
3.485455 18.337460 -1.475584 12
3.502023 18.407743 -0.615053 22
3.537146 18.575344 -0.330060 26
4.055868 18.120316 -0.930902 31
4.100597 18.266085 -0.650470 27
2.950266 18.553934 -0.580560 7
3.472080 18.072290 -1.170705 24
3.504512 18.224554 -0.894673 30
2.945549 18.345140 -0.859966 28
3.543906 18.313097 -1.763213 17
3.481957 17.976765 -1.447528 20
3.566256 18.395409 -0.615053 20
3.602726 18.566811 -0.330130 26
4.163530 18.247742 -0.650331 22
3.012468 18.527735 -0.580066 20
3.534332 18.056152 -1.170451 24
3.566492 18.204384 -0.894287 33
3.009939 18.338736 -0.860151 29
3.620593 18.367096 -1.769613 9
3.533545 17.909798 -1.443115 30
3.629295 18.379000 -0.614921 19
3.667876 18.558126 -0.330200 24
4.228104 18.236992 -0.650470 27
3.079089 18.528938 -0.580436 19
3.597338 18.043705 -1.170451 25
3.630797 18.195742 -0.894480 31
3.043930 18.167749 -1.136357 20
3.075917 18.339939 -0.860706 30
3.594470 17.889534 -1.442485 28
3.693428 18.366219 -0.614921 21
3.731845 18.541288 -0.330130 25
4.290821 18.218231 -0.650331 23
3.141741 18.506252 -0.580066 19
3.659506 18.027126 -1.170197 26
3.693495 18.179041 -0.894287 32
3.107328 18.157013 -1.136357 27
3.139242 18.325151 -0.860521 26
3.757515 18.353214 -0.614921 20
3.792529 18.508560 -0.329781 26
3.200837 18.463661 -0.579077 24
3.235174 18.643095 -0.293943 20
3.724878 18.025961 -1.170959 24
3.758625 18.173847 -0.894673 29
3.167494 18.126350 -1.135126 24
3.203466 18.314034 -0.860521 30
3.820302 18.332081 -0.614659 23
3.856709 18.491207 -0.329711 3
3.277899 18.560150 -1.745101 10
3.267943 18.485620 -1.447742 10
3.268054 18.468124 -0.579571 27
3.296743 18.611998 -0.293632 19
3.786956 18.008942 -1.170705 23
3.820395 18.152796 -0.894287 31
3.231449 18.119114 -1.135372 26
3.265970 18.294874 -0.860151 34
3.885928 18.326456 -0.614921 23
3.323593 18.442760 -1.735144 14
3.321831 18.415228 -1.443129 9
3.333210 18.460539 -0.579695 28
3.361691 18.600378 -0.293632 19
3.847291 17.983904 -1.169943 11
3.885410 18.147163 -0.894673 28
3.294676 18.107723 -1.135372 25
3.328379 18.275499 -0.859781 30
3.949875 18.312780 -0.614921 29
2.776177 18.470160 -0.828548 24
3.385839 18.419285 -1.734037 28
3.378905 18.364292 -1.440053 11
3.397641 18.448790 -0.579695 29
3.431666 18.616064 -0.294067 20
3.948688 18.133499 -0.894673 30
3.357001 18.092213 -1.135126 28
3.394187 18.275585 -0.860336 32
4.014421 18.302832 -0.615053 28
2.838561 18.448545 -0.828016 26
3.429569 18.297741 -1.723711 13
3.435634 18.313189 -1.436977 8
3.460543 18.428957 -0.579448 24
3.497366 18.607903 -0.294129 25
4.011962 18.119606 -0.894673 29
3.420877 18.084307 -1.135372 31
3.455730 18.251846 -0.859781 34
4.078286 18.288708 -0.615053 26
2.902320 18.434576 -0.827839 25
3.489681 18.266096 -1.721867 14
3.433622 17.956371 -1.409911 27
3.523348 18.408913 -0.579201 23
3.561546 18.591652 -0.294067 25
4.079573 18.124981 -0.895636 24
3.482470 18.064415 -1.134879 27
3.517906 18.231827 -0.859411 30
4.140333 18.266562 -0.614790 27
2.964745 18.412498 -0.827307 28
2.995583 18.584217 -0.545533 8
3.554895 18.261633 -1.722605 11
3.490149 17.912966 -1.407450 24
3.587574 18.396503 -0.579201 23
3.626428 18.579105 -0.294067 24
2.973279 18.234217 -1.104091 7
3.549487 18.071711 -1.136111 28
3.582450 18.223326 -0.859596 32
4.208766 18.271429 -0.615446 28
3.026650 18.386225 -0.826598 28
3.056154 18.545986 -0.544722 25
3.625590 18.284275 -1.725924 7
3.556538 17.920233 -1.408988 23
3.650210 18.376026 -0.578954 23
3.688920 18.554565 -0.293881 22
3.035598 18.215849 -1.103614 17
3.610981 18.051380 -1.135618 29
3.648393 18.222464 -0.860151 30
4.270698 18.248840 -0.615184 24
3.091475 18.379488 -0.826775 26
3.120873 18.535206 -0.544722 20
3.620650 17.915527 -1.409603 20
3.715917 18.371010 -0.579201 22
3.752871 18.537657 -0.293819 22
3.099165 18.205143 -1.103614 15
3.673173 18.034754 -1.135372 26
3.708786 18.193956 -0.859411 32
3.155612 18.368584 -0.826775 26
3.184876 18.520258 -0.544606 18
3.778420 18.350092 -0.578954 23
3.815128 18.512693 -0.293632 9
3.163981 18.202095 -1.104091 19
3.736780 18.025759 -1.135618 28
3.772931 18.184843 -0.859596 33
3.257282 18.591413 -1.711080 5
3.218774 18.353565 -0.826598 24
3.249237 18.509075 -0.544606 22
3.292143 18.682394 -0.258269 22
3.845731 18.352444 -0.579448 21
3.269152 18.443636 -1.408400 5
3.227499 18.190941 -1.104091 20
3.798855 18.008699 -1.135372 28
3.836385 18.171564 -0.859596 31
3.309537 18.509342 -1.704580 7
3.282820 18.342216 -0.826598 23
3.313120 18.493685 -0.544490 24
3.347426 18.615679 -0.257506 15
3.905601 18.319357 -0.578830 29
3.322155 18.369310 -1.403602 4
3.292400 18.187422 -1.104569 23
3.861694 17.995329 -1.135372 12
3.903148 18.173687 -0.860336 31
3.369123 18.470245 -1.702052 23
3.346108 18.326715 -0.826420 26
3.374780 18.466274 -0.544027 27
3.417389 18.631428 -0.257887 16
3.971207 18.313429 -0.579077 27
2.795629 18.460714 -0.792349 16
3.378358 18.314444 -1.400303 5
3.354496 18.167950 -1.104091 21
3.965010 18.152111 -0.859966 36
3.417048 18.368250 -1.693746 7
3.408844 18.307020 -0.826066 26
3.440219 18.458263 -0.544143 26
3.481358 18.631786 -0.258051 16
4.032775 18.304064 -0.579201 26
2.852551 18.423697 -0.791161 19
3.375727 17.966007 -1.374510 12
3.415463 18.160650 -1.104330 23
4.024317 18.134962 -0.859781 26
3.472564 18.345310 -1.982180 20
3.473491 18.333334 -1.691579 10
3.468044 18.287764 -0.825711 26
3.500664 18.442825 -0.544027 26
3.545625 18.615593 -0.257996 17
4.095769 18.285975 -0.579077 26
2.916845 18.413628 -0.791161 23
3.438420 17.954115 -1.374510 15
3.481841 18.164303 -1.105285 23
4.090233 18.132498 -0.860336 26
2.924793 18.284611 -1.070929 26
3.537333 18.336983 -1.982602 46
3.536710 18.317186 -1.691218 12
3.534892 18.291241 -0.826420 27
3.565779 18.434418 -0.544143 26
3.609910 18.599159 -0.257942 15
4.160482 18.275459 -0.579201 29
2.981696 18.407286 -0.791331 23
3.017074 18.606070 -0.510042 1
3.500197 17.938108 -1.374210 15
3.542021 18.136391 -1.104330 21
4.158586 18.141541 -0.861446 3
2.984392 18.250700 -1.069544 24
3.601711 18.328501 -1.983024 14
3.605601 18.332170 -1.693746 8
3.596735 18.271034 -0.826066 24
3.627310 18.410185 -0.543795 26
3.676363 18.594292 -0.258051 15
4.223350 18.256929 -0.579077 17
3.047237 18.404652 -0.791670 26
3.079388 18.579647 -0.509609 17
3.561237 17.917957 -1.373610 17
3.604528 18.120001 -1.104091 21
3.043473 18.212601 -1.067927 23
3.661277 18.262287 -0.826243 23
3.690765 18.393490 -0.543679 25
3.738878 18.569584 -0.257887 8
3.110796 18.389961 -0.791501 32
3.139551 18.541187 -0.508852 14
3.627716 17.924965 -1.375110 15
3.667757 18.107307 -1.104091 21
3.108372 18.209738 -1.068389 26
3.725801 18.253311 -0.826420 25
3.753347 18.372660 -0.543447 25
3.172442 18.383484 -0.791670 26
3.198977 18.518854 -0.508527 17
3.687138 17.912836 -1.375110 2
3.729394 18.102867 -1.104569 24
3.172166 18.219002 -1.069544 24
3.786310 18.240854 -0.826420 26
3.816692 18.371857 -0.543795 27
3.268673 18.572485 -1.673073 9
3.232433 18.348682 -0.790653 25
3.261517 18.495762 -0.508202 14
3.793381 18.093647 -1.104807 18
3.281064 18.480698 -1.375067 8
3.234345 18.199955 -1.069082 25
3.329423 18.716883 -0.222316 29
3.849960 18.227528 -0.826420 24
3.880799 18.358423 -0.543795 25
3.330381 18.561447 -1.965404 23
3.318692 18.478609 -1.665650 9
3.297169 18.341221 -0.790822 23
3.328184 18.496069 -0.508527 15
3.859015 18.092010 -1.105523 19
3.331332 18.390625 -1.369222 8
3.299992 18.200340 -1.069775 26
3.386880 18.661856 -0.221801 21
3.912723 18.210070 -0.826243 25
3.944858 18.344765 -0.543795 25
3.394416 18.545799 -1.964989 36
3.371699 18.404203 -1.659994 21
3.359055 18.317799 -0.790313 25
3.394971 18.496124 -0.508852 18
3.917208 18.054987 -1.104091 14
2.802286 18.457167 -0.756339 34
3.332033 18.033609 -1.343503 22
3.361665 18.176868 -1.069082 25
3.447287 18.622318 -0.221474 18
3.980115 18.211821 -0.826952 26
4.010198 18.334684 -0.543911 26
2.813427 18.308165 -1.035601 4
3.457355 18.542263 -1.965819 7
3.426132 18.357672 -1.656812 9
3.419046 18.302631 -0.790144 24
3.455553 18.480833 -0.508743 18
2.861025 18.431974 -0.755691 51
3.386651 17.995018 -1.341457 24
3.423401 18.173470 -1.069544 25
3.514210 18.638298 -0.221801 21
4.038754 18.190720 -0.826598 24
4.072711 18.329092 -0.544143 25
2.873595 18.274559 -1.034261 19
3.475257 18.283848 -1.939696 35
3.487958 18.333857 -1.655752 11
3.484409 18.298437 -0.790483 25
3.519294 18.464731 -0.508635 20
2.928481 18.441612 -0.756501 49
3.447191 17.971333 -1.340581 26
3.486818 18.161407 -1.069544 26
3.582267 18.641628 -0.221988 22
4.102226 18.176512 -0.826598 26
4.134024 18.303062 -0.543795 24
2.941890 18.292006 -1.035824 20
3.556490 18.361435 -1.949233 35
3.549639 18.309839 -1.654692 11
3.547429 18.282253 -0.790313 27
3.582841 18.448433 -0.508527 20
2.992455 18.431339 -0.756501 58
3.510959 17.967113 -1.341165 23
3.548897 18.145311 -1.069313 26
3.644418 18.617352 -0.221848 20
4.164075 18.158342 -0.826420 13
3.003131 18.265862 -1.034931 20
3.618163 18.320791 -1.656812 3
3.608900 18.257996 -0.789805 26
3.646440 18.431890 -0.508419 21
3.052195 18.393181 -0.755368 53
3.090852 18.607075 -0.474155 36
3.578327 17.978224 -1.342919 23
3.612995 18.136728 -1.069544 29
3.067534 18.259207 -1.035154 20
3.674187 18.253124 -0.790144 29
3.712337 18.426889 -0.508635 19
3.117716 18.390297 -0.755691 52
3.153776 18.584345 -0.473853 38
3.641061 17.965624 -1.342919 25
3.674694 18.116179 -1.069082 34
3.126688 18.241066 -1.034707 22
3.734722 18.240833 -0.790144 25
3.771058 18.402718 -0.508310 20
3.178820 18.379833 -0.755691 52
3.214179 18.565878 -0.473652 38
3.700786 17.953417 -1.342919 15
3.736551 18.111677 -1.069544 30
3.239404 18.601065 -1.638595 6
3.243977 18.554699 -1.343583 2
3.188965 18.222174 -1.034261 21
3.800817 18.239424 -0.790653 25
3.838538 18.405100 -0.508743 18
3.240873 18.356817 -0.755206 58
3.278270 18.550608 -0.473552 35
3.798929 18.094616 -1.069313 26
3.296431 18.563221 -1.928382 4
3.284787 18.479784 -1.628911 6
3.279289 18.378294 -1.331630 15
3.253255 18.214863 -1.034484 22
3.349909 18.738005 -0.186052 36
3.863633 18.222136 -0.790483 23
3.901100 18.383764 -0.508527 21
3.304222 18.341459 -0.755044 50
3.343714 18.542986 -0.473652 41
3.864571 18.092960 -1.070006 21
3.356243 18.524193 -1.925533 42
3.342162 18.428995 -1.625453 14
3.284694 18.044880 -1.308293 35
3.314586 18.191624 -1.033814 22
3.415263 18.726202 -0.186052 40
3.927287 18.208523 -0.790483 25
3.966214 18.373919 -0.508635 20
3.371497 18.345467 -0.755691 52
3.405241 18.511457 -0.473149 40
3.927385 18.075342 -1.069775 22
2.795862 18.365356 -1.002840 17
3.426645 18.539627 -1.928382 33
3.397794 18.366137 -1.620957 8
3.346934 18.029381 -1.308008 35
3.379526 18.187796 -1.034261 24
3.479146 18.706303 -0.185974 40
3.993391 18.206413 -0.790992 27
4.028613 18.352150 -0.508419 19
2.852284 18.491385 -0.722039 23
3.431833 18.313946 -0.754882 48
3.471311 18.507318 -0.473350 40
2.856263 18.331804 -1.001546 26
3.459653 18.359404 -1.910881 33
3.457451 18.330669 -1.618882 9
3.406703 18.018185 -1.308008 27
3.436850 18.160791 -1.033368 24
3.538182 18.678942 -0.185817 35
4.052005 18.185270 -0.790653 22
4.092059 18.350397 -0.508743 9
2.909853 18.458136 -0.721113 27
3.491796 18.298538 -0.754720 52
3.531915 18.491777 -0.473250 40
2.917665 18.326178 -1.001762 31
3.510018 18.293119 -1.905183 30
3.516716 18.311275 -1.618190 9
3.471221 18.013992 -1.308577 30
3.502574 18.160433 -1.034038 27
3.602637 18.662544 -0.185778 20
4.113623 18.163235 -0.790313 25
2.974727 18.451839 -0.721268 23
3.557557 18.298082 -0.755206 54
3.594477 18.471571 -0.473049 38
2.974562 18.276562 -0.999606 31
3.589192 18.362904 -1.913730 27
3.585991 18.330320 -1.620957 8
3.531774 17.990021 -1.307724 34
3.564404 18.140259 -1.033591 27
4.177896 18.152660 -0.790483 25
3.042367 18.461063 -0.722039 23
3.073573 18.631090 -0.438405 4
3.619078 18.273790 -0.754720 52
3.658933 18.458912 -0.473049 38
3.037686 18.262127 -0.999390 32
3.592203 17.965845 -1.306870 34
3.627704 18.127707 -1.033591 22
3.103472 18.430622 -0.721268 23
3.137259 18.612360 -0.438220 7
3.682843 18.261045 -0.754720 61
3.722553 18.442106 -0.472948 40
3.103421 18.263226 -1.000037 33
3.656400 17.961033 -1.307439 34
3.692501 18.122770 -1.034038 25
3.169932 18.431475 -0.721730 22
3.198285 18.577625 -0.437663 7
3.744395 18.236284 -0.754234 55
3.785574 18.421110 -0.472747 43
3.163462 18.228598 -0.998743 35
3.719074 17.948160 -1.307439 33
3.754928 18.105860 -1.033814 25
3.263984 18.608019 -1.603019 11
3.234942 18.424234 -0.721885 25
3.267267 18.589979 -0.438220 7
3.808028 18.223103 -0.754234 58
3.853127 18.423439 -0.473149 40
3.209133 18.133936 -1.278062 11
3.229163 18.229244 -0.999390 31
3.818106 18.092642 -1.033814 24
3.323165 18.582396 -1.894179 22
3.304337 18.459196 -1.591182 8
3.292890 18.377422 -0.720496 22
3.328608 18.558781 -0.437756 7
3.872447 18.213608 -0.754396 54
3.915749 18.402056 -0.472948 38
3.261777 18.063719 -1.273908 17
3.290644 18.206070 -0.998743 34
3.395957 18.770691 -0.149821 41
3.885429 18.098728 -1.034931 22
3.381581 18.535444 -1.890584 30
3.350852 18.349527 -1.582728 10
3.357019 18.365814 -0.720496 26
3.391931 18.539181 -0.437570 6
3.935156 18.196074 -0.754234 61
3.980806 18.392183 -0.473049 37
3.324811 18.052223 -1.273908 17
3.356347 18.206255 -0.999390 31
3.458555 18.742989 -0.149695 36
3.943723 18.077940 -1.034484 21
3.438664 18.500650 -1.888188 17
3.414599 18.353989 -1.584080 9
3.419367 18.362440 -0.720805 24
3.453390 18.527832 -0.437570 6
4.002337 18.214153 -0.755529 51
4.043492 18.386692 -0.473250 20
3.385392 18.045021 -1.274185 15
3.415966 18.191101 -0.999174 32
3.518473 18.719624 -0.149601 31
3.472102 18.324297 -1.871415 24
3.471961 18.306715 -1.581037 9
3.488661 18.377882 -0.721885 24
3.514311 18.496021 -0.437106 7
4.066763 18.203972 -0.755691 58
3.450609 18.044851 -1.275016 16
3.478693 18.175142 -0.998959 28
3.578527 18.679728 -0.149381 2
3.541282 18.339428 -1.874210 16
3.540302 18.317978 -1.583066 9
3.549643 18.349916 -0.721268 24
3.578707 18.483669 -0.437106 7
4.128270 18.181925 -0.755368 62
3.513206 18.032770 -1.275016 16
3.541710 18.162968 -0.998959 33
3.613727 18.369913 -1.878603 9
3.612692 18.348526 -1.586786 4
3.610583 18.321728 -0.720651 24
3.643980 18.474987 -0.437199 7
4.188118 18.151827 -0.754720 65
3.579238 18.036053 -1.276124 15
3.606645 18.158329 -0.999390 30
3.672943 18.301174 -0.720342 23
3.707659 18.458235 -0.437106 6
3.641384 18.019537 -1.275847 15
3.670007 18.145630 -0.999390 31
3.740115 18.303885 -0.720959 23
3.773816 18.452986 -0.437291 6
3.703022 17.998823 -1.275293 17
3.733729 18.132626 -0.999390 29
3.800793 18.291380 -0.720959 24
3.833359 18.432539 -0.437106 6
3.764322 17.994257 -1.275847 14
3.794657 18.124054 -0.999606 33
3.861311 18.262360 -0.720342 24
3.897677 18.419046 -0.437106 6
3.858731 18.114603 -0.999821 34
3.925703 18.252714 -0.720496 29
3.960881 18.401468 -0.437013 4
3.919620 18.093353 -0.999390 31
3.990247 18.242805 -0.720651 26
3.984472 18.087362 -0.999821 33
4.056505 18.240471 -0.721113 29
4.122087 18.233957 -0.721422 28
4.184815 18.215563 -0.721268 26
4.243831 18.181381 -0.720496 24