# This PCD file was generated using the MATLAB® pcwrite function
# from Computer Vision Toolbox®.
# .PCD v.7 - Point Cloud Data file format
VERSION .7
FIELDS x y z intensity
SIZE 4 4 4 1
TYPE F F F U
COUNT 1 1 1 1
WIDTH 1514
HEIGHT 1
VIEWPOINT 0 0 0 1 0 0 0
POINTS 1514
DATA ascii
0.676419 2.957636 0.110191 100
0.558723 2.854127 -0.339074 101
1.084339 2.685480 -0.528719 101
1.029816 2.803215 -0.098025 101
0.969127 2.921678 0.188811 58
0.826090 2.783694 -0.308264 101
0.755524 2.878289 -0.034800 101
0.670619 2.930006 0.248176 73
0.563176 2.874302 -0.203271 101
1.104803 2.734834 -0.330325 101
1.029306 2.800370 -0.052078 101
0.836881 2.818315 -0.266521 101
0.761136 2.897683 0.010981 101
0.564194 2.876931 -0.158264 101
1.112783 2.753253 -0.194640 101
0.911737 2.745564 -0.424723 101
0.843378 2.838443 -0.131355 101
0.762719 2.901718 0.149363 75
0.648166 2.827526 -0.296705 101
0.571647 2.912336 -0.023310 101
1.123222 2.777735 -0.150210 101
0.922906 2.777636 -0.316418 101
0.848889 2.855229 -0.086326 101
0.773703 2.941491 0.198287 91
0.653149 2.847061 -0.253501 101
0.570597 2.904398 0.022214 101
1.170637 2.646823 -0.601561 101
0.921049 2.766221 -0.269952 101
0.852108 2.859461 -0.040622 101
0.774688 2.937711 0.244977 101
0.656633 2.853996 -0.208894 101
0.580027 2.942595 0.068585 100
1.191637 2.693086 -0.335534 101
0.936579 2.811295 -0.228526 101
0.860665 2.886412 0.005257 100
0.791994 3.001303 0.352563 0
0.660441 2.868351 -0.164562 101
0.582567 2.952882 0.115099 100
1.006021 2.726060 -0.472922 101
0.940648 2.821933 -0.091921 100
0.871588 2.921259 0.145897 95
0.743523 2.815712 -0.303518 101
0.670005 2.907662 -0.029165 101
1.010847 2.737725 -0.321161 101
0.942721 2.826576 -0.046288 97
0.878184 2.941573 0.194215 78
0.748151 2.831319 -0.259816 101
0.674108 2.923234 0.016755 100
1.031957 2.793462 -0.189446 101
0.965648 2.893707 0.093204 100
0.755997 2.859076 -0.125500 101
0.683588 2.962083 0.157188 90
0.565337 2.857992 -0.292334 101
1.030541 2.788194 -0.143302 101
0.968096 2.899427 0.140411 75
0.823129 2.753801 -0.386052 101
0.760970 2.875938 -0.080499 101
0.687950 2.978710 0.205198 89
0.567394 2.865875 -0.247893 101
1.114965 2.744408 -0.285754 101
1.044689 2.825019 -0.006308 100
0.841219 2.812608 -0.220737 101
0.770805 2.911137 0.057297 101
0.612052 2.648064 -0.781495 101
0.575705 2.905305 -0.114298 101
1.116945 2.747963 -0.240225 101
0.856300 2.861286 -0.178487 101
0.781214 2.948457 0.104916 99
0.656927 2.840056 -0.350178 92
0.578020 2.914433 -0.068982 101
1.205721 2.713871 -0.292224 38
0.941813 2.812879 -0.182989 101
0.857991 2.861710 0.051105 101
0.704981 2.655356 -0.977314 101
0.661639 2.853904 -0.118689 101
0.585818 2.946002 0.161096 93
0.940526 2.807477 -0.137040 101
0.870780 2.902599 0.098411 100
0.743926 2.800158 -0.363445 101
0.667873 2.878604 -0.074285 101
0.588095 2.954871 0.208035 68
1.026256 2.766639 -0.278937 101
0.949630 2.833081 -0.000522 101
0.880502 2.933225 0.241026 88
0.760522 2.860700 -0.216854 101
0.677463 2.917726 0.062743 100
0.544666 2.734275 -0.672685 101
1.033638 2.785110 -0.234845 101
0.970343 2.893267 0.046341 100
0.893620 2.975119 0.330885 76
0.759714 2.855736 -0.170905 101
0.684891 2.947479 0.109901 100
0.567092 2.844374 -0.338148 101
1.099612 2.696268 -0.531593 101
1.045121 2.814609 -0.098550 101
0.975468 2.906935 0.188076 21
0.838052 2.788424 -0.309109 101
0.763467 2.867915 -0.034706 101
0.681704 2.931540 0.248505 99
0.574726 2.880153 -0.203825 101
1.117304 2.738340 -0.331215 101
1.040425 2.800525 -0.052148 101
0.845523 2.811575 -0.266160 101
0.774291 2.906616 0.011025 101
0.575753 2.882787 -0.158695 101
1.128376 2.764153 -0.195686 101
0.926310 2.757386 -0.427047 101
0.858990 2.854629 -0.132241 101
0.778969 2.922212 0.150556 74
0.662498 2.844635 -0.298740 101
0.583329 2.918177 -0.023373 101
1.137393 2.784912 -0.150811 77
0.932547 2.774414 -0.316418 101
0.856494 2.844607 -0.086094 101
0.789057 2.958070 0.199588 95
0.662128 2.840895 -0.253156 101
0.581464 2.906321 0.022244 100
1.179869 2.642720 -0.601561 101
0.933242 2.770538 -0.270690 101
0.864396 2.864127 -0.040731 100
0.781847 2.923434 0.244012 101
0.666592 2.851686 -0.208894 101
0.581637 2.897424 0.067580 100
1.201030 2.688910 -0.335534 101
0.942566 2.796671 -0.227603 101
0.861484 2.852756 0.005201 100
0.813768 3.040753 0.357529 1
0.665901 2.846585 -0.163445 101
0.589722 2.935155 0.114487 100
1.010012 2.707735 -0.470352 101
0.949215 2.814844 -0.091797 100
0.878312 2.906725 0.145324 89
0.754377 2.816942 -0.303933 101
0.674680 2.881939 -0.028930 101
0.601119 2.989293 0.257651 0
1.025958 2.749080 -0.322911 101
0.957696 2.838427 -0.046536 100
0.886136 2.930847 0.193710 81
0.756998 2.824841 -0.259462 101
0.684307 2.920863 0.016755 96
1.040305 2.786103 -0.189192 101
0.969349 2.871378 0.092593 100
0.764937 2.852560 -0.125331 101
0.688452 2.936343 0.155949 99
0.573737 2.848198 -0.291535 101
1.040267 2.784580 -0.143302 101
0.978211 2.896030 0.140411 80
0.830440 2.743323 -0.384987 101
0.774113 2.884850 -0.080823 101
0.700167 2.984062 0.205733 76
0.578182 2.867784 -0.248231 101
1.126050 2.744182 -0.286138 101
1.062946 2.843836 -0.006359 83
0.849876 2.805836 -0.220437 101
0.779925 2.904567 0.057221 101
0.621291 2.645911 -0.781495 101
0.588215 2.915032 -0.114761 101
1.129559 2.751424 -0.240871 101
0.863966 2.850637 -0.178010 101
0.790464 2.941852 0.104779 100
0.664111 2.826147 -0.348747 92
0.587398 2.908478 -0.068890 101
0.949064 2.802011 -0.182497 101
0.867975 2.858697 0.051105 101
0.713265 2.649240 -0.975973 101
0.671597 2.851578 -0.118689 101
0.598476 2.955684 0.161739 95
0.952885 2.811745 -0.137410 101
0.878582 2.891891 0.098151 101
0.750598 2.786047 -0.361951 101
0.681586 2.891824 -0.074687 101
0.603954 2.980178 0.209964 79
1.040101 2.774226 -0.280066 101
0.969790 2.860054 -0.000527 101
0.895375 2.945394 0.242282 99
0.768426 2.850324 -0.216270 101
0.690398 2.927020 0.062995 100
0.552661 2.724735 -0.670808 101
1.043354 2.781485 -0.234845 101
0.979151 2.886074 0.046280 99
0.907472 2.983398 0.332156 64
0.770718 2.856922 -0.171136 101
0.698849 2.960632 0.110482 100
0.578598 2.850164 -0.339074 101
1.106020 2.685137 -0.530156 101
1.052130 2.803458 -0.098288 101
0.850096 2.793092 -0.309953 101
0.775558 2.872956 -0.034800 101
0.695599 2.944661 0.249821 101
0.585571 2.882040 -0.204102 101
1.122312 2.723397 -0.329880 101
1.054412 2.808109 -0.052357 101
0.857653 2.816228 -0.266882 101
0.782346 2.896173 0.010996 101
0.584221 2.872931 -0.158264 101
1.142582 2.771267 -0.196471 101
0.937203 2.757883 -0.427628 101
0.870115 2.855435 -0.132419 101
0.790207 2.923332 0.150755 72
0.669675 2.830688 -0.297519 101
0.593512 2.916123 -0.023373 100
0.942226 2.771142 -0.316418 101
0.865252 2.837776 -0.085978 101
0.796251 2.943738 0.198807 89
0.675713 2.854077 -0.254539 101
0.590009 2.896435 0.022184 100
1.189086 2.638586 -0.601561 101
0.945477 2.774804 -0.271427 101
0.874388 2.861093 -0.040731 100
0.798308 2.943776 0.245941 101
0.674698 2.841578 -0.208325 101
0.597353 2.922802 0.068220 100
1.212042 2.688325 -0.335987 101
0.952322 2.793363 -0.227603 101
0.873776 2.857382 0.005215 100
0.808764 2.980358 0.350758 10
0.679527 2.859785 -0.164339 101
0.598362 2.925247 0.114182 100
1.025028 2.718970 -0.472922 101
0.961616 2.819082 -0.092044 101
0.890791 2.911282 0.145706 98
0.764205 2.814292 -0.303933 101
0.691213 2.906805 -0.029204 101
0.607553 2.967652 0.255967 0
1.039757 2.756643 -0.324224 101
0.967598 2.835067 -0.046536 101
0.899867 2.939187 0.194468 100
0.771033 2.837562 -0.260876 101
0.693573 2.914566 0.016733 100
1.052843 2.789925 -0.189700 101
0.980658 2.871761 0.092715 100
0.772793 2.842160 -0.124992 101
0.701474 2.945580 0.156569 96
0.584476 2.850077 -0.291934 101
1.047158 2.773456 -0.142917 101
0.983146 2.877473 0.139677 71
0.838849 2.736617 -0.384454 101
0.781029 2.870556 -0.080499 101
0.707803 2.969953 0.204930 83
0.588990 2.869652 -0.248569 101
1.128000 2.721844 -0.284218 101
1.065799 2.821398 -0.006317 45
0.857326 2.795226 -0.219838 101
0.783755 2.878674 0.056764 101
0.628740 2.636248 -0.779284 101
0.593561 2.889469 -0.113836 101
1.136102 2.740098 -0.240225 101
0.875083 2.851421 -0.178249 101
0.798626 2.931360 0.104504 100
0.673973 2.823812 -0.348747 92
0.598353 2.910326 -0.068982 101
0.957545 2.794905 -0.182251 101
0.877949 2.855650 0.051105 100
0.722509 2.646734 -0.975973 101
0.682477 2.853103 -0.118851 101
0.607177 2.945753 0.161311 100
0.962694 2.808402 -0.137410 101
0.891022 2.896449 0.098411 101
0.767639 2.810210 -0.365436 101
0.690745 2.885538 -0.074586 101
0.618384 2.997592 0.211342 95
1.051190 2.774302 -0.280443 101
0.981065 2.860435 -0.000528 101
0.906824 2.946062 0.242596 91
0.777319 2.843776 -0.215978 101
0.701543 2.928481 0.063079 100
0.561383 2.718981 -0.669870 101
1.054470 2.781555 -0.235160 101
0.984027 2.867507 0.046037 93
0.782793 2.861918 -0.171598 101
0.705452 2.942625 0.109901 101
0.590152 2.855909 -0.340001 101
1.118409 2.688526 -0.531593 101
1.066163 2.810982 -0.098681 101
0.859841 2.790107 -0.309953 101
0.785582 2.870231 -0.034800 101
0.707734 2.949968 0.250480 101
0.594819 2.876070 -0.203825 101
1.133339 2.723133 -0.330325 101
1.065626 2.808150 -0.052427 100
0.866304 2.809411 -0.266521 101
0.791394 2.889566 0.010981 100
0.592626 2.863052 -0.157832 101
1.149180 2.759892 -0.195948 101
0.941678 2.739625 -0.425304 101
0.882433 2.860017 -0.132773 101
0.800406 2.920556 0.150755 82
0.679552 2.828333 -0.297519 101
0.604499 2.917950 -0.023405 100
0.954480 2.775357 -0.317277 101
0.883408 2.861481 -0.086789 101
0.809689 2.952489 0.199588 93
0.687535 2.859451 -0.255231 101
0.602552 2.906107 0.022274 100
1.203154 2.645113 -0.604003 101
0.947370 2.748893 -0.269215 101
0.883187 2.854202 -0.040676 100
0.805408 2.929438 0.244977 101
0.683678 2.835327 -0.208040 101
0.603479 2.901123 0.067762 100
1.223065 2.687695 -0.336440 61
0.969868 2.812644 -0.229449 101
0.886111 2.861957 0.005229 100
0.818108 2.973685 0.350306 19
0.689505 2.857396 -0.164339 101
0.612643 2.942706 0.114946 101
1.042947 2.737512 -0.476777 101
0.974059 2.823267 -0.092292 100
0.898583 2.900522 0.145324 100
0.775080 2.815443 -0.304347 101
0.700416 2.900487 -0.029165 101
0.627665 3.012337 0.260008 1
1.052206 2.760427 -0.325099 101
0.980099 2.839233 -0.046661 100
0.905393 2.920776 0.193458 87
0.778817 2.827170 -0.260169 101
0.704682 2.916015 0.016755 100
1.066843 2.797422 -0.190462 101
0.999813 2.894774 0.093570 100
0.788019 2.858708 -0.125840 101
0.716447 2.962528 0.157602 95
0.594421 2.848019 -0.291934 101
1.061106 2.780982 -0.143494 101
0.984048 2.847587 0.138392 36
0.853097 2.748817 -0.386584 101
0.793171 2.875521 -0.080715 100
0.719105 2.971343 0.205198 87
0.599003 2.867579 -0.248569 101
1.139031 2.721563 -0.284602 101
0.868260 2.796026 -0.220138 101
0.799119 2.895196 0.057145 101
0.637033 2.630301 -0.778179 101
0.604461 2.891292 -0.113990 101
1.151819 2.750826 -0.241517 101
0.881477 2.836910 -0.177533 101
0.809918 2.932408 0.104641 96
0.683825 2.821442 -0.348747 92
0.606870 2.900392 -0.068797 101
0.972524 2.806635 -0.183236 101
0.890289 2.860206 0.051242 100
0.731743 2.644196 -0.975973 101
0.693375 2.854587 -0.119013 101
0.618275 2.947525 0.161525 100
0.969874 2.797474 -0.137040 101
0.899938 2.889504 0.098281 101
0.772148 2.788389 -0.362947 101
0.699869 2.879224 -0.074486 101
0.624745 2.975889 0.209964 99
1.062292 2.774335 -0.280819 101
0.987111 2.845655 -0.000526 101
0.909983 2.920036 0.240713 76
0.788307 2.844890 -0.216270 101
0.708925 2.914357 0.062827 100
0.580465 2.762669 -0.681128 150
1.064173 2.777857 -0.235160 101
1.000587 2.882947 0.046341 99
0.792778 2.859168 -0.171598 101
0.718555 2.951797 0.110336 100
0.600117 2.853832 -0.340001 101
1.127787 2.684606 -0.531593 101
1.070246 2.792311 -0.098156 101
0.867206 2.779495 -0.309109 101
0.793458 2.859763 -0.034706 101
0.713309 2.928113 0.248834 101
0.601568 2.858357 -0.202718 101
1.142838 2.719160 -0.330325 101
1.073990 2.800679 -0.052357 101
0.874918 2.802567 -0.266160 101
0.800405 2.882932 0.010966 101
0.605086 2.872691 -0.158479 101
1.158806 2.755864 -0.195948 87
0.952535 2.740059 -0.425885 101
0.891219 2.853105 -0.132596 101
0.809527 2.913895 0.150556 76
0.689421 2.825943 -0.297519 101
0.613030 2.907995 -0.023342 101
0.961549 2.764496 -0.316418 101
0.889813 2.846931 -0.086442 101
0.818921 2.945799 0.199328 99
0.692786 2.837677 -0.253501 101
0.611867 2.900073 0.022244 100
1.214014 2.644457 -0.604817 101
0.960893 2.756852 -0.270321 101
0.894341 2.854918 -0.040731 100
0.815629 2.926609 0.244977 101
0.693571 2.832923 -0.208040 101
0.615259 2.906824 0.067945 100
0.971800 2.786647 -0.227603 101
0.893703 2.851212 0.005215 99
0.824213 2.955497 0.348501 33
0.697574 2.847214 -0.163892 101
0.621254 2.932729 0.114640 100
1.048241 2.722801 -0.474849 101
0.981274 2.812300 -0.092044 100
0.908703 2.897368 0.145324 100
0.784903 2.812720 -0.304347 101
0.707679 2.886370 -0.029047 101
0.629909 2.971137 0.256640 11
1.057548 2.745607 -0.323787 101
0.990004 2.835795 -0.046661 100
0.917974 2.925216 0.193963 87
0.789752 2.828272 -0.260523 101
0.717716 2.925191 0.016822 100
1.075166 2.789956 -0.190208 101
1.008593 2.887491 0.093448 94
0.797993 2.855940 -0.125840 101
0.726784 2.960009 0.157602 100
0.604358 2.845927 -0.291934 101
1.072244 2.780989 -0.143687 101
0.854369 2.719347 -0.382857 101
0.798897 2.857331 -0.080282 101
0.730424 2.972690 0.205465 87
0.607352 2.857673 -0.247893 101
1.150074 2.721238 -0.284986 101
0.878015 2.792978 -0.220138 101
0.810298 2.896240 0.057221 101
0.646211 2.628061 -0.778179 101
0.617045 2.900893 -0.114453 101
1.162967 2.750461 -0.241840 101
0.893770 2.841433 -0.178010 101
0.824460 2.944962 0.105191 93
0.696517 2.830607 -0.350178 92
0.618656 2.906078 -0.068982 100
0.975713 2.784384 -0.182004 101
0.900267 2.857080 0.051242 101
0.744022 2.652512 -0.979995 101
0.701421 2.844388 -0.118689 101
0.632729 2.964880 0.162596 100
0.980955 2.797842 -0.137225 101
0.910019 2.886345 0.098281 100
0.782949 2.789498 -0.363445 101
0.709915 2.876764 -0.074486 101
0.637629 2.985397 0.210791 97
1.070532 2.766896 -0.280443 101
1.002335 2.857291 -0.000528 100
0.926169 2.935857 0.242282 63
0.798232 2.842121 -0.216270 101
0.720053 2.915747 0.062911 100
0.590105 2.760626 -0.681128 113
1.070984 2.766688 -0.234530 101
1.006671 2.868115 0.046159 96
0.799512 2.844850 -0.170905 101
0.727896 2.945390 0.110191 100
0.606751 2.836179 -0.338148 101
1.138687 2.684275 -0.532311 101
1.085761 2.803471 -0.098681 101
0.882892 2.795415 -0.311220 101
0.806684 2.868527 -0.034846 101
0.727354 2.941085 0.250151 101
0.619061 2.891358 -0.205210 101
1.152322 2.715154 -0.330325 101
1.096765 2.830476 -0.052986 64
0.889497 2.814690 -0.267605 101
0.812631 2.887821 0.010996 100
0.615947 2.874467 -0.158695 101
0.964719 2.744184 -0.427047 101
0.902378 2.853787 -0.132773 101
0.819693 2.911051 0.150556 78
0.700238 2.827382 -0.297926 101
0.623177 2.905837 -0.023342 100
0.973832 2.768626 -0.317277 101
0.900952 2.847620 -0.086558 100
0.829199 2.942923 0.199328 95
0.706522 2.850713 -0.254885 101
0.624504 2.909652 0.022334 100
1.224884 2.643756 -0.605631 101
0.970510 2.753482 -0.270321 101
0.900674 2.840342 -0.040567 101
0.826924 2.927581 0.245298 101
0.706342 2.842101 -0.208894 101
0.624560 2.900749 0.067854 101
0.989480 2.805804 -0.229449 101
0.908489 2.863326 0.005243 100
0.833443 2.948778 0.348049 35
0.710400 2.856388 -0.164562 101
0.632330 2.934450 0.114793 101
1.054876 2.711766 -0.473564 101
0.992415 2.812628 -0.092168 100
0.917602 2.890370 0.145132 100
0.793634 2.806135 -0.303933 101
0.719682 2.891645 -0.029126 101
0.640277 2.968920 0.256640 35
1.070009 2.749309 -0.324662 101
0.997234 2.824779 -0.046536 100
0.929388 2.925798 0.194215 90
0.799620 2.825498 -0.260523 101
0.725022 2.911024 0.016755 100
1.083450 2.782466 -0.189954 101
1.012008 2.865104 0.092837 100
0.807957 2.853137 -0.125840 101
0.738077 2.961330 0.157808 93
0.613449 2.839910 -0.291535 101
1.081945 2.777230 -0.143687 101
0.874669 2.750350 -0.387649 101
0.814317 2.873761 -0.080823 101
0.741762 2.973995 0.205733 83
0.616482 2.851640 -0.247555 101
1.159566 2.717207 -0.284986 101
0.891388 2.801299 -0.221037 101
0.821494 2.897242 0.057297 101
0.659104 2.640709 -0.782600 101
0.626322 2.894815 -0.114298 101
1.170995 2.742718 -0.241517 101
0.901260 2.830687 -0.177533 101
0.829279 2.922837 0.104504 87
0.702544 2.812746 -0.348270 92
0.626257 2.892176 -0.068704 100
0.990761 2.796014 -0.182989 101
0.912665 2.861541 0.051379 100
0.751216 2.642648 -0.977314 101
0.716198 2.861308 -0.119499 101
0.640532 2.950943 0.161953 100
0.992050 2.798167 -0.137410 101
0.922520 2.890769 0.098541 100
0.795939 2.798200 -0.364938 101
0.719953 2.874268 -0.074486 101
0.648893 2.987053 0.211066 100
1.077284 2.755724 -0.279690 101
1.010965 2.850004 -0.000528 100
0.935198 2.928807 0.241968 83
0.808148 2.839318 -0.216270 101
0.730226 2.913216 0.062911 100
0.588998 2.709154 -0.668932 101
1.083540 2.770360 -0.235160 101
1.018014 2.868353 0.046219 91
0.812719 2.853564 -0.171598 101
0.740118 2.950586 0.110482 100
0.619181 2.845690 -0.339537 101
1.148050 2.680284 -0.532311 101
1.096998 2.803387 -0.098813 101
0.887800 2.777162 -0.309531 101
0.812307 2.850307 -0.034659 101
0.737616 2.938528 0.250151 101
0.624904 2.869684 -0.203825 101
1.164925 2.718423 -0.331215 101
0.894462 2.796391 -0.266160 101
0.816124 2.861887 0.010908 100
0.622575 2.856689 -0.157832 101
0.972967 2.737071 -0.426466 101
0.908680 2.839202 -0.132241 101
0.830946 2.912014 0.150755 78
0.708163 2.817203 -0.297112 101
0.634169 2.907552 -0.023373 100
0.983490 2.765210 -0.317277 101
0.910886 2.844457 -0.086558 101
0.839466 2.940010 0.199328 93
0.715496 2.844365 -0.254539 101
0.634657 2.907454 0.022334 100
1.227463 2.625277 -0.602375 101
0.978771 2.746328 -0.269952 101
0.915465 2.852416 -0.040785 100
0.836033 2.920846 0.244977 101
0.714300 2.831883 -0.208325 101
0.632963 2.890740 0.067671 101
0.995245 2.791066 -0.228526 101
0.925812 2.882989 0.005285 100
0.847010 2.957314 0.349403 35
0.724272 2.869382 -0.165455 101
0.646842 2.951748 0.115557 100
1.061445 2.700720 -0.472279 101
1.004912 2.816678 -0.092415 100
0.935017 2.909973 0.146280 100
0.804518 2.807173 -0.304347 101
0.727811 2.881359 -0.029047 101
0.653196 2.978347 0.257651 47
1.075236 2.734456 -0.323349 101
1.008433 2.825047 -0.046598 100
0.937153 2.914935 0.193710 96
0.809479 2.822689 -0.260523 101
0.736161 2.912353 0.016777 100
1.090237 2.771236 -0.189446 101
1.023352 2.865318 0.092959 25
0.814609 2.838774 -0.125331 101
0.747434 2.954862 0.157602 98
0.622508 2.833863 -0.291136 101
1.093103 2.777151 -0.143880 101
0.881841 2.739731 -0.386584 101
0.825453 2.874742 -0.080932 100
0.753125 2.975255 0.206001 80
0.628150 2.857255 -0.248231 101
1.172204 2.720452 -0.285754 101
0.899947 2.794370 -0.220737 101
0.829403 2.886666 0.057145 101
0.668327 2.638390 -0.782600 101
0.636433 2.892609 -0.114298 101
1.177418 2.731286 -0.240871 101
0.911148 2.827520 -0.177533 101
0.839490 2.919921 0.104504 100
0.713346 2.814123 -0.348747 92
0.633782 2.878253 -0.068425 101
1.005922 2.807564 -0.183975 101
0.926355 2.869749 0.051584 100
0.759412 2.636383 -0.975973 101
0.723251 2.847164 -0.119013 101
0.649990 2.944784 0.161739 100
1.005880 2.805963 -0.137964 101
0.936315 2.898936 0.098930 100
0.804627 2.791584 -0.364441 101
0.730006 2.871731 -0.074486 101
0.656759 2.973074 0.210240 95
1.092775 2.766752 -0.281196 101
1.020934 2.846448 -0.000528 100
0.929502 2.876188 0.237888 101
0.820292 2.844138 -0.216854 101
0.742390 2.918394 0.063079 101
0.602674 2.726059 -0.673623 101
1.096164 2.773967 -0.235791 101
1.034804 2.883594 0.046523 92
0.826026 2.862211 -0.172291 101
0.753402 2.959598 0.110917 100
0.628282 2.839626 -0.339074 101
1.158992 2.679858 -0.533029 101
1.106809 2.799528 -0.098813 101
0.901194 2.785389 -0.310798 101
0.825613 2.858973 -0.034800 101
0.751838 2.951379 0.251467 101
0.637539 2.879166 -0.204656 101
1.180755 2.728919 -0.332996 101
0.906707 2.800820 -0.266882 101
0.836139 2.893595 0.011040 101
0.636899 2.873989 -0.158911 101
0.983890 2.737369 -0.427047 101
0.923549 2.851207 -0.132951 101
0.842254 2.912922 0.150954 78
0.719014 2.818559 -0.297519 101
0.647818 2.920932 -0.023499 100
0.995868 2.769230 -0.318137 101
0.919618 2.837444 -0.086442 100
0.848657 2.933216 0.199068 85
0.723490 2.834117 -0.253847 101
0.642244 2.893497 0.022244 100
1.241633 2.631602 -0.604817 101
0.989702 2.746642 -0.270321 101
0.926651 2.853007 -0.040839 100
0.850666 2.933227 0.246263 100
0.724181 2.829372 -0.208325 101
0.651740 2.927547 0.068585 100
1.007686 2.795078 -0.229141 101
0.934633 2.875936 0.005278 85
0.851789 2.935255 0.347146 32
0.732301 2.859098 -0.165008 101
0.654534 2.937768 0.115099 101
1.078151 2.715345 -0.475492 101
1.009311 2.798110 -0.091921 100
0.942698 2.899093 0.145897 86
0.812093 2.796706 -0.303518 101
0.740843 2.890425 -0.029165 101
0.664456 2.979939 0.257988 66
1.090646 2.745466 -0.325099 101
1.018288 2.821510 -0.046598 100
0.949792 2.919238 0.194215 81
0.822662 2.831325 -0.261583 101
0.747316 2.913640 0.016800 95
1.104326 2.778543 -0.190208 101
0.824513 2.835914 -0.125331 101
0.755758 2.944496 0.157188 90
0.634131 2.839442 -0.291934 101
1.104267 2.777031 -0.144072 101
0.886488 2.721558 -0.384454 101
0.834366 2.868004 -0.080823 101
0.760528 2.961011 0.205198 89
0.638989 2.858934 -0.248569 101
1.184870 2.723645 -0.286522 101
0.904752 2.776042 -0.219538 101
0.836121 2.872234 0.056917 101
0.674662 2.624871 -0.779284 101
0.642163 2.870866 -0.113527 101
0.921013 2.824322 -0.177533 101
0.848559 2.913134 0.104366 90
0.722175 2.807770 -0.348270 92
0.642951 2.872121 -0.068333 101
1.008917 2.785268 -0.182743 101
0.936367 2.866498 0.051584 100
0.771777 2.644569 -0.979995 101
0.731190 2.836882 -0.118689 101
0.660265 2.942497 0.161739 100
1.015669 2.802434 -0.137964 101
0.946429 2.895650 0.098930 100
0.816591 2.796378 -0.365436 101
0.741024 2.873037 -0.074586 101
0.668882 2.978551 0.210791 100
1.099474 2.755523 -0.280443 101
1.032228 2.846628 -0.000528 101
0.830215 2.841257 -0.216854 101
0.754572 2.923529 0.063246 100
0.630091 2.803609 -0.693325 200
1.108797 2.777530 -0.236421 101
1.039408 2.864925 0.046280 83
0.833771 2.851645 -0.171829 101
0.757730 2.933728 0.110046 100
0.639934 2.845168 -0.340001 101
1.166765 2.672190 -0.532311 101
0.910911 2.782226 -0.310798 101
0.834465 2.852235 -0.034753 101
0.755153 2.921720 0.249163 101
0.643203 2.857458 -0.203271 101
1.183908 2.710209 -0.331215 101
0.915238 2.793852 -0.266521 101
0.841739 2.875304 0.010981 101
0.645172 2.863955 -0.158479 101
0.992088 2.730199 -0.426466 101
0.928517 2.832777 -0.132241 101
0.852417 2.909965 0.150954 86
0.728848 2.816032 -0.297519 101
0.655371 2.906947 -0.023405 100
1.005528 2.765737 -0.318137 101
0.930763 2.838016 -0.086558 101
0.862259 2.941726 0.199848 90
0.735377 2.839290 -0.254539 101
0.655862 2.906845 0.022364 100
1.247444 2.620180 -0.603189 101
1.000647 2.746913 -0.270690 101
0.931609 2.834556 -0.040622 100
0.855280 2.911113 0.244655 100
0.735055 2.830689 -0.208610 101
0.656659 2.901852 0.068037 100
1.016071 2.787797 -0.228834 100
0.939668 2.857457 0.005250 82
0.855304 2.909385 0.344438 37
0.742277 2.856525 -0.165008 101
0.660371 2.915974 0.114335 100
1.093502 2.726222 -0.478062 101
1.023182 2.805838 -0.092292 100
0.955310 2.903375 0.146280 100
0.825219 2.805305 -0.304762 101
0.751935 2.891692 -0.029204 101
0.675735 2.981489 0.258324 73
1.098742 2.737953 -0.324662 101
1.033615 2.832967 -0.046847 100
0.959976 2.915905 0.194215 78
0.830290 2.820791 -0.260876 101
0.754460 2.899401 0.016733 100
1.115506 2.778376 -0.190462 101
0.836665 2.840685 -0.125670 101
0.766032 2.941840 0.157188 100
0.643158 2.833329 -0.291535 101
1.112464 2.769452 -0.143880 101
0.893501 2.710917 -0.383389 101
0.839851 2.849732 -0.080391 101
0.771865 2.962200 0.205465 83
0.648082 2.852800 -0.248231 101
1.195971 2.723138 -0.286906 101
0.919434 2.788020 -0.220737 101
0.848404 2.876970 0.057069 101
0.686730 2.633660 -0.782600 101
0.655725 2.884197 -0.114144 101
0.934619 2.832465 -0.178249 101
0.862117 2.921657 0.104779 87
0.732975 2.809075 -0.348747 92
0.655635 2.881557 -0.068611 101
1.022752 2.792976 -0.183482 101
0.941347 2.848023 0.051310 100
0.783141 2.649087 -0.982676 100
0.743110 2.842046 -0.119013 101
0.668756 2.932386 0.161311 100
1.022696 2.791368 -0.137595 101
0.948999 2.869555 0.098151 101
0.825221 2.789705 -0.364938 101
0.750036 2.866565 -0.074486 101
0.679275 2.976198 0.210791 99
1.110575 2.755362 -0.280819 101
1.046288 2.854274 -0.000531 100
0.843525 2.849818 -0.217731 101
0.764772 2.920877 0.063246 100
0.628617 2.752112 -0.681128 138
1.118485 2.773643 -0.236421 101
0.842586 2.844888 -0.171598 101
0.773032 2.950399 0.110772 100
0.650747 2.846790 -0.340464 101
1.180847 2.678903 -0.534466 101
0.918116 2.771478 -0.309953 101
0.846689 2.856975 -0.034846 101
0.772424 2.946059 0.251467 101
0.654954 2.862975 -0.203825 101
1.198173 2.716972 -0.332551 101
0.924985 2.790640 -0.266521 101
0.854045 2.880018 0.011010 101
0.649817 2.838325 -0.157186 101
1.009799 2.749008 -0.429952 101
0.940915 2.837104 -0.132596 101
0.862570 2.906971 0.150954 72
0.742715 2.828866 -0.299147 101
0.667301 2.912439 -0.023467 101
1.012433 2.754745 -0.317277 101
0.936886 2.823365 -0.086210 101
0.872522 2.938699 0.199848 90
0.746296 2.840560 -0.254885 101
0.661535 2.885044 0.022214 100
1.266757 2.636990 -0.608073 101
1.007477 2.735928 -0.269952 101
0.944022 2.838878 -0.040731 100
0.867711 2.915752 0.245298 97
0.743915 2.824248 -0.208325 101
0.664992 2.891748 0.067854 100
1.029933 2.795460 -0.229756 100
0.953426 2.865546 0.005271 100
0.875663 2.940664 0.348501 45
0.753262 2.857778 -0.165232 101
0.675027 2.933127 0.115099 100
1.097081 2.707752 -0.475492 101
1.030204 2.794746 -0.092044 96
0.962915 2.892441 0.145897 98
0.831598 2.790968 -0.303518 101
0.758964 2.877447 -0.029086 101
0.678087 2.944155 0.255293 66
1.106799 2.730416 -0.324224 101
1.037961 2.814332 -0.046598 101
0.973934 2.923899 0.194973 29
0.841270 2.821694 -0.261230 101
0.765597 2.900617 0.016755 100
1.123697 2.770766 -0.190208 101
0.846576 2.837748 -0.125670 101
0.777316 2.943011 0.157395 93
0.652149 2.827189 -0.291136 101
1.123627 2.769254 -0.144072 101
0.910483 2.730346 -0.386584 101
0.850937 2.850614 -0.080499 101
0.780161 2.951771 0.204930 79
0.656243 2.842753 -0.247555 101
1.200628 2.708028 -0.285754 61
0.931685 2.792361 -0.221337 101
0.857297 2.870158 0.056993 101
0.690022 2.608948 -0.775968 101
0.665789 2.881891 -0.114144 101
0.945765 2.832973 -0.178487 101
0.873455 2.922460 0.104916 90
0.744808 2.814178 -0.349701 92
0.667491 2.887043 -0.068797 100
1.024180 2.766924 -0.182004 100
0.952551 2.848512 0.051379 101
0.792383 2.646337 -0.982676 38
0.754050 2.843297 -0.119175 101
0.681693 2.941707 0.161953 100
1.031046 2.784034 -0.137410 101
0.967890 2.892764 0.099060 100
0.834954 2.786807 -0.364938 101
0.764141 2.879389 -0.074888 101
0.689659 2.973809 0.210791 100
1.126192 2.766222 -0.282325 101
1.054855 2.846854 -0.000530 88
0.848885 2.831570 -0.216562 101
0.769831 2.898864 0.062827 100
0.631188 2.719599 -0.673623 101
1.122143 2.754950 -0.235160 101
0.850217 2.834280 -0.171136 101
0.778193 2.928366 0.110046 100
0.658882 2.836761 -0.339537 101
1.188591 2.671170 -0.533748 101
0.930312 2.775799 -0.310798 101
0.856656 2.854002 -0.034846 101
0.779630 2.931787 0.250480 101
0.667654 2.872332 -0.204656 101
1.207650 2.712773 -0.332551 101
0.935987 2.791172 -0.266882 101
0.860641 2.865526 0.010966 101
0.663340 2.851600 -0.158048 101
1.015257 2.734336 -0.428209 101
0.952084 2.837591 -0.132773 101
0.873862 2.907769 0.151153 76
0.751561 2.822411 -0.298740 101
0.678370 2.913988 -0.023499 100
1.031737 2.777289 -0.320287 101
0.953098 2.839029 -0.086789 100
0.883924 2.939458 0.200109 82
0.754155 2.830236 -0.254193 101
0.676139 2.902195 0.022364 100
1.272538 2.625504 -0.606445 101
1.023968 2.751058 -0.271796 101
0.956477 2.843147 -0.040839 100
0.881335 2.924158 0.246263 100
0.756859 2.833198 -0.209179 101
0.681451 2.916667 0.068494 100
1.036901 2.784373 -0.229141 101
0.963422 2.862200 0.005271 96
0.901989 2.990862 0.354820 19
0.761170 2.847415 -0.164785 101
0.686172 2.934645 0.115252 100
1.109517 2.711214 -0.476777 101
1.044141 2.802373 -0.092415 100
0.971730 2.885276 0.145706 100
0.845933 2.803284 -0.305177 101
0.773138 2.890236 -0.029243 101
0.685635 2.930127 0.254283 69
1.120842 2.737575 -0.325537 101
1.047779 2.810692 -0.046598 100
0.851115 2.818741 -0.261230 101
0.777786 2.905655 0.016800 90
1.134875 2.770520 -0.190462 101
0.856477 2.834775 -0.125670 101
0.788618 2.944138 0.157602 88
0.664739 2.836520 -0.292334 101
0.926344 2.745933 -0.389247 101
0.865511 2.862936 -0.080932 100
0.793560 2.960595 0.205733 97
0.667072 2.844326 -0.247893 101
0.937599 2.777754 -0.220437 101
0.870784 2.878632 0.057221 101
0.702112 2.617662 -0.779284 101
0.676758 2.883441 -0.114298 101
0.954370 2.825871 -0.178249 101
0.877860 2.900262 0.104229 99
0.753597 2.807725 -0.349224 92
0.674821 2.873017 -0.068518 101
1.040827 2.782028 -0.183236 101
0.967615 2.860324 0.051652 100
0.799428 2.636342 -0.979995 37
0.761895 2.832929 -0.118851 101
0.694704 2.950974 0.162596 100
1.043559 2.787903 -0.137780 101
0.974136 2.878007 0.098671 100
0.848134 2.795269 -0.366432 101
0.772108 2.868981 -0.074687 101
0.700951 2.975267 0.211066 100
1.132812 2.754908 -0.281572 101
1.061980 2.835663 -0.000528 33
0.861082 2.836225 -0.217147 101
0.784105 2.911605 0.063162 100
0.638000 2.706025 -0.670808 101
1.137822 2.765767 -0.236421 101
0.861266 2.835115 -0.171367 101
0.793611 2.944931 0.110772 100
0.669693 2.838310 -0.340001 101
1.202745 2.677773 -0.535903 101
0.938719 2.768768 -0.310375 101
0.864287 2.843340 -0.034753 101
0.791935 2.936745 0.251138 101
0.675842 2.862217 -0.204102 101
1.218741 2.712167 -0.332996 101
0.947004 2.791660 -0.267243 101
0.875294 2.877812 0.011025 101
0.675127 2.857042 -0.158479 101
1.026186 2.734481 -0.428790 101
0.964552 2.841819 -0.133128 101
0.885169 2.908523 0.151352 74
0.761409 2.819771 -0.298740 101
0.685776 2.899925 -0.023405 100
1.038629 2.766225 -0.319427 101
0.961717 2.831899 -0.086673 101
0.895342 2.940173 0.200369 89
0.766109 2.835280 -0.254885 101
0.684423 2.892032 0.022304 100
1.272639 2.603677 -0.602375 101
1.031683 2.743919 -0.271427 101
0.965900 2.839960 -0.040839 100
0.887538 2.909778 0.245298 100
0.765207 2.826821 -0.208894 101
0.691119 2.914392 0.068494 100
1.043320 2.773453 -0.228526 101
0.975486 2.866563 0.005285 96
0.770608 2.844875 -0.164785 101
0.694977 2.928464 0.115099 101
1.116994 2.703871 -0.476135 101
1.052020 2.795153 -0.092292 100
0.980005 2.878255 0.145515 77
0.854062 2.796658 -0.304762 101
0.782718 2.887657 -0.029243 100
0.701795 2.954983 0.256640 81
1.126877 2.726494 -0.324662 101
1.061322 2.818430 -0.046785 100
0.860457 2.815903 -0.261230 101
0.786370 2.899199 0.016777 100
1.150158 2.781497 -0.191478 101
0.864704 2.828098 -0.125500 101
0.794191 2.926086 0.156775 94
0.673220 2.830428 -0.291934 101
0.930326 2.727838 -0.387117 101
0.872660 2.852403 -0.080715 101
0.799189 2.942541 0.204662 92
0.675578 2.838220 -0.247555 101
0.946806 2.774629 -0.220437 101
0.880325 2.875729 0.057221 101
0.709780 2.611610 -0.778179 101
0.689095 2.892845 -0.114761 101
0.959866 2.811355 -0.177533 101
0.892156 2.912625 0.104779 90
0.764988 2.812875 -0.350178 92
0.687127 2.882433 -0.068797 101
1.051458 2.782296 -0.183482 101
0.974506 2.849531 0.051515 101
0.809272 2.637280 -0.981336 33
0.772336 2.834243 -0.119013 101
0.699845 2.929229 0.161525 100
1.054211 2.788164 -0.137964 101
0.983674 2.874761 0.098671 97
0.856234 2.788648 -0.365934 101
0.781618 2.866405 -0.074687 101
0.710813 2.972926 0.211066 83
1.141942 2.751136 -0.281572 101
0.870482 2.833354 -0.217147 101
0.790598 2.897415 0.062911 100
0.656018 2.741711 -0.680190 138
1.140870 2.747248 -0.235160 101
0.869489 2.828427 -0.171136 101
0.796002 2.915289 0.109756 100
0.675401 2.820619 -0.338148 101
1.211618 2.673770 -0.535903 101
0.953054 2.780691 -0.312065 101
0.874887 2.844282 -0.034800 101
0.799568 2.926412 0.250480 101
0.687189 2.867721 -0.204656 101
1.235935 2.726213 -0.335222 33
0.958841 2.796041 -0.267966 101
0.887186 2.882540 0.011054 101
0.682735 2.847019 -0.158048 101
1.032442 2.723662 -0.427628 101
0.971377 2.831045 -0.132773 101
0.891282 2.894117 0.150755 69
0.766555 2.801877 -0.297112 101
0.694455 2.893745 -0.023373 101
1.049207 2.766484 -0.319857 101
0.973699 2.836258 -0.086905 101
0.907438 2.944816 0.200889 95
0.777611 2.840411 -0.255576 101
0.697746 2.905304 0.022424 100
1.292131 2.620284 -0.607259 101
1.042690 2.744017 -0.271796 101
0.974527 2.832781 -0.040785 100
0.900064 2.914275 0.245941 101
0.776147 2.827975 -0.209179 101
0.696628 2.892517 0.068037 101
1.057259 2.780973 -0.229449 100
0.980292 2.848007 0.005257 96
0.781604 2.846015 -0.165008 101
0.702399 2.914360 0.114640 100
1.124910 2.696309 -0.475492 101
1.061775 2.791462 -0.092292 100
0.863824 2.793658 -0.304762 101
0.790678 2.877192 -0.029165 101
0.717718 2.975762 0.258661 99
1.137916 2.726214 -0.325099 101
1.072573 2.818448 -0.046847 82
0.870278 2.812883 -0.261230 101
0.797543 2.900294 0.016800 100
1.155235 2.766419 -0.190716 88
0.871014 2.813612 -0.124992 101
0.808628 2.938705 0.157602 90
0.684954 2.835801 -0.292733 101
0.947581 2.747066 -0.390312 101
0.887325 2.864624 -0.081148 100
0.812614 2.951282 0.205465 85
0.688272 2.847472 -0.248569 101
0.957760 2.775087 -0.220737 101
0.890331 2.872647 0.057221 100
0.718868 2.609123 -0.778179 101
0.697281 2.882659 -0.114453 101
0.973549 2.819322 -0.178249 101
0.903466 2.913322 0.104916 85
0.772657 2.802540 -0.349224 92
0.696208 2.876139 -0.068704 101
1.069652 2.801009 -0.184960 101
0.987003 2.853692 0.051652 100
0.819537 2.638054 -0.982676 34
0.783230 2.835398 -0.119175 101
0.716596 2.953955 0.163024 96
1.061020 2.777027 -0.137595 101
0.996251 2.878889 0.098930 83
0.864719 2.781872 -0.365436 101
0.789421 2.855970 -0.074486 101
0.718293 2.958810 0.210240 97
1.156084 2.758182 -0.282701 101
0.883847 2.841749 -0.218023 101
0.804895 2.910076 0.063246 100
0.658169 2.709194 -0.672685 101
1.159625 2.765346 -0.237052 101
0.878088 2.821587 -0.170905 101
0.808221 2.920221 0.110046 100
0.685160 2.818264 -0.338148 101
1.217585 2.662406 -0.534466 101
0.957455 2.762344 -0.310375 101
0.888287 2.852695 -0.034940 101
0.810749 2.927471 0.250809 101
0.696161 2.861449 -0.204379 101
0.964582 2.781419 -0.266882 101
0.895953 2.875638 0.011040 101
0.692570 2.844643 -0.158048 101
1.047503 2.734863 -0.429952 101
0.985077 2.838999 -0.133305 101
0.904838 2.902464 0.151352 82
0.780479 2.814552 -0.298740 101
0.709178 2.910761 -0.023530 100
1.057323 2.759134 -0.319427 101
0.982168 2.829104 -0.086789 101
0.918782 2.945478 0.201149 91
0.786341 2.833872 -0.255231 101
0.704924 2.891221 0.022334 100
1.297781 2.608745 -0.605631 101
1.050834 2.736642 -0.271427 101
0.987038 2.836917 -0.040894 100
0.913800 2.922532 0.246906 101
0.786013 2.825248 -0.209179 101
0.710520 2.905606 0.068403 101
1.065530 2.773543 -0.229141 101
0.987597 2.837013 0.005243 75
0.791534 2.843270 -0.165008 101
0.714467 2.919655 0.114946 100
1.140447 2.706920 -0.478062 101
1.074382 2.795202 -0.092539 100
0.874759 2.794423 -0.305177 101
0.803937 2.885974 -0.029282 100
0.726205 2.965496 0.257988 101
1.147425 2.722225 -0.325099 101
1.080969 2.810954 -0.046785 65
0.880092 2.809828 -0.261230 101
0.808736 2.901346 0.016822 97
0.885611 2.825809 -0.125670 101
0.817808 2.932017 0.157395 86
0.692953 2.825662 -0.291934 101
0.958470 2.747485 -0.390844 101
0.892533 2.846248 -0.080715 100
0.823984 2.952272 0.205733 83
0.700107 2.852793 -0.249246 101
0.970070 2.779258 -0.221337 101
0.902748 2.877153 0.057373 101
0.725903 2.599193 -0.775968 101
0.708293 2.884089 -0.114607 101
0.983384 2.815906 -0.178249 101
0.916025 2.917779 0.105191 96
0.784572 2.807475 -0.350178 92
0.707198 2.877574 -0.068797 101
1.073673 2.782359 -0.183975 101
0.992996 2.838904 0.051447 100
0.825348 2.624393 -0.978654 34
0.790967 2.824950 -0.118851 101
0.721172 2.928165 0.161739 98
1.077903 2.791945 -0.138519 101
1.010256 2.886714 0.099320 78
0.876807 2.786408 -0.366432 101
0.802622 2.864748 -0.074787 101
0.732436 2.971783 0.211342 93
1.156392 2.732126 -0.280443 101
0.887771 2.819621 -0.216562 101
0.808571 2.884145 0.062743 100
0.672278 2.725757 -0.677376 138
1.166161 2.753938 -0.236421 101
0.893932 2.837548 -0.172060 101
0.820569 2.925080 0.110336 100
0.693090 2.808141 -0.337221 101
1.223574 2.650995 -0.533029 101
0.967092 2.758986 -0.310375 101
0.898239 2.849577 -0.034940 101
0.824195 2.936137 0.251796 101
0.706145 2.859002 -0.204379 101
0.972967 2.774276 -0.266521 101
0.902375 2.861048 0.010996 101
0.702496 2.842208 -0.158048 101
1.054187 2.723809 -0.428790 101
0.994981 2.835543 -0.133305 101
0.913761 2.895478 0.151153 72
0.789222 2.807980 -0.298333 101
0.718373 2.904385 -0.023499 100
1.064076 2.748009 -0.318567 101
0.989388 2.818113 -0.086558 101
0.920645 2.915609 0.199328 99
0.792992 2.819601 -0.254193 101
0.713090 2.880977 0.022274 100
1.310393 2.611200 -0.607259 101
1.057499 2.725531 -0.270690 101
0.995607 2.829682 -0.040839 100
0.920387 2.907920 0.245941 101
0.794788 2.818647 -0.208894 101
0.717768 2.891465 0.068128 100
1.076648 2.773525 -0.229449 101
1.002807 2.848640 0.005271 96
0.802539 2.844333 -0.165232 101
0.725618 2.921023 0.115099 100
1.151434 2.706555 -0.478705 101
1.089922 2.806343 -0.093033 100
0.886912 2.798938 -0.306006 101
0.815093 2.886999 -0.029321 100
0.737514 2.966811 0.258324 101
1.156921 2.718203 -0.325099 101
0.891099 2.810537 -0.261583 101
0.817771 2.894656 0.016800 100
0.896678 2.826510 -0.125840 101
0.831298 2.940676 0.158015 95
0.704735 2.830950 -0.292733 101
0.964098 2.732907 -0.389247 101
0.902463 2.843115 -0.080715 100
0.837543 2.960898 0.206537 85
0.705243 2.830995 -0.247555 101
0.978438 2.772094 -0.221037 101
0.916417 2.885420 0.057601 101
0.741253 2.618837 -0.782600 101
0.716422 2.873842 -0.114298 101
0.994537 2.816221 -0.178487 101
0.922572 2.903134 0.104779 90
0.792203 2.797077 -0.349224 92
0.715302 2.867328 -0.068611 101
1.079028 2.767436 -0.183236 101
1.006901 2.846732 0.051652 95
0.844792 2.653815 -0.990720 8
0.804097 2.833706 -0.119337 101
0.732358 2.929505 0.161953 100
1.086190 2.784442 -0.138334 101
1.012323 2.860557 0.098541 20
0.888937 2.790894 -0.367428 101
0.809340 2.850389 -0.074486 101
0.743774 2.973080 0.211618 100
1.172181 2.742720 -0.281949 101
0.897608 2.816504 -0.216562 101
0.824098 2.900539 0.063162 100
0.683677 2.730937 -0.679252 101
1.174199 2.746184 -0.236106 101
0.902618 2.830606 -0.171829 101
0.831867 2.926043 0.110482 100
0.708681 2.828828 -0.340001 101
1.241127 2.664542 -0.536621 101
0.976717 2.755593 -0.310375 101
0.906965 2.842614 -0.034893 101
0.828985 2.914071 0.250151 101
0.714180 2.848778 -0.203825 101
0.987971 2.785881 -0.267966 101
0.918439 2.876934 0.011069 101
0.868514 3.051107 0.388387 1
0.715328 2.851361 -0.158695 101
1.062247 2.716426 -0.428209 101
1.002200 2.824521 -0.132951 101
0.921432 2.884660 0.150755 80
0.795749 2.793726 -0.297112 101
0.725585 2.890221 -0.023405 100
1.073661 2.744278 -0.318567 101
1.001895 2.822178 -0.086789 101
0.933247 2.919982 0.199848 79
0.802829 2.816816 -0.254193 101
0.721193 2.870712 0.022214 100
1.319480 2.606619 -0.607259 101
1.072801 2.736664 -0.272165 101
1.006798 2.829965 -0.040894 100
0.932943 2.912291 0.246584 91
0.805697 2.819698 -0.209179 101
0.730766 2.900580 0.068403 100
1.084854 2.766042 -0.229141 101
1.010049 2.837590 0.005257 100
0.810253 2.833838 -0.164785 101
0.734820 2.914600 0.114946 101
1.163986 2.709777 -0.479990 101
1.095325 2.791358 -0.092662 100
0.894242 2.788249 -0.305177 101
0.826260 2.887983 -0.029360 100
0.748835 2.968084 0.258661 101
1.167975 2.717800 -0.325537 101
0.897255 2.796027 -0.260523 101
0.825672 2.884092 0.016755 100
0.904106 2.815749 -0.125500 101
0.837169 2.922392 0.157188 95
0.710724 2.813035 -0.291136 101
0.973650 2.729518 -0.389247 101
0.908732 2.828521 -0.080391 95
0.843495 2.942605 0.205465 85
0.716117 2.832375 -0.247893 101
0.986794 2.764896 -0.220737 101
0.924063 2.874579 0.057449 101
0.748295 2.608835 -0.780390 101
0.723535 2.859693 -0.113836 101
1.008424 2.824001 -0.179203 101
0.936408 2.911301 0.105191 90
0.805283 2.805737 -0.350655 92
0.726323 2.868682 -0.068704 101
1.088739 2.763630 -0.183236 100
1.010156 2.824350 0.051310 100
0.810728 2.819342 -0.118851 101
0.743622 2.930787 0.162167 98
1.094503 2.776891 -0.138149 101
0.893868 2.772644 -0.365436 101
0.820457 2.851370 -0.074586 101
0.748324 2.947241 0.209964 95
1.180242 2.734924 -0.281572 101
0.908732 2.817127 -0.216854 101
0.834294 2.897623 0.063162 100
0.695192 2.736053 -0.681128 101
0.913802 2.831212 -0.172060 101
0.842161 2.923097 0.110482 100
0.718633 2.826316 -0.340001 101
1.263898 2.688643 -0.542368 101
0.987759 2.755880 -0.310798 101
0.920660 2.850820 -0.035034 101
0.846975 2.937946 0.252455 101
0.726178 2.853979 -0.204379 101
0.996441 2.778631 -0.267605 101
0.926116 2.866066 0.011040 101
0.858356 2.975545 0.379151 8
0.722419 2.837209 -0.158048 101
1.076187 2.723704 -0.429952 101
1.010810 2.817206 -0.132773 101
0.934061 2.888993 0.151153 74
0.811118 2.810017 -0.299147 101
0.731828 2.872139 -0.023279 101
1.087731 2.751565 -0.319857 101
1.015906 2.829913 -0.087137 100
0.943551 2.916669 0.199848 81
0.814982 2.821620 -0.254885 101
0.734289 2.879775 0.022304 100
1.330352 2.605485 -0.608073 101
1.083814 2.736605 -0.272534 101
1.019378 2.833960 -0.041003 100
0.817754 2.824533 -0.209748 101
0.739896 2.894137 0.068311 100
1.101848 2.780776 -0.230679 100
1.019948 2.834047 0.005257 85
0.815695 2.815649 -0.163892 101
0.743998 2.908145 0.114793 101
1.170297 2.698453 -0.478705 101
1.109482 2.798667 -0.093033 43
0.902741 2.781327 -0.304762 101
0.836336 2.885082 -0.029360 100
0.757214 2.957730 0.257988 101
1.180619 2.721001 -0.326412 101
0.911932 2.808036 -0.261937 101
0.844649 2.911925 0.016934 100
0.915164 2.816377 -0.125670 101
0.851818 2.934798 0.158015 81
0.722515 2.818248 -0.291934 101
0.984517 2.729832 -0.389779 101
0.921072 2.832936 -0.080607 100
0.855987 2.947308 0.206001 76
0.725009 2.825998 -0.247555 101
0.995085 2.757683 -0.220437 100
0.932854 2.867533 0.057373 100
0.755251 2.598825 -0.778179 101
0.735501 2.864892 -0.114144 101
1.014208 2.809197 -0.178487 101
0.946564 2.908015 0.105191 90
0.812854 2.795282 -0.349701 92
0.735337 2.862256 -0.068611 101
1.105761 2.778359 -0.184467 100
1.030889 2.850895 0.051857 101
0.823918 2.828007 -0.119337 101
0.754843 2.932041 0.162382 90
1.105667 2.776766 -0.138334 101
0.906003 2.777053 -0.366432 101
0.832644 2.856167 -0.074787 101
0.764581 2.967797 0.211618 97
1.192963 2.738089 -0.282325 101
0.921036 2.821522 -0.217439 101
0.844404 2.894693 0.063162 100
0.704739 2.733610 -0.681128 101
0.921199 2.820413 -0.171598 101
0.850119 2.912465 0.110191 100
0.728494 2.823790 -0.340001 101
1.264843 2.666438 -0.538776 101
0.998728 2.756155 -0.311220 101
0.928121 2.839985 -0.034940 100
0.860578 2.946451 0.253442 101
0.737133 2.855291 -0.204656 101
1.008850 2.782626 -0.268327 101
0.938601 2.870419 0.011069 100
0.862055 2.949665 0.376235 12
0.731319 2.830803 -0.157832 101
1.082754 2.712579 -0.428790 101
1.017912 2.806148 -0.132419 101
0.944140 2.885715 0.151153 82
0.819805 2.803350 -0.298740 101
0.746855 2.888930 -0.023436 100
1.091429 2.732978 -0.318137 101
1.023050 2.818832 -0.086905 101
0.954968 2.917151 0.200109 68
0.822588 2.811109 -0.254193 101
0.746341 2.884939 0.022364 100
1.343025 2.607789 -0.609701 101
1.093360 2.732805 -0.272534 100
1.031998 2.837903 -0.041112 100
0.825363 2.814004 -0.209179 101
0.748990 2.887666 0.068220 100
1.105620 2.762103 -0.229449 101
1.029834 2.830470 0.005257 88
0.831142 2.831945 -0.165008 101
0.759166 2.924874 0.115557 101
1.181292 2.697968 -0.479347 101
0.916168 2.789498 -0.306006 101
0.841894 2.866794 -0.029204 101
0.769538 2.962784 0.258661 101
1.186920 2.709580 -0.325537 101
0.921728 2.804836 -0.261937 101
0.852553 2.901283 0.016889 100
0.928735 2.824554 -0.126179 101
0.863184 2.935639 0.158221 95
0.735354 2.827264 -0.293132 101
0.999472 2.741277 -0.391909 101
0.934704 2.841099 -0.080932 100
0.867397 2.948131 0.206269 85
0.737881 2.835021 -0.248569 101
1.011540 2.772928 -0.221937 101
0.944108 2.868058 0.057449 101
0.786032 2.669927 -0.800286 101
0.747512 2.870044 -0.114453 101
1.024008 2.805640 -0.178487 101
0.955459 2.900896 0.105054 93
0.821484 2.788618 -0.349224 92
0.748350 2.871280 -0.068890 101
1.110984 2.763370 -0.183728 100
0.830391 2.813614 -0.118851 101
0.769111 2.944847 0.163239 100
1.107898 2.754354 -0.137410 100
0.913203 2.766335 -0.365436 101
0.841476 2.849408 -0.074687 101
0.773927 2.961249 0.211342 99
1.207323 2.744844 -0.283454 49
0.929628 2.814502 -0.217147 101
0.851103 2.880223 0.062911 100
0.706406 2.701038 -0.673623 101
0.934798 2.828555 -0.172291 101
0.860281 2.909480 0.110191 100
0.739353 2.825074 -0.340464 101
1.280938 2.676204 -0.541650 101
1.009711 2.756387 -0.311642 101
0.938028 2.836728 -0.034940 101
0.866333 2.928138 0.252126 101
0.743052 2.837260 -0.203548 101
1.018557 2.779087 -0.268327 101
0.951128 2.874720 0.011098 100
0.864457 2.919989 0.372832 6
0.743221 2.835960 -0.158264 101
1.093696 2.712454 -0.429371 101
1.033204 2.817585 -0.133128 101
0.957974 2.893780 0.151750 80
0.830716 2.804286 -0.299147 101
0.755920 2.882436 -0.023405 100
1.109889 2.751280 -0.320717 101
1.032883 2.815244 -0.086905 100
0.958870 2.894854 0.198807 35
0.834661 2.815862 -0.254885 101
0.753361 2.870710 0.022274 100
1.348068 2.596364 -0.608073 100
1.099445 2.721774 -0.271796 101
1.037278 2.823197 -0.040948 92
0.834703 2.811248 -0.209179 101
0.759592 2.889030 0.068311 100
1.119265 2.769511 -0.230372 100
1.039223 2.827036 0.005257 96
0.839400 2.825342 -0.164785 101
0.764802 2.906876 0.114946 100
1.188640 2.690423 -0.478705 101
0.926670 2.790219 -0.306421 101
0.854818 2.875487 -0.029321 101
0.779362 2.960215 0.258661 101
1.199111 2.712903 -0.326412 101
0.931022 2.801764 -0.261937 101
0.856465 2.879271 0.016777 100
0.935567 2.813877 -0.125840 101
0.872907 2.932762 0.158221 88
0.741675 2.813267 -0.291934 101
1.011285 2.745392 -0.392974 101
0.944108 2.837988 -0.080932 98
0.877155 2.945242 0.206269 80
0.745233 2.824854 -0.247893 101
1.017954 2.762079 -0.221337 101
0.952334 2.861123 0.057373 101
0.799257 2.682047 -0.804708 101
0.757008 2.867554 -0.114453 101
1.034665 2.805983 -0.178726 101
0.961261 2.886341 0.104641 100
0.832975 2.793497 -0.350178 92
0.756823 2.864923 -0.068797 101
1.129114 2.781881 -0.185206 100
0.845399 2.830003 -0.119661 101
0.773723 2.922985 0.162167 98
1.127507 2.776597 -0.138704 55
0.923586 2.767071 -0.365934 101
0.852023 2.850446 -0.074787 101
0.780632 2.947106 0.210515 100
0.942700 2.822771 -0.218023 101
0.865185 2.892725 0.063246 100
0.719298 2.713727 -0.677376 101
0.946651 2.833032 -0.172753 101
0.872162 2.914286 0.110482 100
0.750701 2.830301 -0.341390 101
1.289751 2.671968 -0.541650 101
1.020170 2.756774 -0.312065 101
0.944836 2.826035 -0.034846 101
0.881697 2.944362 0.253771 101
0.756493 2.850223 -0.204656 101
1.027705 2.775717 -0.268327 101
0.955516 2.856398 0.011040 100
0.753584 2.837357 -0.158479 101
1.107095 2.719835 -0.431114 101
1.050803 2.836651 -0.134191 101
0.968763 2.894399 0.151949 78
0.842229 2.809160 -0.299961 101
0.769514 2.895395 -0.023530 92
1.114436 2.736564 -0.319427 101
1.044920 2.819329 -0.087137 100
0.846211 2.820735 -0.255576 101
0.767942 2.887543 0.022424 100
1.117967 2.740046 -0.274009 101
1.048519 2.823308 -0.041003 99
0.845660 2.812138 -0.209463 101
0.768642 2.882498 0.068220 101
1.128925 2.765587 -0.230372 100
1.046298 2.815892 0.005243 55
0.850407 2.826219 -0.165008 101
0.772883 2.896465 0.114640 100
1.201240 2.693469 -0.479990 101
0.935137 2.783196 -0.306006 101
0.866003 2.876316 -0.029360 100
0.786605 2.945924 0.257651 101
1.210194 2.712332 -0.326849 101
0.939527 2.794721 -0.261583 101
0.869971 2.887754 0.016844 100
0.947932 2.818170 -0.126179 101
0.881986 2.925873 0.158015 93
0.759715 2.841420 -0.295129 101
1.012563 2.719554 -0.389779 101
0.951458 2.827095 -0.080715 100
0.883973 2.930699 0.205465 91
0.755089 2.822236 -0.247893 101
1.027590 2.758509 -0.221337 101
0.964868 2.865362 0.057525 101
0.805282 2.668200 -0.801392 101
0.770114 2.876477 -0.114915 101
1.045848 2.806096 -0.178964 101
0.978989 2.905698 0.105466 100
0.841573 2.786770 -0.349701 92
0.768889 2.869989 -0.068982 100
1.129732 2.755759 -0.183728 100
