# This PCD file was generated using the MATLAB® pcwrite function
# from Computer Vision Toolbox®.
# .PCD v.7 - Point Cloud Data file format
VERSION .7
FIELDS x y z intensity
SIZE 4 4 4 1
TYPE F F F U
COUNT 1 1 1 1
WIDTH 328
HEIGHT 1
VIEWPOINT 0 0 0 1 0 0 0
POINTS 328
DATA ascii
-11.716769 24.100748 -0.570695 1
-11.619714 24.116621 -0.570099 30
-11.516504 24.117338 -0.569162 24
-11.417641 24.115637 -0.568225 18
-11.214170 23.889086 -0.967687 1
-11.329002 24.144152 -0.567970 19
-11.129028 23.924461 -0.967541 28
-11.241282 24.176298 -0.567799 23
-11.030389 23.930490 -0.966221 22
-11.148456 24.197229 -0.567373 23
-11.220763 24.482679 -0.159817 14
-10.931210 23.936413 -0.964902 20
-11.054912 24.218132 -0.566948 23
-11.023730 24.265238 -1.387439 5
-11.122004 24.492561 -0.159627 16
-10.827816 23.930721 -0.963143 20
-10.955476 24.223780 -0.566181 22
-10.955976 24.330368 -1.800373 13
-10.896334 24.208860 -1.382032 11
-11.023313 24.502052 -0.159437 18
-10.742580 23.964724 -0.962997 19
-10.859406 24.236326 -0.565585 23
-10.788028 24.182596 -1.786640 15
-10.782498 24.181070 -1.378289 11
-10.931272 24.525738 -0.159342 19
-10.649585 23.979954 -0.962117 20
-10.763891 24.248272 -0.564989 25
-11.617583 24.185375 -0.519865 18
-10.713228 24.242008 -1.788256 18
-10.704482 24.233177 -1.379121 13
-10.837517 24.545450 -0.159223 22
-10.556156 23.995029 -0.961238 22
-10.675964 24.278376 -0.564818 25
-11.509024 24.175228 -0.518781 20
-10.653454 24.347246 -1.383488 4
-10.737346 24.550148 -0.159010 19
-10.473930 24.035395 -0.961384 20
-10.579973 24.289829 -0.564222 27
-11.421933 24.198809 -0.518471 20
-10.647948 24.567257 -0.158891 23
-10.410195 24.106617 -0.962850 7
-10.496397 24.317350 -0.564052 25
-11.209641 23.955015 -0.918964 22
-11.330616 24.224041 -0.518161 20
-10.558972 24.596924 -0.158844 3
-10.398874 24.324425 -0.563371 27
-11.110819 23.961359 -0.917714 20
-11.232535 24.234417 -0.517541 22
-10.310784 24.353210 -0.563200 22
-11.013871 23.970884 -0.916603 19
-11.137929 24.251640 -0.517076 21
-11.211347 24.509270 -0.108192 12
-10.214434 24.363428 -0.562604 21
-10.913567 23.972801 -0.915214 16
-11.046581 24.275810 -0.516766 22
-11.115818 24.526396 -0.108096 23
-10.120127 24.376774 -0.562093 22
-10.952319 24.230663 -1.742863 9
-10.930010 24.192150 -1.330861 10
-10.837299 24.016148 -0.915492 18
-10.949576 24.275852 -0.515991 24
-11.024590 24.541229 -0.107999 28
-10.034672 24.399103 -0.561838 5
-10.891490 24.310560 -1.746002 35
-10.820336 24.162632 -1.327256 14
-10.738604 24.021036 -0.914242 22
-10.848384 24.277445 -0.515216 23
-10.924546 24.546528 -0.107855 25
-10.737521 24.191298 -1.734753 33
-10.733313 24.192673 -1.326855 18
-10.648214 24.043753 -0.913686 20
-10.755480 24.296881 -0.514829 23
-10.837183 24.580853 -0.107839 28
-11.573340 24.198763 -0.468213 14
-10.686749 24.305361 -1.740246 19
-10.679339 24.299482 -1.330660 13
-10.554585 24.058811 -0.912853 19
-10.667390 24.326950 -0.514674 23
-10.732103 24.574545 -0.107646 30
-11.469957 24.199261 -0.467445 19
-10.468433 24.078987 -0.912297 20
-10.581919 24.351170 -0.514441 26
-10.645602 24.599066 -0.107598 24
-11.266540 23.965549 -0.869236 19
-11.370632 24.197491 -0.466677 23
-10.366927 24.074993 -0.910769 11
-10.490528 24.373266 -0.514131 23
-11.176063 23.990234 -0.868711 20
-11.264151 24.189901 -0.465770 19
-10.395976 24.387663 -0.513666 25
-11.075498 23.992802 -0.867399 17
-9.843877 25.448456 1.095919 13
-11.179644 24.229073 -0.465770 22
-10.306190 24.412720 -0.513434 18
-10.986197 24.020636 -0.867005 18
-11.089469 24.257286 -0.465560 24
-10.205485 24.411648 -0.512659 19
-9.651874 25.468040 0.675137 13
-10.894032 24.040632 -0.866349 21
-11.004728 24.295847 -0.465560 25
-10.118356 24.430576 -0.512349 8
-10.948917 24.266478 -1.693586 9
-10.878655 24.121643 -1.275655 16
-11.049919 24.512459 -0.056314 12
-10.797871 24.040157 -0.865037 24
-10.909357 24.299370 -0.464932 23
-10.836545 24.242552 -1.689269 12
-10.797811 24.166693 -1.276040 8
-10.967783 24.558083 -0.056331 18
-10.709785 24.066401 -0.864643 23
-10.818818 24.322308 -0.464653 21
-10.714682 24.196280 -1.683428 7
-10.719855 24.218851 -1.276811 7
-10.877137 24.585243 -0.056306 19
-10.622487 24.096321 -0.864380 26
-10.725788 24.341625 -0.464304 23
-10.662525 24.318327 -1.280085 4
-10.783224 24.604744 -0.056264 19
-10.530312 24.114935 -0.863724 26
-10.632755 24.360590 -0.463955 21
-11.367661 24.021315 -0.821235 16
-11.475416 24.259567 -0.416901 20
-10.684381 24.612946 -0.056197 7
-10.434467 24.126074 -0.862806 26
-10.537590 24.375765 -0.463536 22
-11.265069 24.021032 -0.819876 26
-11.373689 24.263262 -0.416279 15
-10.345465 24.151325 -0.862412 16
-10.447716 24.401369 -0.463326 24
-11.151640 23.985748 -0.817405 12
-11.284739 24.282711 -0.415969 15
-10.360493 24.421154 -0.463047 21
-11.059454 24.006384 -0.816787 17
-11.188213 24.296516 -0.415534 14
-10.264885 24.431131 -0.462559 24
-10.965628 24.023020 -0.816045 17
-11.098354 24.324507 -0.415347 12
-10.818970 23.796015 -1.209871 16
-10.168788 24.440966 -0.462070 7
-10.876762 24.050222 -0.815675 17
-10.998551 24.330299 -0.414788 13
-10.934304 24.263441 -1.641733 6
-10.732558 23.826349 -1.209501 15
-11.091512 24.634176 -0.004715 15
-10.782948 24.066145 -0.814934 17
-10.900470 24.339344 -0.414291 15
-10.787552 24.162992 -1.632374 9
-10.725696 24.035236 -1.218193 15
-10.992236 24.643599 -0.004710 33
-10.692389 24.089022 -0.814439 19
-10.807334 24.358967 -0.413980 13
-10.701527 24.196850 -1.632128 6
-10.704739 24.215057 -1.225405 9
-10.902913 24.674501 -0.004708 36
-10.600190 24.107899 -0.813822 17
-10.712584 24.374575 -0.413608 13
-10.650600 24.321819 -1.228919 2
-10.807094 24.690424 -0.004704 28
-11.420747 24.037661 -0.771255 21
-10.514393 24.141081 -0.813698 18
-10.622637 24.400822 -0.413421 12
-11.307467 24.016047 -0.769285 25
-11.425320 24.306131 -0.365649 17
-10.422142 24.159281 -0.813080 18
-10.527896 24.415718 -0.413048 11
-11.223566 24.055372 -0.769285 25
-11.319313 24.289505 -0.364832 17
-10.326255 24.156946 -0.811845 19
-10.439015 24.432106 -0.412738 13
-9.863788 25.457445 1.201561 7
-11.131985 24.067055 -0.768474 24
-11.220928 24.299873 -0.364397 17
-10.244958 24.200218 -0.812092 3
-10.344333 24.446289 -0.412365 14
-10.934724 23.846699 -1.163760 14
-11.036869 24.080038 -0.767663 25
-11.129381 24.324345 -0.364179 16
-10.248116 24.456427 -0.411930 15
-10.841499 23.862894 -1.162697 26
-10.947787 24.107494 -0.767315 28
-11.046058 24.366688 -0.364233 16
-10.990839 24.320185 -1.594931 7
-10.745014 23.871441 -1.161279 22
-10.848805 24.112747 -0.766272 25
-10.944728 24.368530 -0.363689 15
-10.850104 24.234629 -1.586818 10
-10.657465 23.901905 -1.160924 22
-10.757080 24.136297 -0.765809 22
-10.857974 24.402933 -0.363634 15
-10.975117 24.677452 0.047138 21
-10.739542 24.213955 -1.583000 10
-10.733811 24.300842 -1.178473 12
-10.664689 24.155411 -0.765230 20
-10.759820 24.411406 -0.363199 14
-10.887297 24.711952 0.047131 20
-11.497977 24.042297 -0.721134 20
-10.677440 24.302475 -1.586341 8
-10.569091 24.166847 -0.764418 24
-10.666410 24.430546 -0.362927 16
-11.395262 24.042486 -0.719944 23
-10.480605 24.192282 -0.764071 25
-10.566779 24.434589 -0.362436 15
-11.306169 24.071259 -0.719620 24
-11.390238 24.345392 -0.314320 11
-10.385058 24.202997 -0.763260 27
-10.471973 24.449266 -0.362110 15
-11.188065 24.027004 -1.124755 1
-11.217013 24.099703 -0.719295 26
-11.291728 24.355972 -0.313945 14
-10.294256 24.224382 -0.762796 25
-10.378821 24.467234 -0.361837 13
-11.025400 23.895374 -1.116784 24
-11.114343 24.098797 -0.718105 25
-11.189666 24.359022 -0.313478 17
-10.207732 24.256630 -0.762680 12
-10.285606 24.484877 -0.361565 5
-10.900382 23.842850 -1.112544 15
-11.031816 24.141083 -0.718213 25
-11.092970 24.372450 -0.313150 13
-10.811358 23.857025 -1.111527 16
-10.933553 24.137468 -0.717023 26
-10.936141 24.229887 -1.537455 9
-11.012087 24.409101 -0.313150 15
-10.723131 23.883671 -1.111018 16
-10.836179 24.146282 -0.716157 25
-10.814201 24.183979 -1.532143 8
-10.918875 24.429037 -0.312916 19
-10.634824 23.910002 -1.110509 17
-10.746954 24.172998 -0.715833 23
-11.621365 24.117615 -0.672984 12
-10.723248 24.206976 -1.531219 9
-10.825438 24.448715 -0.312683 23
-10.953138 24.748314 0.099195 10
-10.606085 24.071321 -1.116275 10
-10.654450 24.192068 -0.715292 25
-11.511259 24.103909 -0.671476 39
-10.675591 24.328365 -1.536531 6
-10.733603 24.471703 -0.312495 26
-10.592307 24.269369 -1.123737 3
-10.558702 24.203478 -0.714534 25
-11.397811 24.082575 -0.669767 26
-10.639928 24.490774 -0.312262 27
-10.463124 24.203482 -1.118989 2
-10.466222 24.221834 -0.713993 23
-11.310282 24.114973 -0.669566 24
-10.540146 24.494699 -0.311841 27
-10.377973 24.238029 -0.713452 26
-11.184823 24.044065 -1.074354 36
-11.216763 24.123339 -0.668762 23
-10.447880 24.503763 -0.311513 24
-11.296290 24.420588 -0.262990 31
-10.287163 24.259338 -0.713020 23
-11.009124 23.883183 -1.065449 55
-11.122813 24.140388 -0.668159 25
-11.194312 24.423510 -0.262599 24
-10.194678 24.276667 -0.712479 26
-10.902443 23.870569 -1.063182 38
-11.030177 24.160879 -0.667656 28
-11.004479 24.232822 -1.487978 2
-11.094801 24.442522 -0.262365 25
-10.806644 23.892160 -1.062372 40
-10.934959 24.186569 -0.667254 25
-10.880638 24.183613 -1.482619 9
-10.996344 24.451893 -0.262052 26
-10.712741 23.908136 -1.061401 41
-10.835029 24.192072 -0.666350 25
-10.772731 24.157555 -1.478823 11
-10.907056 24.469957 -0.261857 28
-11.651474 24.122229 -0.621956 27
-10.628533 23.932571 -1.060915 48
-10.748256 24.213251 -0.665948 25
-10.696408 24.213276 -1.479940 10
-10.810264 24.482267 -0.261583 28
-11.543027 24.112257 -0.620657 13
-10.538491 23.954893 -1.060267 33
-10.649184 24.217678 -0.665043 25
-10.682128 24.411516 -1.489764 3
-10.716670 24.501554 -0.261388 33
-11.454025 24.141384 -0.620378 12
-10.559230 24.229412 -1.070792 20
-10.563714 24.250719 -0.664942 25
-10.618358 24.509453 -0.261075 34
-11.344163 24.126936 -0.618985 13
-10.436575 24.178055 -1.066906 8
-10.463158 24.250731 -0.663937 25
-10.528008 24.535341 -0.260957 42
-11.150476 23.921188 -1.018505 31
-11.254808 24.155514 -0.618707 12
-10.375300 24.279751 -0.663736 26
-10.441877 24.559082 -0.260840 15
-11.039312 23.889057 -1.015574 26
-11.156304 24.152719 -0.617686 13
-10.282460 24.284479 -0.662932 28
-11.271785 24.498470 -0.211804 28
-10.939217 23.891106 -1.014032 26
-11.065271 24.176971 -0.617314 13
-10.189898 24.301785 -0.662429 31
-11.154675 24.468515 -0.211207 19
-10.847498 23.910944 -1.013261 25
-10.975856 24.204523 -0.617036 12
-10.103473 24.333513 -0.662329 17
-10.950585 24.234009 -1.435586 14
-11.047792 24.459915 -0.210799 14
-10.765297 23.952448 -1.013415 26
-10.877784 24.213688 -0.616293 13
-10.828877 24.192396 -1.430842 19
-10.957825 24.491589 -0.210736 19
-10.676744 23.978926 -1.012952 26
-10.786693 24.236898 -0.615922 12
-10.721697 24.178930 -1.427823 18
-10.860921 24.504091 -0.210516 21
-10.581685 23.990450 -1.011872 30
-10.690732 24.248789 -0.615272 15
-10.680602 24.314947 -1.433645 15
-10.776927 24.545517 -0.210547 21
-10.499180 24.017946 -1.011564 27
-10.605864 24.272936 -0.614993 15
-10.682364 24.547564 -0.210265 25
-10.461335 24.160820 -1.016037 4
-10.509953 24.284121 -0.614343 13
-10.590280 24.570009 -0.210139 26
-10.373784 24.189842 -1.015729 5
-10.420395 24.309633 -0.614065 13
-10.468330 24.522217 -0.209416 5
-10.324019 24.320311 -0.613415 12
-10.228214 24.330395 -0.612765 12
-10.135539 24.347492 -0.612301 11
-10.052340 24.386286 -0.612394 2