# This PCD file was generated using the MATLAB® pcwrite function
# from Computer Vision Toolbox®.
# .PCD v.7 - Point Cloud Data file format
VERSION .7
FIELDS x y z intensity
SIZE 4 4 4 1
TYPE F F F U
COUNT 1 1 1 1
WIDTH 1513
HEIGHT 1
VIEWPOINT 0 0 0 1 0 0 0
POINTS 1513
DATA ascii
0.970445 2.757128 -0.079092 101
0.905028 2.857353 0.201179 100
0.786359 2.784703 -0.245526 101
1.440082 2.653790 0.167750 101
1.290765 2.568574 -0.277304 101
1.236192 2.667469 -0.006158 101
1.157518 2.721192 0.296727 101
1.040997 2.680862 -0.216239 101
0.973746 2.765019 0.055775 101
0.839687 2.649509 -0.799181 101
0.790154 2.796345 -0.112139 101
1.448648 2.668503 0.215518 101
1.303702 2.593232 -0.235059 101
1.236534 2.667032 0.038996 101
1.055541 2.716963 -0.174192 101
0.985768 2.797655 0.102029 101
0.864332 2.725681 -0.343499 92
0.793176 2.805236 -0.067683 101
1.364912 2.511233 -0.281256 101
1.318265 2.618905 -0.011770 101
1.249201 2.690794 0.281996 101
1.131656 2.655431 -0.178064 101
1.061544 2.728333 0.050079 101
0.954464 2.704459 -1.020214 9
0.876057 2.757825 -0.117232 101
0.816528 2.882268 0.160668 93
1.384375 2.546021 -0.240300 101
1.331224 2.643542 0.033579 101
1.136176 2.664794 -0.134081 101
1.073200 2.756921 0.096074 101
0.946191 2.679579 -0.356475 175
0.887864 2.793366 -0.073681 101
0.819508 2.890934 0.207484 87
1.403903 2.580901 -0.107733 101
1.356510 2.692627 0.173317 101
1.218285 2.621891 -0.273291 101
1.155105 2.707927 -0.000514 101
1.083943 2.783133 0.235063 101
0.966129 2.734578 -0.212471 101
0.896904 2.820163 0.061990 101
0.774613 2.730808 -0.684881 101
1.403051 2.578301 -0.062512 101
1.355605 2.689704 0.219602 100
1.220352 2.625182 -0.228856 101
1.161707 2.722135 0.044944 101
1.100420 2.824032 0.322835 100
0.968893 2.740934 -0.168134 101
0.900620 2.830200 0.107868 101
0.788695 2.778672 -0.336758 101
1.437787 2.641075 0.074542 101
1.272002 2.522768 -0.515788 101
1.235744 2.657124 -0.096188 101
1.175795 2.753865 0.183668 100
1.027251 2.634947 -0.300241 101
0.981577 2.775330 -0.034425 101
0.911937 2.864094 0.248176 101
0.796962 2.806002 -0.202441 101
1.429868 2.625476 0.120074 95
1.297952 2.573159 -0.322757 101
1.236668 2.657942 -0.051170 101
1.178145 2.758083 0.230247 101
1.048067 2.687007 -0.261465 101
0.982105 2.775336 0.010790 101
0.914764 2.871304 0.368943 58
0.790547 2.781633 -0.156108 101
1.448937 2.659425 0.263896 49
1.312696 2.601299 -0.190977 101
1.248608 2.682425 0.084714 101
1.118218 2.616572 -0.417751 101
1.059049 2.713811 -0.129228 101
0.986696 2.786821 0.147175 100
0.872579 2.737298 -0.293856 101
0.805271 2.831632 -0.023122 101
1.312500 2.599824 -0.146004 101
1.255111 2.695209 0.130849 101
1.131917 2.647395 -0.311259 101
1.063010 2.722611 -0.084704 101
1.000955 2.825582 0.195425 100
0.880362 2.760111 -0.251426 101
0.804655 2.827657 0.022064 101
1.360423 2.492178 -0.590165 101
1.324035 2.618517 -0.101953 101
1.257521 2.695887 0.176733 101
1.121241 2.617802 -0.263683 101
1.062182 2.715373 -0.039696 101
1.000302 2.818024 0.241119 100
0.879551 2.751500 -0.206048 101
0.810659 2.841866 0.067580 101
1.380987 2.528854 -0.328289 101
1.332239 2.633661 -0.057186 101
1.256670 2.692901 0.222399 101
1.138845 2.657688 -0.222990 101
1.074390 2.745244 0.005145 101
1.008243 2.838905 0.342181 100
0.885733 2.769259 -0.162552 101
0.816234 2.859616 0.113723 101
1.396755 2.556723 -0.196571 101
1.341477 2.650835 0.079353 101
1.214197 2.600763 -0.467139 101
1.148424 2.678818 -0.090068 101
1.077987 2.753093 0.141499 101
0.960442 2.702893 -0.298957 101
0.893628 2.792352 -0.028656 101
0.831916 2.912730 0.255967 7
1.400377 2.562345 -0.152011 101
1.343012 2.652779 0.125141 101
1.214812 2.600957 -0.315911 101
1.154006 2.690611 -0.045480 101
1.092084 2.787736 0.189417 101
0.968987 2.725513 -0.256635 101
0.897778 2.803722 0.016442 101
1.418024 2.593615 -0.017541 101
1.331949 2.629847 0.267243 101
1.226872 2.625645 -0.184367 101
1.161935 2.707860 0.090028 101
0.972370 2.733597 -0.123126 101
0.912902 2.849332 0.154710 100
0.794465 2.778125 -0.289938 101
1.441447 2.635421 0.028312 101
1.233436 2.638556 -0.140413 101
1.169582 2.724437 0.136190 101
1.034790 2.638912 -0.380727 101
0.985408 2.768799 -0.079525 101
0.914977 2.854183 0.201179 100
0.793863 2.774283 -0.244849 101
1.445478 2.641753 0.167307 101
1.303299 2.571168 -0.278072 101
1.242081 2.655903 -0.006141 101
1.177979 2.742745 0.299522 150
1.045953 2.666082 -0.215339 101
0.984707 2.765380 0.055851 101
0.848905 2.646570 -0.799181 101
0.799884 2.793577 -0.112139 101
1.457921 2.663448 0.215518 101
1.309108 2.581570 -0.234413 101
1.245804 2.662715 0.038996 101
1.066445 2.716992 -0.174431 101
0.994152 2.790444 0.101891 101
0.868953 2.707533 -0.341591 89
0.805132 2.810148 -0.067868 101
1.379357 2.516955 -0.282431 101
1.329155 2.617881 -0.011786 101
1.261909 2.693655 0.282753 101
1.137707 2.644153 -0.177571 101
1.071004 2.724633 0.050079 101
0.989174 2.772120 -1.047026 8
0.885621 2.754768 -0.117232 101
0.821014 2.860221 0.159597 89
1.393194 2.541206 -0.240300 101
1.338570 2.635345 0.033534 101
1.142249 2.653498 -0.133711 101
1.082753 2.753183 0.096074 101
0.948803 2.657593 -0.353985 101
0.897544 2.790271 -0.073681 101
0.830628 2.891911 0.207760 92
1.408992 2.569012 -0.107439 101
1.365830 2.687912 0.173317 101
1.234123 2.632077 -0.274796 101
1.167643 2.711257 -0.000515 101
1.097959 2.790493 0.236005 101
0.972913 2.723701 -0.211886 101
0.906669 2.817039 0.061990 101
0.784069 2.728108 -0.684881 101
1.413891 2.576935 -0.062597 101
1.370331 2.695665 0.220475 100
1.229432 2.620942 -0.228856 101
1.172705 2.721770 0.045005 100
1.108732 2.816505 0.322411 100
0.977031 2.733804 -0.167903 101
0.910412 2.827065 0.107868 101
0.796113 2.768289 -0.335832 101
1.441141 2.625570 0.074244 101
1.282503 2.521861 -0.516507 101
1.241530 2.645596 -0.095926 101
1.180572 2.738782 0.182934 101
1.040731 2.642481 -0.301508 101
0.987130 2.760620 -0.034285 101
0.919392 2.853334 0.247517 101
0.800042 2.780220 -0.200779 101
1.444704 2.631029 0.120556 88
1.297825 2.550943 -0.320531 101
1.245847 2.653653 -0.051170 101
1.189249 2.757658 0.230554 101
1.057347 2.683369 -0.261465 101
0.990343 2.768159 0.010776 101
0.929555 2.883240 0.370888 65
0.801260 2.782722 -0.156323 101
1.323481 2.600308 -0.191239 101
1.251064 2.663621 0.084256 101
1.125679 2.609061 -0.417170 101
1.066948 2.706421 -0.129051 101
0.993621 2.775874 0.146777 100
0.879582 2.726694 -0.293042 101
0.815045 2.828834 -0.023122 101
1.317837 2.588160 -0.145604 101
1.259304 2.680012 0.130322 101
1.133164 2.625217 -0.309109 101
1.070931 2.715208 -0.084588 101
1.005315 2.807081 0.194384 100
0.882536 2.734303 -0.249351 101
0.814407 2.824864 0.022064 101
1.374780 2.497707 -0.592607 101
1.329535 2.606757 -0.101675 101
1.266923 2.691481 0.176733 101
1.131953 2.617528 -0.264052 101
1.073124 2.715368 -0.039750 101
1.011479 2.818268 0.241440 100
0.886694 2.740820 -0.205479 101
0.819464 2.835177 0.067488 101
1.389806 2.524018 -0.328289 101
1.341424 2.628995 -0.057186 101
1.267762 2.692107 0.222698 101
1.141781 2.639056 -0.221760 101
1.079554 2.730317 0.005124 101
1.016803 2.831628 0.341729 100
0.891704 2.754752 -0.161882 101
0.819548 2.833711 0.112806 100
1.401820 2.544841 -0.196032 101
1.350722 2.646136 0.079353 101
1.219903 2.589366 -0.465854 101
1.157768 2.674793 -0.090068 101
1.092000 2.760459 0.142073 101
0.972561 2.707013 -0.299786 101
0.903370 2.789216 -0.028656 101
0.833214 2.879179 0.253272 68
1.418952 2.574934 -0.153051 101
1.355899 2.655193 0.125477 101
1.232359 2.614683 -0.318098 101
1.168159 2.697577 -0.045666 101
1.101808 2.783907 0.189417 100
0.979843 2.725863 -0.256988 101
0.908793 2.804377 0.016465 101
1.427068 2.588649 -0.017541 101
1.342933 2.628729 0.267605 101
1.234327 2.617736 -0.184113 101
1.172969 2.707456 0.090150 101
0.984612 2.737707 -0.123465 101
0.922843 2.846128 0.154710 100
0.801942 2.767689 -0.289139 101
1.448706 2.626871 0.028274 101
1.237525 2.623394 -0.139835 101
1.179085 2.720337 0.136190 101
1.039615 2.624227 -0.379130 101
0.989652 2.750293 -0.079092 101
0.921240 2.839583 0.200376 100
0.802432 2.767667 -0.244511 101
1.458549 2.643685 0.167750 101
1.314078 2.570148 -0.278456 101
1.256466 2.662403 -0.006166 101
1.179629 2.720359 0.297525 101
1.058192 2.669831 -0.215939 101
0.998418 2.773215 0.056080 101
0.861699 2.654560 -0.802497 101
0.808517 2.786929 -0.111985 101
1.476849 2.675808 0.216935 101
1.319927 2.580534 -0.234736 101
1.256798 2.661967 0.039050 101
1.075922 2.713253 -0.174431 101
1.007951 2.798240 0.102304 101
0.883306 2.719592 -0.343499 92
0.814936 2.807321 -0.067868 101
1.395836 2.526062 -0.283998 101
1.341932 2.620346 -0.011818 101
1.271304 2.689234 0.282753 101
1.153293 2.654813 -0.178556 101
1.083461 2.728312 0.050216 101
1.014192 2.811190 -1.063114 22
0.897704 2.759261 -0.117556 101
0.823185 2.830490 0.158097 90
1.400128 2.532839 -0.239970 101
1.347761 2.630656 0.033534 101
1.151504 2.649495 -0.133711 101
1.089404 2.741956 0.095814 101
0.960769 2.661731 -0.354981 101
0.901089 2.768109 -0.073179 101
0.844063 2.900488 0.208587 100
1.419885 2.567576 -0.107586 101
1.369740 2.672466 0.172628 101
1.241600 2.624153 -0.274420 101
1.173910 2.699828 -0.000514 101
1.104747 2.779232 0.235377 101
0.982414 2.720288 -0.211886 101
0.912781 2.802449 0.061738 101
0.792500 2.721621 -0.683943 101
1.424814 2.575483 -0.062682 101
1.381552 2.694415 0.220766 100
1.235161 2.609426 -0.228225 101
1.182199 2.717660 0.045005 101
1.115617 2.805226 0.321564 100
0.985211 2.726621 -0.167672 101
0.919036 2.820070 0.107723 101
0.802437 2.754049 -0.334442 101
1.458043 2.634518 0.074641 101
1.300278 2.534875 -0.520099 101
1.254179 2.648472 -0.096188 101
1.196498 2.749288 0.183913 100
1.052890 2.646224 -0.302352 101
0.996761 2.757157 -0.034285 101
0.929347 2.850108 0.247517 101
0.813092 2.788903 -0.201610 101
1.451943 2.622473 0.120395 92
1.313981 2.560544 -0.322312 101
1.256814 2.652902 -0.051240 101
1.200460 2.757146 0.230860 100
1.066708 2.679662 -0.261465 101
1.001360 2.768447 0.010790 101
0.934688 2.864880 0.368943 68
0.807613 2.768406 -0.155676 101
1.332550 2.595672 -0.191239 101
1.268917 2.677303 0.084828 101
1.137940 2.612373 -0.418332 101
1.080824 2.713817 -0.129582 101
1.015540 2.806199 0.148567 87
0.894034 2.738738 -0.294670 101
0.828277 2.837491 -0.023216 101
1.330513 2.590651 -0.146004 101
1.273788 2.686432 0.130849 101
1.145499 2.628537 -0.309969 101
1.080402 2.711453 -0.084588 101
1.017825 2.811060 0.194904 100
0.894550 2.738781 -0.250043 101
0.823141 2.818164 0.022034 101
1.385390 2.496318 -0.593421 101
1.338626 2.602101 -0.101675 101
1.274598 2.683435 0.176496 101
1.142677 2.617212 -0.264420 101
1.082596 2.711606 -0.039750 101
1.021311 2.814720 0.241440 100
0.896256 2.737709 -0.205479 101
0.830479 2.836137 0.067580 101
1.398608 2.519151 -0.328289 101
1.350593 2.624296 -0.057186 101
1.277152 2.687665 0.222698 101
1.157371 2.649673 -0.222990 101
1.093529 2.737676 0.005145 101
1.028038 2.831797 0.342181 100
0.900071 2.747827 -0.161659 101
0.828311 2.826997 0.112653 101
1.414570 2.546910 -0.196571 101
1.359951 2.641405 0.079353 101
1.234019 2.595789 -0.467781 101
1.168698 2.674399 -0.090191 101
1.103112 2.760341 0.142264 101
0.986079 2.714819 -0.301030 101
0.916838 2.797448 -0.028774 101
0.846624 2.887727 0.254283 84
1.416291 2.549015 -0.151803 101
1.365159 2.650444 0.125477 101
1.238063 2.603184 -0.317223 101
1.172762 2.682489 -0.045480 101
1.110037 2.776338 0.189164 100
0.990713 2.726171 -0.257341 101
0.921069 2.808789 0.016509 101
1.439982 2.590644 -0.017589 101
1.352101 2.624025 0.267605 101
1.246887 2.620620 -0.184621 101
1.184015 2.707008 0.090272 101
0.994162 2.734254 -0.123465 101
0.930281 2.835298 0.154297 100
0.808236 2.753416 -0.287941 101
1.457867 2.621798 0.028274 101
1.251827 2.629880 -0.140413 101
1.190175 2.719866 0.136373 101
1.056134 2.638985 -0.381792 101
1.003347 2.758094 -0.079417 101
0.934881 2.847726 0.201179 100
0.817704 2.783970 -0.246202 101
1.467768 2.638578 0.167750 101
1.323042 2.565545 -0.278456 101
1.264032 2.654390 -0.006158 101
1.197098 2.734455 0.299522 101
1.066023 2.662418 -0.215639 101
1.001253 2.750922 0.055699 101
0.866161 2.636927 -0.798075 101
0.819367 2.787925 -0.112139 101
1.484241 2.667150 0.216651 100
1.330755 2.579454 -0.235059 101
1.266083 2.657564 0.039050 101
1.082417 2.702068 -0.173953 101
1.019080 2.798461 0.102441 101
0.894034 2.720265 -0.343976 92
0.822474 2.796786 -0.067683 101
1.404645 2.521174 -0.283998 101
1.349235 2.612092 -0.011802 101
1.285827 2.695562 0.283889 101
1.160950 2.647115 -0.178310 101
1.091489 2.720802 0.050147 101
0.903581 2.744722 -0.117070 101
0.836447 2.839094 0.158740 100
1.412842 2.534900 -0.240631 101
1.360608 2.633042 0.033625 101
1.159140 2.641800 -0.133526 101
1.098969 2.738137 0.095814 101
0.972776 2.665818 -0.355977 101
0.913248 2.772543 -0.073380 101
0.849669 2.882214 0.207484 95
1.432732 2.569587 -0.107879 101
1.382728 2.674763 0.173088 101
1.252468 2.623397 -0.274796 101
1.186543 2.703039 -0.000515 101
1.118899 2.786460 0.236319 101
0.996008 2.728084 -0.212763 101
0.926313 2.810641 0.061990 101
0.803095 2.722568 -0.684881 101
1.431847 2.567001 -0.062597 101
1.387284 2.682489 0.220184 101
1.249418 2.615894 -0.229171 101
1.186853 2.702531 0.044823 101
1.128367 2.808696 0.322411 100
0.996093 2.726916 -0.167903 101
0.932630 2.828233 0.108159 101
0.814295 2.758853 -0.335368 101
1.461384 2.618937 0.074343 101
1.303694 2.519836 -0.517944 101
1.261693 2.640471 -0.096057 101
1.201270 2.734129 0.183178 100
1.066571 2.653605 -0.303619 101
1.006379 2.753661 -0.034285 101
0.945535 2.865775 0.249163 101
0.823953 2.789875 -0.201887 101
1.464985 2.624369 0.120716 100
1.324738 2.559472 -0.322757 101
1.262617 2.641282 -0.051101 101
1.206867 2.745637 0.230247 101
1.079027 2.683314 -0.262187 101
1.013765 2.772448 0.010820 101
0.940948 2.850289 0.367485 63
0.816140 2.761739 -0.155461 101
1.339767 2.587461 -0.190977 101
1.271354 2.658429 0.084370 101
1.142273 2.597516 -0.416589 101
1.079850 2.684077 -0.128342 101
1.017094 2.780125 0.147374 98
0.901093 2.728044 -0.293856 101
0.833639 2.819240 -0.023090 101
1.335873 2.578896 -0.145604 101
1.279708 2.674760 0.130497 101
1.154667 2.624523 -0.309969 101
1.089860 2.707665 -0.084588 101
1.024887 2.799994 0.194384 100
0.904104 2.735642 -0.250043 101
0.831838 2.811438 0.022004 101
1.392172 2.488055 -0.592607 101
1.345847 2.593870 -0.101536 101
1.283944 2.678976 0.176496 101
1.148580 2.605923 -0.263683 101
1.089050 2.700397 -0.039641 101
1.026998 2.799913 0.240476 100
0.908303 2.742143 -0.206048 101
0.836950 2.821723 0.067305 101
1.409326 2.517726 -0.328742 101
1.361580 2.623120 -0.057263 101
1.284793 2.679598 0.222399 101
1.163387 2.638322 -0.222375 101
1.098581 2.722717 0.005124 101
1.033800 2.817001 0.340826 100
0.910906 2.748462 -0.161882 101
0.839303 2.827923 0.112806 101
1.423449 2.541958 -0.196571 101
1.361789 2.622449 0.078926 101
1.243070 2.591467 -0.467781 101
1.174796 2.662989 -0.089944 101
1.105259 2.737950 0.141308 101
0.994175 2.707627 -0.300616 101
0.920299 2.775249 -0.028578 101
0.858965 2.892397 0.254956 95
1.431039 2.554509 -0.152427 101
1.368877 2.635022 0.124973 101
1.247144 2.598846 -0.317223 101
1.180505 2.674719 -0.045418 101
1.118229 2.768744 0.188912 100
0.996103 2.711476 -0.256281 101
0.927091 2.794167 0.016442 101
1.447067 2.582109 -0.017565 101
1.370444 2.636960 0.269410 101
1.252578 2.609051 -0.184113 101
1.190234 2.695541 0.090028 101
1.000950 2.723262 -0.123126 101
0.937663 2.824448 0.153884 100
0.818983 2.754391 -0.288340 101
1.463109 2.609709 0.028199 101
1.255821 2.614685 -0.139835 101
1.199673 2.715690 0.136373 101
1.060893 2.624251 -0.380195 101
1.006080 2.735807 -0.078876 101
0.943570 2.840653 0.200911 100
0.826293 2.777275 -0.245864 101
1.482847 2.643879 0.168416 101
1.333842 2.564435 -0.278841 101
1.278503 2.660770 -0.006183 101
1.198608 2.712050 0.297525 101
1.081308 2.673465 -0.216838 101
1.013628 2.754911 0.055851 101
0.879014 2.644826 -0.801392 101
0.831392 2.792705 -0.112447 101
1.495515 2.665421 0.216935 101
1.341611 2.578319 -0.235382 101
1.273639 2.649513 0.038996 101
1.091864 2.698264 -0.173953 101
1.023340 2.779872 0.101891 101
0.904798 2.720889 -0.344453 92
0.832254 2.793891 -0.067683 101
1.415420 2.519707 -0.284390 101
1.358379 2.607349 -0.011802 101
1.291810 2.683864 0.283132 101
1.171834 2.646681 -0.178556 101
1.101015 2.716960 0.050147 101
0.915719 2.749123 -0.117394 101
0.847532 2.839973 0.158954 100
1.421720 2.529932 -0.240631 101
1.371679 2.631803 0.033670 101
1.168394 2.637721 -0.133526 101
1.111565 2.741677 0.096074 101
0.982115 2.662392 -0.355977 101
0.922962 2.769324 -0.073380 101
0.848350 2.840981 0.204729 92
1.441736 2.564546 -0.107879 101
1.388409 2.662815 0.172628 101
1.261662 2.618988 -0.274796 101
1.192775 2.691546 -0.000514 101
1.124169 2.771433 0.235377 101
0.998664 2.705861 -0.211301 101
0.929840 2.788406 0.061571 101
0.811527 2.716009 -0.683943 101
1.442807 2.565446 -0.062682 101
1.396689 2.677604 0.220184 100
1.258590 2.611493 -0.229171 101
1.201193 2.709318 0.045005 100
1.136721 2.801033 0.321988 100
1.002890 2.715912 -0.167441 101
0.937488 2.809776 0.107578 101
0.820557 2.744558 -0.333979 101
1.476453 2.624245 0.074641 101
1.314354 2.518731 -0.518662 101
1.272692 2.639626 -0.096188 101
1.210862 2.729894 0.183178 100
1.071392 2.638787 -0.302352 101
1.014655 2.746359 -0.034238 101
0.949279 2.843531 0.247517 101
0.826881 2.764026 -0.200225 101
1.472234 2.615723 0.120556 100
1.330042 2.547755 -0.321867 101
1.270150 2.633228 -0.051031 101
1.210034 2.726798 0.229023 100
1.085448 2.672125 -0.261465 101
1.020724 2.761366 0.010790 101
0.945924 2.831903 0.365541 76
0.826982 2.762681 -0.155676 101
1.347005 2.579198 -0.190716 101
1.284165 2.661146 0.084599 101
1.153001 2.597103 -0.417170 101
1.095295 2.695073 -0.129051 101
1.025473 2.772787 0.147175 90
0.909414 2.721086 -0.293449 101
0.844691 2.820124 -0.023122 101
1.348634 2.581264 -0.146004 101
1.290843 2.673842 0.130673 101
1.167117 2.627715 -0.310829 101
1.099375 2.703816 -0.084588 101
1.037498 2.803859 0.194904 100
0.914982 2.736225 -0.250389 101
0.840571 2.804664 0.021974 101
1.406621 2.493413 -0.595049 101
1.360454 2.599782 -0.101953 101
1.293288 2.674478 0.176496 101
1.162527 2.612815 -0.264789 101
1.104505 2.711395 -0.039859 101
1.039537 2.803787 0.241119 100
0.919137 2.742738 -0.206333 101
0.850246 2.830274 0.067580 101
1.420060 2.516252 -0.329195 101
1.370728 2.618351 -0.057263 101
1.299350 2.685869 0.223295 101
1.174212 2.637888 -0.222682 101
1.108078 2.718866 0.005124 101
1.042245 2.809649 0.340375 100
0.924303 2.756625 -0.162552 101
0.848019 2.821148 0.112653 101
1.428389 2.530024 -0.196032 101
1.376500 2.628306 0.079247 101
1.245229 2.572897 -0.465211 101
1.184085 2.658871 -0.089944 101
1.122353 2.752574 0.142264 101
1.003621 2.704141 -0.300616 101
0.931253 2.775812 -0.028617 101
0.873648 2.904649 0.256304 100
1.436018 2.542542 -0.152011 101
1.379922 2.633768 0.125141 101
1.254475 2.590898 -0.316786 101
1.191462 2.674235 -0.045480 101
1.130902 2.772216 0.189417 100
1.006948 2.711717 -0.256635 101
0.938112 2.794706 0.016465 101
1.454104 2.573560 -0.017541 101
1.381490 2.635688 0.269771 101
1.261678 2.604663 -0.184113 101
1.199636 2.691370 0.090028 101
1.007666 2.712259 -0.122787 101
0.951331 2.832519 0.154503 100
0.828593 2.751516 -0.288340 101
1.470241 2.601104 0.028161 101
1.264940 2.610285 -0.139835 101
1.204263 2.700537 0.135823 100
1.068548 2.616862 -0.379662 101
1.019803 2.743522 -0.079200 101
0.952208 2.833559 0.200644 99
0.830233 2.755293 -0.244173 101
1.492067 2.638687 0.168416 101
1.340936 2.556238 -0.278456 101
1.280803 2.641894 -0.006149 101
1.211311 2.715119 0.298324 101
1.087617 2.662290 -0.216239 101
1.024632 2.755104 0.055927 101
0.884565 2.630810 -0.798075 101
0.838827 2.782132 -0.112139 101
1.508739 2.667130 0.217501 99
1.352456 2.577151 -0.235705 101
1.286371 2.652249 0.039103 101
1.111850 2.720309 -0.175624 101
1.038614 2.791270 0.102441 101
0.911758 2.710186 -0.343499 92
0.846621 2.806283 -0.068054 101
1.420283 2.507823 -0.283606 101
1.369333 2.606132 -0.011818 101
1.302910 2.682921 0.283510 101
1.177808 2.635285 -0.178064 101
1.110493 2.713101 0.050147 101
0.921481 2.734547 -0.116908 101
0.857440 2.836997 0.158954 101
1.434472 2.531890 -0.241292 101
1.377135 2.619918 0.033579 101
1.179226 2.637274 -0.133711 101
1.121129 2.737780 0.096074 101
0.991403 2.658947 -0.355977 138
0.932624 2.766085 -0.073380 101
0.864037 2.857100 0.206107 100
1.452650 2.562975 -0.108026 101
1.403271 2.668556 0.173317 101
1.272537 2.618149 -0.275173 101
1.205430 2.694669 -0.000515 101
1.138372 2.778562 0.236319 101
1.010892 2.709834 -0.211886 101
0.942124 2.792722 0.061738 101
0.821002 2.713159 -0.683943 101
1.453726 2.563873 -0.062767 101
1.406027 2.672712 0.220184 100
1.267698 2.607084 -0.229171 101
1.207375 2.697808 0.044883 101
1.143475 2.789688 0.321140 100
1.015157 2.719877 -0.167903 101
0.943455 2.795124 0.107142 101
0.830132 2.741677 -0.333979 101
1.485604 2.619075 0.074641 101
1.323138 2.514128 -0.518662 101
1.283648 2.638762 -0.096319 101
1.220384 2.725651 0.183178 100
1.085124 2.646072 -0.303619 101
1.025635 2.746547 -0.034285 101
0.963026 2.851531 0.248505 101
0.841152 2.776399 -0.201333 101
1.485301 2.617521 0.120877 95
1.344482 2.553649 -0.323202 101
1.281084 2.632375 -0.051101 101
1.226067 2.737117 0.230247 100
1.100818 2.683062 -0.262910 101
1.028957 2.754039 0.010776 100
0.968513 2.866198 0.370402 85
0.837779 2.763601 -0.155892 101
1.363440 2.588606 -0.191762 101
1.293447 2.656647 0.084599 101
1.166915 2.603897 -0.418913 101
1.107731 2.698627 -0.129405 101
1.036544 2.772932 0.147374 90
0.921456 2.725434 -0.294263 101
0.852208 2.809503 -0.023059 101
1.357636 2.576541 -0.146004 101
1.294919 2.658542 0.130146 101
1.173029 2.616367 -0.309969 101
1.105769 2.692564 -0.084356 101
1.044482 2.792743 0.194384 100
0.923251 2.729240 -0.250043 101
0.851518 2.805540 0.022004 101
1.411444 2.481680 -0.593421 101
1.365789 2.587947 -0.101675 101
1.297363 2.659181 0.175784 101
1.165113 2.594208 -0.263314 101
1.112441 2.703825 -0.039805 101
1.045120 2.788941 0.240154 100
0.923581 2.724399 -0.205194 101
0.856628 2.815811 0.067305 101
1.426869 2.507826 -0.328742 101
1.377993 2.610013 -0.057186 101
1.313967 2.692071 0.224190 100
1.183412 2.633774 -0.222682 101
1.119085 2.718680 0.005131 101
1.057627 2.820880 0.342181 100
0.932637 2.749600 -0.162329 101
0.860189 2.825819 0.112959 101
1.445109 2.538896 -0.197109 101
1.383799 2.619949 0.079140 101
1.255934 2.572083 -0.465854 101
1.196637 2.662015 -0.090191 101
1.125868 2.733861 0.141499 100
1.014451 2.704346 -0.301030 101
0.940937 2.772544 -0.028617 101
0.876814 2.878704 0.254283 100
1.450814 2.547928 -0.152635 101
1.389107 2.628935 0.125141 101
1.265257 2.590076 -0.317223 101
1.202430 2.673707 -0.045542 101
1.134489 2.753488 0.188406 95
1.015008 2.704455 -0.256281 101
0.944003 2.780051 0.016398 101
1.467038 2.575419 -0.017589 101
1.388820 2.627328 0.269410 101
1.276021 2.611003 -0.184875 101
1.213945 2.698104 0.090394 101
1.021342 2.719949 -0.123296 101
0.954788 2.810269 0.153470 100
0.838192 2.748606 -0.288340 101
1.475351 2.589006 0.028085 101
1.274044 2.605854 -0.139835 101
1.213683 2.696317 0.135823 101
1.082210 2.624111 -0.381260 101
1.025155 2.728716 -0.078876 101
0.960809 2.826439 0.200376 100
0.841009 2.756190 -0.244511 101
1.497312 2.626523 0.167972 101
1.347989 2.548022 -0.278072 101
1.293532 2.644593 -0.006166 101
1.215878 2.699988 0.297126 101
1.098425 2.662164 -0.216539 101
1.035650 2.755255 0.056004 101
0.893743 2.627707 -0.798075 101
0.852035 2.790655 -0.112602 101
1.520016 2.665314 0.217784 80
1.363309 2.575938 -0.236028 101
1.299137 2.654928 0.039209 101
1.119816 2.712721 -0.175385 101
1.044129 2.776402 0.102029 101
0.922492 2.710746 -0.343976 92
0.855243 2.799486 -0.067961 101
1.438898 2.520135 -0.285565 101
1.378421 2.601336 -0.011818 101
1.307011 2.667629 0.282375 101
1.193566 2.645715 -0.179049 101
1.119956 2.709208 0.050147 101
0.936179 2.746446 -0.117556 101
0.865000 2.826348 0.158526 101
1.445279 2.530329 -0.241623 101
1.390019 2.622163 0.033670 101
1.193355 2.644067 -0.134266 101
1.132207 2.737544 0.096204 101
0.996480 2.644329 -0.354483 101
0.944855 2.770382 -0.073581 101
0.872837 2.850251 0.205831 101
1.457622 2.550947 -0.107733 101
1.412578 2.663641 0.173317 101
1.279915 2.610116 -0.274796 101
1.216475 2.694091 -0.000516 101
1.140440 2.756148 0.234750 101
1.018938 2.702556 -0.211594 101
0.950576 2.785631 0.061654 101
0.829329 2.706559 -0.683005 101
1.460682 2.555311 -0.062682 101
1.419087 2.674836 0.220766 100
1.282060 2.613383 -0.230117 101
1.221725 2.704511 0.045065 101
1.156248 2.793030 0.321988 96
1.023235 2.712580 -0.167672 101
0.954498 2.795596 0.107288 101
0.837368 2.731166 -0.333052 101
1.492752 2.610402 0.074542 101
1.331906 2.509494 -0.518662 101
1.292851 2.634266 -0.096319 101
1.226602 2.714098 0.182689 100
1.086744 2.623893 -0.301508 101
1.035215 2.742950 -0.034285 101
0.969108 2.836834 0.247517 100
0.850839 2.773446 -0.201333 101
1.490460 2.605381 0.120556 100
1.358981 2.559473 -0.324538 101
1.293791 2.635067 -0.051240 101
1.240543 2.743723 0.231166 99
1.110177 2.679203 -0.262910 101
1.041390 2.757915 0.010805 101
0.974660 2.851528 0.368943 86
0.849765 2.768296 -0.156323 101
1.372468 2.583831 -0.191762 101
1.300949 2.648527 0.084485 101
1.174366 2.596202 -0.418332 101
1.121735 2.705818 -0.129937 101
1.047629 2.773034 0.147573 100
0.929676 2.718436 -0.293856 101
0.863184 2.810335 -0.023090 101
1.368496 2.575314 -0.146204 101
1.305954 2.657592 0.130322 101
1.182155 2.612257 -0.309969 101
1.119756 2.699768 -0.084704 101
1.058458 2.800282 0.195164 100
0.934063 2.729771 -0.250389 101
0.860131 2.798728 0.021974 101
1.425935 2.486934 -0.595863 101
1.376685 2.586696 -0.101814 101
1.315447 2.672553 0.176970 101
1.179088 2.601011 -0.264420 101
1.123400 2.703621 -0.039859 101
1.057666 2.792736 0.240797 101
0.936961 2.732483 -0.206048 101
0.866445 2.812806 0.067305 101
1.435610 2.502832 -0.328742 101
1.388970 2.608720 -0.057263 101
1.318065 2.676735 0.223295 101
1.194242 2.633261 -0.222990 101
1.131634 2.722147 0.005145 101
1.064646 2.809739 0.341278 100
0.939633 2.738774 -0.161882 101
0.870043 2.822800 0.112959 101
1.448002 2.523452 -0.196302 101
1.398573 2.625691 0.079460 101
1.261414 2.560601 -0.464569 101
1.205920 2.657823 -0.090191 101
1.135403 2.729916 0.141499 101
1.019652 2.689629 -0.299786 101
0.949309 2.765460 -0.028578 101
0.876283 2.841348 0.251252 100
1.457711 2.539383 -0.152427 101
1.400155 2.627596 0.125309 101
1.270776 2.578511 -0.316348 101
1.210104 2.665852 -0.045480 101
1.150229 2.764253 0.189417 100
1.028682 2.712072 -0.257341 101
0.956301 2.784305 0.016442 101
1.474031 2.566812 -0.017565 101
1.401734 2.629493 0.270133 101
1.283365 2.602951 -0.184621 101
1.218400 2.682928 0.090028 101
1.027998 2.708893 -0.122956 101
0.963297 2.803140 0.153264 100
0.846611 2.741860 -0.287941 101
1.490363 2.594241 0.028199 101
1.281371 2.597805 -0.139642 101
1.224747 2.695699 0.136006 101
1.089846 2.616655 -0.380727 101
1.038938 2.736333 -0.079200 101
0.971974 2.826840 0.200644 100
0.851807 2.757044 -0.244849 101
1.512451 2.631664 0.168638 101
1.364380 2.557348 -0.279609 101
1.300995 2.636470 -0.006158 101
1.231892 2.710216 0.298724 101
1.106186 2.654628 -0.216239 101
1.042431 2.744142 0.055851 101
0.904169 2.628203 -0.799181 101
0.859420 2.780024 -0.112293 101
1.517390 2.639231 0.216085 55
1.364794 2.557088 -0.234736 101
1.306638 2.646785 0.039156 101
1.124681 2.697734 -0.174669 101
1.060928 2.791420 0.102716 101
0.928083 2.696240 -0.342545 89
0.865022 2.796480 -0.067961 101
1.443733 2.508187 -0.284781 101
1.387513 2.596498 -0.011818 101
1.323393 2.677319 0.283889 101
1.197851 2.630623 -0.178310 101
1.130967 2.708964 0.050216 101
0.945780 2.743155 -0.117556 101
0.881975 2.846197 0.159811 101
1.456113 2.528711 -0.241953 101
1.408614 2.634920 0.033897 101
1.205913 2.647148 -0.134636 101
1.140238 2.729877 0.096074 101
1.014201 2.663080 -0.357470 101
0.954543 2.767059 -0.073581 101
0.879259 2.835745 0.205004 101
1.470532 2.552758 -0.108026 101
1.414359 2.644595 0.172399 101
1.289043 2.605620 -0.274796 101
1.222579 2.682537 -0.000515 101
1.154693 2.763178 0.235691 101
1.029811 2.702701 -0.211886 101
0.960320 2.782287 0.061654 101
0.839949 2.707354 -0.683943 101
1.473613 2.557112 -0.062852 101
1.426562 2.666334 0.220475 101
1.291201 2.608878 -0.230117 101
1.234505 2.707496 0.045187 100
1.169088 2.796304 0.322835 100
1.036994 2.720175 -0.168365 101
0.969499 2.807351 0.107868 101
0.851637 2.743395 -0.334905 101
1.505880 2.612087 0.074740 101
1.344400 2.511753 -0.520099 101
1.303842 2.633305 -0.096451 101
1.239413 2.717051 0.183178 100
1.100531 2.631080 -0.302774 101
1.047666 2.746783 -0.034379 101
0.980339 2.837191 0.247847 92
0.858179 2.762828 -0.200779 101
1.503571 2.607069 0.120877 100
1.364186 2.547688 -0.323647 101
1.299463 2.623351 -0.051101 101
1.248491 2.735732 0.230860 99
1.114942 2.664273 -0.261826 101
1.049619 2.750513 0.010790 101
0.980751 2.836839 0.367485 76
0.858272 2.761488 -0.156108 101
1.381513 2.579006 -0.191762 101
1.313773 2.651118 0.084714 101
1.185100 2.595671 -0.418913 101
1.131210 2.701871 -0.129937 101
1.057340 2.769346 0.147573 100
0.940497 2.718922 -0.294263 101
0.876590 2.818751 -0.023185 101
1.379401 2.574023 -0.146405 101
1.320586 2.663739 0.130849 101
1.192956 2.611715 -0.310399 101
1.130757 2.699514 -0.084820 101
1.065418 2.789097 0.194644 100
0.943625 2.726480 -0.250389 101
0.874689 2.810972 0.022094 101
1.430688 2.475160 -0.594235 101
1.387597 2.585397 -0.101953 101
1.322992 2.664368 0.176733 101
1.189817 2.600501 -0.264789 101
1.132830 2.699683 -0.039859 101
1.070258 2.796474 0.241440 100
0.946493 2.729196 -0.206048 101
0.875067 2.805947 0.067214 101
1.448317 2.504687 -0.329648 101
1.398068 2.603856 -0.057263 101
1.323851 2.664973 0.222698 101
1.203426 2.629076 -0.222990 101
1.139581 2.714492 0.005138 101
1.068762 2.791159 0.339472 97
0.949187 2.735477 -0.161882 101
0.879891 2.819746 0.112959 101
1.460799 2.525292 -0.196840 101
1.409622 2.624316 0.079567 101
1.277373 2.570324 -0.467139 101
1.215190 2.653597 -0.090191 101
1.146472 2.729619 0.141690 101
1.024765 2.674907 -0.298542 101
0.960268 2.765909 -0.028617 101
0.886196 2.838272 0.251252 101
1.466567 2.534279 -0.152427 101
1.409319 2.622693 0.125309 101
1.283309 2.581179 -0.317223 101
1.217736 2.657975 -0.045418 101
1.159871 2.760221 0.189417 100
1.035291 2.701024 -0.256635 101
0.967327 2.784728 0.016465 101
0.917529 2.936887 0.409450 0
1.486990 2.568574 -0.017612 101
1.410904 2.624584 0.270133 43
1.292443 2.598455 -0.184621 101
1.229423 2.682293 0.090150 101
1.037447 2.705288 -0.122956 101
0.977010 2.811080 0.153884 100
0.852614 2.727492 -0.286743 101
1.505423 2.599407 0.028312 101
1.292211 2.596893 -0.139835 101
1.234149 2.691408 0.136006 101
1.097436 2.609180 -0.380195 101
1.045618 2.725224 -0.078984 101
0.979214 2.815891 0.200108 100
0.862616 2.757857 -0.245188 101
1.527634 2.636736 0.169304 101
1.371412 2.549064 -0.279225 101
1.313755 2.639075 -0.006174 101
1.243005 2.709517 0.299123 101
1.120086 2.661780 -0.217138 101
1.056303 2.751687 0.056080 101
0.909548 2.614139 -0.795865 101
0.872700 2.788450 -0.112756 101
1.386939 2.576884 -0.236996 101
1.319435 2.649368 0.039262 101
1.135640 2.697472 -0.174908 101
1.069232 2.783968 0.102579 101
0.941406 2.704236 -0.343976 92
0.872389 2.785811 -0.067776 101
1.448483 2.496245 -0.283998 101
1.398465 2.595161 -0.011834 101
1.332730 2.672683 0.283889 101
1.212027 2.637308 -0.179049 101
1.143524 2.712370 0.050352 101
0.954034 2.736063 -0.117394 101
0.890709 2.839290 0.159597 101
1.460928 2.516717 -0.241292 101
1.410211 2.615904 0.033716 101
1.206800 2.624770 -0.133711 101
1.149760 2.725880 0.096074 101
1.014938 2.637299 -0.354483 101
0.961562 2.756159 -0.073380 101
0.893933 2.847888 0.206107 101
1.483448 2.554522 -0.108319 101
1.433059 2.657216 0.173547 101
1.298131 2.601104 -0.274796 101
1.235279 2.685521 -0.000516 101
1.165882 2.762804 0.236005 100
1.042106 2.706536 -0.212471 101
0.972662 2.786469 0.061822 101
0.847064 2.696986 -0.682067 101
1.486548 2.558868 -0.063023 101
1.435860 2.661338 0.220475 100
1.302081 2.607923 -0.230432 101
1.238932 2.692270 0.045005 101
1.180389 2.795870 0.323259 100
1.049353 2.723992 -0.168827 101
0.980611 2.807724 0.108014 101
0.861208 2.740406 -0.334905 101
1.521016 2.617186 0.075037 101
1.347552 2.496656 -0.517944 101
1.314813 2.632314 -0.096582 101
1.248890 2.712708 0.183178 100
1.114352 2.638215 -0.304041 101
1.054371 2.735644 -0.034285 101
0.992866 2.841278 0.248505 100
0.869015 2.763622 -0.201056 101
1.512662 2.601804 0.120877 95
1.371182 2.539413 -0.323202 101
1.312188 2.625954 -0.051240 101
1.258033 2.731357 0.230860 100
1.124235 2.660365 -0.261826 101
1.060653 2.750564 0.010805 101
0.997200 2.852138 0.369916 78
0.870304 2.766095 -0.156539 101
1.392404 2.577680 -0.192024 101
1.324807 2.650092 0.084828 101
1.197466 2.598707 -0.420075 101
1.140634 2.697906 -0.129937 101
1.071314 2.776820 0.148170 91
0.947354 2.708111 -0.293449 101
0.882820 2.804228 -0.023090 101
1.388378 2.569192 -0.146405 101
1.331663 2.662688 0.131025 101
1.202065 2.607534 -0.310399 101
1.137058 2.688186 -0.084588 101
1.073710 2.781637 0.194384 100
0.953136 2.723170 -0.250389 101
0.882092 2.800272 0.022034 101
1.429461 2.453232 -0.590165 101
1.394710 2.577022 -0.101814 101
1.330496 2.656164 0.176496 101
1.193878 2.585484 -0.263683 101
1.137566 2.684665 -0.039696 101
1.075699 2.781566 0.240476 100
0.954694 2.722111 -0.205764 101
0.884857 2.802876 0.067214 101
1.453048 2.492749 -0.328742 101
1.409052 2.602476 -0.057341 101
1.336720 2.667468 0.223295 101
1.209251 2.617618 -0.222375 101
1.152172 2.717863 0.005152 101
1.085670 2.805945 0.341729 100
0.957408 2.728379 -0.161659 101
0.892137 2.824280 0.113265 101
1.471615 2.523625 -0.197109 101
1.418774 2.619380 0.079567 101
1.282798 2.558791 -0.465854 101
1.222768 2.645710 -0.090068 101
1.160673 2.736636 0.142264 101
1.036968 2.678734 -0.299372 101
0.971242 2.766314 -0.028656 101
0.903305 2.857964 0.253272 101
1.477417 2.532595 -0.152635 101
1.416561 2.614244 0.125141 101
1.288746 2.569576 -0.316348 101
1.225328 2.650078 -0.045356 101
1.174177 2.767180 0.190174 101
1.043274 2.693678 -0.256281 101
0.978367 2.785109 0.016487 101
0.932558 2.948789 0.411560 1
1.501995 2.573732 -0.017684 101
1.305086 2.601064 -0.185129 101
1.242136 2.685243 0.090394 101
1.046884 2.701650 -0.122956 101
0.989466 2.815190 0.154297 100
0.866933 2.739677 -0.288340 101
1.516504 2.597590 0.028349 101
1.310230 2.610220 -0.140798 101
1.245214 2.690710 0.136190 101
1.108087 2.608983 -0.380727 101
1.058015 2.729013 -0.079200 101
0.990361 2.816221 0.200376 100
0.868628 2.743430 -0.244173 101
1.528772 2.617592 0.168416 101
1.376505 2.537262 -0.278456 101
1.313984 2.616600 -0.006132 101
1.255799 2.712385 0.299922 101
1.127811 2.654183 -0.216838 101
1.061563 2.736798 0.055851 101
0.926323 2.632706 -0.802497 101
0.875185 2.762525 -0.111830 101
1.392122 2.565018 -0.236351 101
1.323288 2.634024 0.039103 101
1.143487 2.689816 -0.174669 101
1.074605 2.769038 0.102166 101
0.948202 2.693441 -0.343022 89
0.880899 2.778937 -0.067683 101
1.459198 2.494610 -0.284390 101
1.411335 2.597292 -0.011866 101
1.342052 2.668015 0.283889 101
1.216186 2.622196 -0.178310 101
1.149852 2.701003 0.050216 101
0.962250 2.728946 -0.117232 101
0.896988 2.824742 0.158954 101
1.463665 2.501281 -0.240300 101
1.423154 2.617993 0.033806 101
1.219319 2.627791 -0.134081 101
1.162401 2.729206 0.096334 101
1.028453 2.644837 -0.355977 101
0.971177 2.752786 -0.073380 101
0.903869 2.844751 0.206107 101
1.486298 2.538979 -0.107879 101
1.442326 2.652198 0.173547 101
1.310784 2.603671 -0.275549 101
1.241277 2.673936 -0.000515 101
1.175518 2.758718 0.236005 101
1.048654 2.695446 -0.211886 101
0.981051 2.779286 0.061738 101
0.856473 2.694012 -0.682067 101
1.491429 2.546762 -0.062852 101
1.447048 2.659814 0.220766 100
1.302208 2.585555 -0.228856 101
1.248322 2.687929 0.045005 101
1.185462 2.780756 0.321988 101
1.054510 2.709148 -0.168134 101
0.987743 2.796745 0.107723 101
0.867155 2.726024 -0.333515 101
1.528121 2.608411 0.074938 101
1.367546 2.512675 -0.522254 101
1.320395 2.620568 -0.096319 101
1.263399 2.719194 0.183913 97
1.118873 2.623333 -0.302774 101
1.066817 2.739402 -0.034379 101
1.001450 2.834036 0.248176 100
0.879867 2.764374 -0.201333 101
1.529819 2.610301 0.121519 86
1.387641 2.548576 -0.324983 101
1.323146 2.624929 -0.051310 101
1.269241 2.730566 0.231166 100
1.135078 2.660089 -0.262187 101
1.071700 2.750572 0.010820 101
1.003179 2.837410 0.368457 76
0.878742 2.759235 -0.156323 101
1.401394 2.572804 -0.192024 101
1.337650 2.652591 0.085057 101
1.203192 2.587334 -0.418913 101
1.146907 2.686557 -0.129582 101
1.083902 2.780509 0.148567 94
0.959456 2.712290 -0.294263 101
0.896247 2.812563 -0.023185 101
1.401161 2.571346 -0.146805 101
1.339150 2.654455 0.130849 101
1.209482 2.599717 -0.309969 101
1.152716 2.698909 -0.085051 101
1.090665 2.796466 0.195685 100
0.961307 2.716069 -0.250043 101
0.893077 2.800987 0.022064 101
1.449910 2.468493 -0.595049 101
1.403690 2.572141 -0.101814 101
1.346956 2.665762 0.177445 101
1.209618 2.595745 -0.265158 101
1.154789 2.699067 -0.039968 101
1.085395 2.777797 0.240476 100
0.961515 2.711243 -0.205194 101
0.895845 2.803581 0.067305 101
1.465763 2.494517 -0.329648 101
1.421957 2.604565 -0.057496 101
1.344219 2.659228 0.222996 101
1.220062 2.616998 -0.222682 101
1.153777 2.695440 0.005117 101
1.089665 2.787333 0.339923 100
0.970928 2.736314 -0.162329 101
0.897116 2.805922 0.112653 101
1.474346 2.508152 -0.196302 101
1.424074 2.607394 0.079353 101
1.293502 2.557821 -0.466496 101
1.230305 2.637803 -0.089944 101
1.165499 2.721550 0.141690 101
1.046310 2.675099 -0.299372 101
0.980891 2.762907 -0.028656 101
0.909631 2.843405 0.252262 101
1.488274 2.530865 -0.152843 101
1.437176 2.630325 0.126150 101
1.304888 2.579252 -0.318098 101
1.243028 2.663906 -0.045666 101
1.177542 2.748386 0.189164 100
1.054123 2.693730 -0.256635 101
0.990762 2.789215 0.016532 101
0.935594 2.922857 0.408395 29
1.513002 2.571919 -0.017707 101
1.312359 2.592929 -0.184875 101
1.254888 2.688134 0.090638 101
1.057769 2.701699 -0.123126 101
0.999291 2.811717 0.154297 100
0.878923 2.744214 -0.289139 101
1.525568 2.592277 0.028349 101
1.319340 2.605628 -0.140798 101
1.259678 2.697205 0.136740 101
1.115631 2.601453 -0.380195 101
1.066083 2.721578 -0.079092 101
1.005541 2.827785 0.201447 100
0.881855 2.751766 -0.245188 101
1.543987 2.622560 0.169082 101
1.393005 2.546409 -0.279993 101
1.333963 2.633402 -0.006183 101
1.265269 2.707980 0.299922 101
1.133933 2.642895 -0.216239 101
1.072578 2.736795 0.055927 101
0.929073 2.611344 -0.796970 101
0.888494 2.770869 -0.112293 101
1.399164 2.556640 -0.236028 101
1.337911 2.640086 0.039262 101
1.152881 2.685803 -0.174669 101
1.085735 2.768987 0.102304 101
0.958942 2.693852 -0.343499 92
0.889385 2.772034 -0.067590 101
1.467916 2.489491 -0.284390 101
1.422334 2.595847 -0.011882 101
1.351377 2.663304 0.283889 101
1.225352 2.617926 -0.178310 101
1.160873 2.700638 0.050284 101
0.973132 2.729328 -0.117394 101
0.909308 2.829193 0.159383 101
1.478484 2.506444 -0.241292 101
1.426539 2.602475 0.033670 101
1.225117 2.616271 -0.133711 101
1.171944 2.725122 0.096334 101
1.036250 2.637528 -0.355479 101
0.982147 2.753137 -0.073480 101
0.910152 2.830174 0.205280 100
1.503302 2.547532 -0.108465 101
1.453521 2.650635 0.173776 100
1.319889 2.599067 -0.275549 101
1.255720 2.680442 -0.000517 101
1.189895 2.765575 0.236946 100
1.058083 2.691759 -0.211886 101
0.992118 2.779602 0.061822 101
0.868280 2.698401 -0.683943 101
1.500337 2.541524 -0.062852 101
1.454433 2.651234 0.220475 100
1.313059 2.584535 -0.229171 101
1.257726 2.683542 0.045005 100
1.199909 2.787549 0.323259 98
1.056681 2.686858 -0.166979 101
0.996185 2.789505 0.107578 101
0.875477 2.719190 -0.333052 101
1.531147 2.592713 0.074641 101
1.374444 2.504420 -0.521535 101
1.327754 2.612363 -0.096188 101
1.266134 2.700293 0.182934 97
1.132773 2.630358 -0.304041 101
1.072011 2.724483 -0.034238 101
1.010028 2.826758 0.247847 100
0.884648 2.746083 -0.200225 101
1.532855 2.594603 0.121037 88
1.392735 2.536730 -0.324092 101
1.334147 2.623842 -0.051380 101
1.285574 2.740546 0.232391 100
1.145967 2.659754 -0.262549 101
1.079864 2.743079 0.010805 101
1.019796 2.852571 0.370888 83
0.889628 2.759941 -0.156539 101
1.410401 2.567877 -0.192024 101
1.337873 2.630069 0.084485 101
1.218977 2.597432 -0.421237 101
1.157896 2.686191 -0.129760 101
1.089247 2.765542 0.147971 97
0.970295 2.712658 -0.294670 101
0.903642 2.801791 -0.023122 101
1.410165 2.566419 -0.146805 101
1.352071 2.656868 0.131201 101
1.221968 2.602661 -0.310829 101
1.160586 2.691180 -0.084935 101
1.094607 2.777771 0.194644 100
0.974850 2.723939 -0.251081 101
0.897976 2.782613 0.021944 101
1.458517 2.463416 -0.595049 101
1.408806 2.560221 -0.101536 101
1.345374 2.639699 0.176021 101
1.215282 2.584298 -0.264420 101
1.156273 2.676661 -0.039696 101
1.093620 2.770283 0.240154 100
0.972320 2.711626 -0.205479 101
0.904395 2.796632 0.067214 101
1.470411 2.482546 -0.328742 101
1.427182 2.592578 -0.057341 101
1.355305 2.658073 0.223295 101
1.229189 2.612723 -0.222682 101
1.167940 2.702411 0.005138 101
1.100848 2.787209 0.340375 100
0.973730 2.714112 -0.161213 101
0.909366 2.810379 0.112959 101
1.491230 2.516724 -0.197379 101
1.440882 2.616417 0.079781 101
1.304217 2.556807 -0.467139 101
1.244613 2.644345 -0.090315 101
1.178163 2.724799 0.142073 101
1.057104 2.675131 -0.299786 101
0.990529 2.759466 -0.028656 101
0.919550 2.840212 0.252262 101
1.499136 2.529091 -0.153051 101
1.442492 2.618292 0.125814 101
1.315691 2.578223 -0.318536 101
1.250616 2.655932 -0.045604 101
1.190298 2.751587 0.189669 100
1.063519 2.690034 -0.256635 101
0.996436 2.774446 0.016465 101
0.937237 2.893169 0.404701 68
1.513809 2.552860 -0.017612 101
1.325032 2.595443 -0.185383 101
1.260856 2.676504 0.090394 101
1.068663 2.701707 -0.123296 101
1.007749 2.804453 0.154090 100
0.886042 2.733557 -0.288340 101
1.538689 2.593816 0.028425 100
1.322975 2.590332 -0.140220 101
1.265678 2.685562 0.136373 100
1.129430 2.608457 -0.381792 101
1.078520 2.725276 -0.079309 101
1.014055 2.820503 0.201179 100
0.891455 2.748671 -0.245188 101
1.553132 2.617154 0.169082 101
1.399962 2.538044 -0.279609 101
1.346788 2.635854 -0.006199 101
1.281503 2.717947 0.301519 101
1.149493 2.653561 -0.217438 101
1.083597 2.736753 0.056004 101
0.939484 2.611702 -0.798075 101
0.898161 2.767750 -0.112293 101
1.411932 2.558722 -0.236673 101
1.345298 2.631838 0.039209 101
1.162249 2.681763 -0.174669 101
1.093922 2.761464 0.102166 101
0.964305 2.679278 -0.342068 89
0.901526 2.776519 -0.067776 101
1.484732 2.498039 -0.285956 101
1.429453 2.587366 -0.011866 101
1.362479 2.662115 0.284267 101
1.234483 2.613632 -0.178310 101
1.165516 2.685563 0.050079 101
0.978587 2.714635 -0.116908 101
0.916708 2.818405 0.158954 101
1.485187 2.497842 -0.240962 101
1.441419 2.607982 0.033806 101
1.234242 2.611979 -0.133711 101
1.179857 2.717348 0.096204 101
1.048379 2.641273 -0.356475 101
0.987681 2.738407 -0.073179 101
0.918791 2.823185 0.205004 100
1.506055 2.531962 -0.108026 101
1.462764 2.645545 0.173776 100
1.327138 2.590900 -0.275173 101
1.263359 2.672426 -0.000516 101
1.193187 2.746775 0.235691 101
1.068945 2.691757 -0.212178 101
0.999099 2.768598 0.061654 101
0.859634 2.639894 -0.669870 101
1.509199 2.536271 -0.062852 101
1.467540 2.653123 0.221057 100
1.332984 2.601228 -0.231062 101
1.272215 2.689982 0.045187 101
1.211217 2.786991 0.323682 101
1.074901 2.705420 -0.168365 101
1.009989 2.797290 0.108014 101
0.889886 2.731228 -0.334905 101
1.544279 2.594225 0.074839 101
1.379367 2.492721 -0.520099 101
1.338688 2.611270 -0.096319 101
1.278967 2.703075 0.183423 100
1.134018 2.608149 -0.301930 101
1.084469 2.728158 -0.034332 101
1.025307 2.838212 0.249163 101
0.902886 2.769535 -0.202164 101
1.550082 2.602972 0.121680 100
1.415058 2.556198 -0.327209 101
1.339647 2.612052 -0.051240 101
1.295132 2.736041 0.232391 92
1.153655 2.652085 -0.262187 101
1.092389 2.746726 0.010834 101
1.028397 2.845260 0.370402 89
0.898018 2.753021 -0.156323 101
1.421290 2.566430 -0.192285 101
1.357997 2.646727 0.085172 101
1.226342 2.589585 -0.420656 101
1.164076 2.674805 -0.129405 101
1.095940 2.754299 0.147573 92
0.978404 2.705513 -0.294263 101
0.913416 2.798620 -0.023122 101
1.417179 2.557986 -0.146605 101
1.359512 2.648577 0.131025 101
1.231046 2.598380 -0.310829 101
1.165185 2.676115 -0.084588 101
1.105773 2.777642 0.194904 98
0.978929 2.705530 -0.249697 101
0.911409 2.790868 0.022034 101
1.467107 2.458310 -0.595049 101
1.421613 2.562279 -0.101814 101
1.363708 2.652743 0.177207 101
1.227711 2.587237 -0.265158 101
1.167208 2.676274 -0.039750 101
1.107715 2.777558 0.241119 100
0.980420 2.704464 -0.205194 101
0.914152 2.793458 0.067214 101
1.487217 2.491048 -0.330553 101
1.438164 2.591078 -0.057418 101
1.364575 2.653326 0.223295 100
1.240012 2.612019 -0.222990 101
1.175766 2.694652 0.005131 101
1.113516 2.790732 0.341278 88
0.985922 2.718205 -0.161659 101
0.920414 2.810986 0.113112 101
1.502052 2.514930 -0.197648 101
1.451948 2.614867 0.079887 101
1.311328 2.548728 -0.466496 101
1.255551 2.643595 -0.090438 101
1.187667 2.720670 0.142073 101
1.069386 2.678814 -0.300616 101
0.998791 2.752232 -0.028617 101
0.928218 2.833198 0.251925 101
1.503858 2.516984 -0.152635 101
1.453564 2.616734 0.125982 101
1.315585 2.555939 -0.316348 101
1.253013 2.637101 -0.045356 101
1.195103 2.736440 0.188912 100
1.069947 2.678905 -0.255928 101
1.002019 2.759671 0.016398 101
0.946095 2.886112 0.404173 79
1.528868 2.557860 -0.017684 101
1.330429 2.583704 -0.184875 101
1.271907 2.675697 0.090516 101
1.084019 2.712805 -0.123974 101
1.022988 2.815936 0.154916 100
0.898059 2.738011 -0.289139 101
1.549787 2.591862 0.028462 100
1.337498 2.596353 -0.140798 101
1.278477 2.688345 0.136740 101
1.135353 2.597233 -0.380727 101
1.089510 2.725208 -0.079417 101
1.022531 2.813195 0.200911 100
0.901044 2.745542 -0.245188 101
1.562258 2.611717 0.169082 101
1.412683 2.540101 -0.280377 101
1.348651 2.616914 -0.006166 101
1.280723 2.691893 0.299123 101
1.150758 2.631260 -0.215939 101
1.088688 2.721814 0.055775 101
0.948595 2.608407 -0.798075 101
0.906569 2.760801 -0.112139 101
1.418917 2.550293 -0.236351 101
1.356309 2.630681 0.039262 101
1.173204 2.681348 -0.174908 101
1.108010 2.768763 0.102579 101
0.979083 2.690824 -0.343976 92
0.909964 2.769556 -0.067683 101
1.489351 2.486012 -0.285173 101
1.432636 2.571877 -0.011818 101
1.382723 2.678574 0.286538 101
1.247034 2.616515 -0.178803 101
1.178093 2.688805 0.050216 101
0.992163 2.722468 -0.117394 101
0.929038 2.822776 0.159383 101
1.502094 2.506319 -0.242284 101
1.450513 2.602934 0.033806 101
1.248511 2.618474 -0.134266 101
1.194150 2.724197 0.096593 101
1.057593 2.637597 -0.356475 101
1.001343 2.746213 -0.073480 101
0.929888 2.823751 0.205280 101
1.521050 2.536975 -0.108465 101
1.473934 2.643911 0.174006 101
1.336174 2.586251 -0.275173 101
1.274402 2.671610 -0.000517 101
1.205970 2.749897 0.236319 101
1.073878 2.676902 -0.211301 101
1.010128 2.768851 0.061738 101
0.885880 2.688581 -0.683005 101
1.522157 2.537847 -0.063023 101
1.478736 2.651468 0.221347 100
1.340225 2.593017 -0.230747 101
1.278152 2.678305 0.045065 100
1.216144 2.771819 0.322411 100
1.081363 2.694240 -0.167903 101
1.017006 2.786237 0.107723 101
0.894439 2.713012 -0.333052 101
1.551267 2.585390 0.074740 100
1.388060 2.487891 -0.520099 101
1.347795 2.606581 -0.096319 101
1.284955 2.691388 0.182934 100
1.149510 2.618744 -0.303619 101
1.089514 2.713221 -0.034192 101
1.028370 2.815893 0.247517 100
0.907548 2.751209 -0.201056 101
1.557102 2.594119 0.121519 100
1.416222 2.537358 -0.325428 101
1.350594 2.610912 -0.051310 101
1.297799 2.717109 0.231166 100
1.162905 2.648042 -0.262187 101
1.100479 2.739185 0.010820 101
1.036960 2.837924 0.369916 80
0.908874 2.753663 -0.156539 101
1.428294 2.557968 -0.192024 101
1.361715 2.631318 0.084828 101
1.231961 2.578146 -0.419494 101
1.179836 2.685359 -0.130114 101
1.110018 2.761577 0.148170 99
0.987842 2.702081 -0.294263 101
0.924434 2.799212 -0.023153 101
1.428048 2.556512 -0.146805 101
1.372424 2.650913 0.131377 101
