# This PCD file was generated using the MATLAB® pcwrite function
# from Computer Vision Toolbox®.
# .PCD v.7 - Point Cloud Data file format
VERSION .7
FIELDS x y z intensity
SIZE 4 4 4 1
TYPE F F F U
COUNT 1 1 1 1
WIDTH 1520
HEIGHT 1
VIEWPOINT 0 0 0 1 0 0 0
POINTS 1520
DATA ascii
0.390422 2.824054 -0.170374 100
0.297893 2.810586 0.097216 100
0.214346 2.895204 -0.348747 84
0.121137 2.856662 -0.066383 79
0.725838 2.677976 -0.273030 101
0.475308 2.774227 -0.173631 96
0.384793 2.773020 0.047890 101
0.336844 3.162855 -1.131485 26
0.211536 2.837792 -0.115289 100
0.122264 2.849279 0.152956 100
0.723127 2.666196 -0.229062 101
0.472117 2.752819 -0.129272 101
0.384562 2.767940 0.090751 101
0.305206 2.861217 -0.360955 100
0.212418 2.843175 -0.071671 100
0.122628 2.846575 0.196738 100
0.561918 2.746611 -0.265009 101
0.473086 2.755686 -0.000488 101
0.385142 2.768697 0.219999 101
0.304293 2.848114 -0.209840 100
0.213216 2.847402 0.059812 100
0.130206 3.010710 -0.727100 60
0.563930 2.754087 -0.222236 101
0.472817 2.751347 0.042393 101
0.301680 2.819167 -0.163977 100
0.213302 2.842128 0.103513 100
0.126321 2.909533 -0.339537 86
0.659204 2.767555 -0.519380 100
0.558626 2.725849 -0.091333 101
0.393893 2.824641 -0.302774 101
0.301360 2.811703 -0.033069 100
0.211700 2.814445 0.233035 101
0.125799 2.886311 -0.200502 96
0.649815 2.726103 -0.313853 101
0.556086 2.711136 -0.048308 101
0.393312 2.817011 -0.257854 100
0.303132 2.823757 0.010409 100
0.211318 2.803057 0.344153 100
0.125706 2.873064 -0.155245 77
0.646455 2.709984 -0.182606 101
0.486037 2.819746 -0.420075 100
0.393353 2.813845 -0.126037 101
0.299817 2.788455 0.139618 100
0.217060 2.872781 -0.294670 80
0.126369 2.877137 -0.022619 72
0.642847 2.692855 -0.138794 101
0.482116 2.794192 -0.306530 100
0.387397 2.767847 -0.080996 100
0.300449 2.789912 0.182934 100
0.216656 2.861024 -0.249006 91
0.125444 2.845156 0.021374 81
0.752879 2.757981 -0.594235 52
0.643105 2.686429 -0.095980 49
0.478508 2.762875 -0.259626 100
0.388157 2.760587 -0.037953 100
0.298864 2.758853 0.223758 100
0.216600 2.836514 -0.202918 90
0.127030 2.840418 0.065019 91
0.734128 2.687511 -0.317422 101
0.480960 2.774257 -0.217146 100
0.393675 2.796421 0.004929 100
0.299668 2.761928 0.315546 101
0.218508 2.855179 -0.160096 78
0.127448 2.839064 0.108679 100
0.579580 2.807078 -0.466496 101
0.475106 2.737755 -0.085867 100
0.390907 2.773381 0.134042 100
0.310750 2.859585 -0.299786 96
0.219626 2.863453 -0.028070 94
0.127744 2.835010 0.239800 100
0.568065 2.748973 -0.308910 101
0.475736 2.738651 -0.043181 101
0.389367 2.759091 0.176284 101
0.310830 2.855851 -0.254867 97
0.218888 2.847555 0.015951 91
0.127733 2.824191 0.376208 87
0.567572 2.744257 -0.178272 101
0.474662 2.729746 0.084653 101
0.452913 3.205493 -1.509592 27
0.307489 2.820736 -0.120413 100
0.219998 2.855712 0.148100 100
0.133204 2.934228 -0.294730 84
0.563662 2.723044 -0.134056 101
0.474157 2.724127 0.127013 101
0.399256 2.822303 -0.382857 100
0.306392 2.806290 -0.076387 96
0.219356 2.841133 0.191268 101
0.132074 2.898566 -0.246202 99
0.653460 2.717565 -0.269623 100
0.561528 2.710438 -0.005797 101
0.393794 2.780324 -0.211140 89
0.305616 2.794831 0.053493 101
0.229246 2.962740 -0.854449 72
0.130382 2.850896 -0.110134 96
0.649212 2.697902 -0.224727 100
0.403080 2.842440 -0.171567 100
0.309443 2.825424 0.097766 100
0.225679 2.910277 -0.350655 84
0.131474 2.864211 -0.066569 79
0.736236 2.679265 -0.273421 101
0.484301 2.768618 -0.173384 100
0.391089 2.747903 0.047479 101
0.347470 3.157914 -1.130145 32
0.219885 2.817114 -0.114479 97
0.132209 2.848835 0.152956 100
0.733486 2.667500 -0.229393 70
0.480345 2.743282 -0.128902 101
0.393658 2.762623 0.090621 101
0.315192 2.860134 -0.360955 100
0.222030 2.838430 -0.071571 100
0.131635 2.826199 0.195360 96
0.571502 2.744633 -0.265009 100
0.479940 2.738258 -0.000485 101
0.391988 2.747597 0.218430 74
0.312920 2.835139 -0.208963 100
0.222216 2.834680 0.059560 100
0.141078 3.018005 -0.728976 56
0.575168 2.759909 -0.222866 101
0.483110 2.753619 0.042454 101
0.313713 2.837942 -0.165131 94
0.223221 2.841366 0.103513 100
0.137779 2.936855 -0.342780 82
0.667935 2.761412 -0.518662 100
0.567321 2.719969 -0.091202 101
0.402061 2.811437 -0.301508 101
0.309412 2.794732 -0.032882 100
0.221836 2.817663 0.233364 101
0.135310 2.873896 -0.199671 100
0.658392 2.719954 -0.313408 101
0.564729 2.705263 -0.048238 101
0.401449 2.803791 -0.256770 100
0.312106 2.814730 0.010380 100
0.220476 2.794386 0.343181 100
0.135357 2.864628 -0.154814 75
0.654031 2.699953 -0.182082 101
0.493819 2.806340 -0.418332 100
0.402038 2.804544 -0.125683 101
0.309108 2.783421 0.139419 85
0.227400 2.875973 -0.295077 80
0.136032 2.868688 -0.022556 76
0.654126 2.698359 -0.139195 101
0.493246 2.800325 -0.307389 100
0.398193 2.774394 -0.081227 97
0.312391 2.808682 0.184235 100
0.226641 2.860250 -0.249006 80
0.135945 2.856687 0.021464 79
0.766680 2.770434 -0.597491 32
0.488149 2.761188 -0.259626 93
0.398932 2.767132 -0.038062 100
0.308936 2.761755 0.224080 100
0.228088 2.855627 -0.204341 88
0.137330 2.847945 0.065202 96
0.741383 2.677272 -0.316516 101
0.490641 2.772561 -0.217146 100
0.401148 2.779194 0.004901 100
0.307979 2.749016 0.314192 101
0.228154 2.850418 -0.159873 78
0.137358 2.838601 0.108679 100
0.587751 2.797310 -0.465211 101
0.484660 2.736080 -0.085867 100
0.400014 2.768045 0.133851 101
0.320730 2.858483 -0.299786 90
0.228980 2.854695 -0.027992 94
0.138606 2.854452 0.241484 100
0.577657 2.746974 -0.308910 101
0.484595 2.733036 -0.043119 101
0.400139 2.765617 0.176789 101
0.319018 2.838911 -0.253453 95
0.228827 2.846774 0.015951 96
0.137397 2.819768 0.375681 99
0.578792 2.750072 -0.178780 101
0.484188 2.728073 0.084653 101
0.464100 3.203892 -1.509592 30
0.316439 2.811703 -0.120073 100
0.228041 2.831036 0.146861 100
0.142474 2.913869 -0.292733 73
0.571517 2.713241 -0.133671 101
0.483663 2.722455 0.127013 69
0.409674 2.824815 -0.383389 101
0.316186 2.805204 -0.076387 99
0.227988 2.824437 0.190196 101
0.141214 2.878183 -0.244511 100
0.664830 2.723003 -0.270391 100
0.570986 2.708462 -0.005797 101
0.404070 2.782880 -0.211440 89
0.315819 2.797721 0.053569 100
0.240207 2.969585 -0.856660 66
0.141316 2.870384 -0.110905 100
0.662410 2.711112 -0.226018 100
0.411851 2.833113 -0.171090 99
0.318405 2.816382 0.097491 100
0.236158 2.913429 -0.351132 89
0.141077 2.855747 -0.066383 79
0.745584 2.676679 -0.273421 101
0.493261 2.762980 -0.173138 100
0.402988 2.762351 0.047753 101
0.360192 3.171660 -1.135507 26
0.229718 2.816329 -0.114479 92
0.141356 2.832399 0.152099 100
0.738511 2.649563 -0.228071 21
0.489918 2.741589 -0.128902 101
0.404454 2.769144 0.090881 101
0.324277 2.851129 -0.359960 100
0.231936 2.837638 -0.071571 100
0.142298 2.841665 0.196463 100
0.580254 2.738726 -0.264633 101
0.490904 2.744441 -0.000487 101
0.402154 2.750158 0.218744 100
0.322363 2.830066 -0.208671 93
0.231783 2.829901 0.059476 101
0.150831 3.001960 -0.725223 67
0.583971 2.753983 -0.222551 101
0.491309 2.744042 0.042332 101
0.322712 2.828895 -0.164670 87
0.233792 2.848537 0.103803 94
0.147830 2.932388 -0.342317 83
0.675694 2.751421 -0.517225 101
0.575982 2.714061 -0.091070 101
0.413026 2.817887 -0.302352 101
0.320528 2.805557 -0.033022 100
0.231997 2.820845 0.233693 101
0.145543 2.877392 -0.199948 98
0.667882 2.717639 -0.313408 101
0.575000 2.707188 -0.048308 101
0.412391 2.810256 -0.257493 100
0.322384 2.817598 0.010394 100
0.229903 2.789643 0.342694 100
0.145558 2.868127 -0.155029 82
0.665358 2.705405 -0.182606 101
0.504312 2.808494 -0.418913 100
0.412406 2.807077 -0.125860 101
0.318367 2.778356 0.139220 100
0.237765 2.879127 -0.295484 79
0.146655 2.880180 -0.022651 70
0.663541 2.696060 -0.139195 101
0.499501 2.779016 -0.305240 100
0.407293 2.769031 -0.081112 99
0.320828 2.795678 0.183455 100
0.236953 2.863413 -0.249351 87
0.146324 2.864184 0.021524 95
0.771647 2.752789 -0.594235 18
0.498022 2.763472 -0.259995 100
0.408703 2.769749 -0.038117 100
0.319475 2.772596 0.225044 101
0.236908 2.846901 -0.203772 93
0.146375 2.839486 0.065019 96
0.752412 2.682450 -0.317422 101
0.500548 2.774842 -0.217454 99
0.410370 2.777847 0.004901 100
0.318013 2.755875 0.315095 101
0.238278 2.857605 -0.160319 82
0.145953 2.822163 0.108068 100
0.598676 2.803067 -0.466496 101
0.493023 2.730522 -0.085743 100
0.409779 2.770655 0.134042 101
0.328840 2.845547 -0.298542 99
0.236783 2.833990 -0.027796 92
0.147042 2.834074 0.239800 100
0.587593 2.748931 -0.309347 101
0.495787 2.743222 -0.043305 101
0.409306 2.764275 0.176789 101
0.329344 2.845753 -0.254160 93
0.238264 2.845999 0.015951 99
0.146745 2.819297 0.375681 100
0.585396 2.736428 -0.178018 101
0.493225 2.726453 0.084653 101
0.476309 3.213095 -1.514664 28
0.327135 2.822548 -0.120582 100
0.237421 2.830265 0.146861 100
0.152336 2.917356 -0.293132 70
0.582173 2.719147 -0.134056 101
0.418445 2.819521 -0.382857 100
0.324552 2.796197 -0.076171 96
0.236672 2.815713 0.189660 101
0.150954 2.881680 -0.244849 100
0.673840 2.720788 -0.270391 100
0.582462 2.718291 -0.005822 66
0.411521 2.769691 -0.210540 89
0.324154 2.788716 0.053416 101
0.249712 2.964943 -0.855555 75
0.149767 2.849943 -0.110134 96
0.670417 2.705036 -0.225695 100
0.417696 2.808039 -0.169658 101
0.326334 2.803401 0.097078 100
0.245127 2.904718 -0.350178 84
0.149892 2.843284 -0.066104 81
0.751178 2.662708 -0.272246 101
0.502384 2.761336 -0.173138 100
0.409747 2.745183 0.047479 101
0.370228 3.166710 -1.134167 24
0.240032 2.827502 -0.114965 100
0.150710 2.831917 0.152099 100
0.500397 2.747819 -0.129272 101
0.412411 2.759886 0.090621 101
0.334148 2.853985 -0.360458 100
0.240963 2.832872 -0.071470 100
0.151252 2.833210 0.195912 100
0.587610 2.729010 -0.263880 101
0.497086 2.727066 -0.000484 101
0.400605 2.677828 0.213095 200
0.332628 2.836911 -0.209256 100
0.239420 2.809197 0.059058 100
0.160734 3.001446 -0.725223 65
0.593049 2.752043 -0.222551 101
0.498919 2.734538 0.042211 101
0.331573 2.823849 -0.164439 82
0.241143 2.823854 0.102932 100
0.156646 2.916016 -0.340464 100
0.687611 2.760634 -0.519380 100
0.586609 2.719964 -0.091333 101
0.424080 2.828312 -0.303619 101
0.329772 2.804485 -0.033022 100
0.240952 2.816093 0.233364 101
0.154381 2.864942 -0.199117 100
0.675869 2.711568 -0.312963 101
0.582226 2.697460 -0.048169 101
0.420462 2.801003 -0.256770 100
0.331663 2.816520 0.010394 100
0.239090 2.788870 0.342694 100
0.154573 2.859656 -0.154598 77
0.673295 2.699327 -0.182344 101
0.514267 2.810711 -0.419494 100
0.421645 2.805704 -0.125860 101
0.328448 2.785228 0.139618 100
0.246902 2.874364 -0.295077 89
0.155053 2.859711 -0.022494 76
0.674343 2.701614 -0.139595 68
0.508642 2.777357 -0.305240 101
0.415806 2.763722 -0.080996 99
0.329557 2.790643 0.183194 100
0.246031 2.858647 -0.249006 89
0.154878 2.847711 0.021404 89
0.509106 2.769551 -0.260733 100
0.416576 2.756441 -0.037953 100
0.328681 2.767505 0.224723 101
0.247878 2.857982 -0.204625 92
0.155626 2.826979 0.064745 100
0.763944 2.687453 -0.318327 101
0.509510 2.769156 -0.217146 100
0.421860 2.788263 0.004922 100
0.327161 2.750802 0.314644 101
0.247214 2.844819 -0.159650 79
0.156464 2.833609 0.108526 100
0.606781 2.793244 -0.465211 101
0.502551 2.728785 -0.085743 100
0.415260 2.741555 0.132703 101
0.338301 2.840431 -0.298128 94
0.247021 2.837131 -0.027835 94
0.156933 2.833544 0.239800 100
0.597184 2.746863 -0.309347 101
0.504635 2.737541 -0.043243 101
0.419551 2.766776 0.177041 101
0.338804 2.840630 -0.253807 93
0.247154 2.833196 0.015884 95
0.156806 2.822726 0.376208 85
0.593247 2.726566 -0.177510 101
0.502014 2.720783 0.084531 101
0.489154 3.222165 -1.519735 32
0.336037 2.813453 -0.120243 100
0.247299 2.829419 0.146861 100
0.162297 2.912832 -0.292733 74
0.591661 2.717098 -0.134056 101
0.428284 2.818043 -0.382857 101
0.336210 2.810928 -0.076604 84
0.247196 2.822821 0.190196 101
0.160567 2.873176 -0.244173 96
0.679451 2.702973 -0.268855 101
0.421186 2.768238 -0.210540 88
0.331509 2.767713 0.053036 101
0.259388 2.956394 -0.853344 75
0.160162 2.857385 -0.110442 98
0.676937 2.691080 -0.224727 100
0.427496 2.806564 -0.169658 101
0.336594 2.806214 0.097216 100
0.253178 2.880107 -0.347316 91
0.159816 2.842744 -0.066104 82
0.765939 2.679207 -0.274205 83
0.510563 2.751715 -0.172646 87
0.419327 2.743736 0.047479 101
0.383083 3.180365 -1.139529 30
0.249197 2.818685 -0.114641 97
0.160595 2.831373 0.152099 100
0.507797 2.734270 -0.128718 101
0.420229 2.746573 0.090232 101
0.343633 2.848861 -0.359960 100
0.250498 2.828031 -0.071369 100
0.160914 2.828681 0.195636 100
0.602243 2.750283 -0.266138 101
0.509527 2.741045 -0.000487 101
0.409346 2.672472 0.212781 101
0.342050 2.831773 -0.208963 93
0.250285 2.820295 0.059309 100
0.171653 3.008631 -0.727100 60
0.599237 2.734375 -0.221290 101
0.509193 2.736712 0.042272 101
0.340469 2.814746 -0.163977 100
0.250998 2.822995 0.102932 100
0.166143 2.903551 -0.339074 70
0.696279 2.754402 -0.518662 100
0.595244 2.713995 -0.091202 101
0.429725 2.799293 -0.300663 101
0.338598 2.795375 -0.032929 100
0.249366 2.799352 0.232048 101
0.164609 2.868370 -0.199394 98
0.687279 2.716900 -0.313853 101
0.595068 2.711037 -0.048448 101
0.432657 2.815268 -0.258215 100
0.340529 2.807404 0.010365 100
0.249177 2.791973 0.343181 100
0.165013 2.867074 -0.155029 72
0.682713 2.696961 -0.182344 101
0.523349 2.805009 -0.418913 100
0.432044 2.808165 -0.126037 101
0.337686 2.780098 0.139419 100
0.256225 2.865558 -0.294263 89
0.165496 2.867139 -0.022556 81
0.518333 2.775565 -0.305240 101
0.423625 2.750399 -0.080648 100
0.337368 2.773626 0.182153 100
0.256364 2.861740 -0.249351 84
0.163199 2.819201 0.021194 96
0.518036 2.763842 -0.260364 100
0.426807 2.758923 -0.038008 101
0.337371 2.758426 0.224080 100
0.257494 2.853126 -0.204341 95
0.165727 2.830411 0.064836 86
0.770020 2.673312 -0.316969 101
0.516966 2.755601 -0.216223 80
0.427917 2.763056 0.004880 100
0.336278 2.745698 0.314192 101
0.257502 2.847917 -0.159873 78
0.165886 2.825065 0.108220 100
0.616528 2.791109 -0.465211 100
0.512073 2.727014 -0.085743 100
0.426663 2.751934 0.133277 101
0.350635 2.858977 -0.300201 94
0.257645 2.844218 -0.027914 99
0.166589 2.829000 0.239464 100
0.606769 2.744762 -0.309347 101
0.514926 2.739693 -0.043305 101
0.427369 2.753460 0.176284 101
0.349689 2.847339 -0.254514 100
0.257404 2.836299 0.015906 97
0.165957 2.810287 0.374625 93
0.602761 2.724479 -0.177510 101
0.510769 2.715085 0.084408 101
0.499842 3.216856 -1.518045 24
0.344393 2.800363 -0.119734 100
0.255004 2.804669 0.145621 100
0.171288 2.892383 -0.290736 65
0.600278 2.711116 -0.133864 101
0.439947 2.828283 -0.384454 101
0.344554 2.797832 -0.076279 84
0.257048 2.821941 0.190196 101
0.171541 2.888513 -0.245526 96
0.687898 2.696727 -0.268470 101
0.430847 2.766750 -0.210540 98
0.342147 2.774477 0.053188 101
0.270056 2.959299 -0.854449 66
0.169185 2.840848 -0.109825 94
0.687313 2.692564 -0.225050 100
0.437905 2.809000 -0.169897 100
0.346387 2.805022 0.097216 99
0.263592 2.883161 -0.347793 91
0.169738 2.842169 -0.066104 79
0.778609 2.687988 -0.275380 33
0.522391 2.761685 -0.173384 100
0.428284 2.738304 0.047411 101
0.394182 3.179008 -1.139529 24
0.257937 2.805858 -0.114155 100
0.169277 2.810860 0.151028 100
0.518081 2.736406 -0.128902 101
0.431669 2.756939 0.090621 101
0.353086 2.843706 -0.359462 100
0.260001 2.823157 -0.071269 100
0.170306 2.820135 0.195085 100
0.610109 2.740390 -0.265385 100
0.518347 2.735319 -0.000486 101
0.351440 2.826602 -0.208671 96
0.260128 2.819404 0.059309 101
0.181214 2.992488 -0.723347 60
0.613114 2.751728 -0.222866 101
0.521724 2.750636 0.042515 101
0.350785 2.817503 -0.164208 96
0.261587 2.830062 0.103223 100
0.177481 2.922782 -0.341390 75
0.704911 2.748143 -0.517944 100
0.604714 2.711900 -0.091202 101
0.439494 2.797776 -0.300663 101
0.347364 2.786238 -0.032835 100
0.258768 2.794495 0.231718 101
0.174620 2.867778 -0.199394 99
0.695771 2.710634 -0.313408 101
0.604528 2.708944 -0.048448 101
0.440006 2.797999 -0.256770 98
0.348344 2.790322 0.010306 100
0.258554 2.787133 0.342694 100
0.174046 2.850533 -0.154167 73
0.691130 2.690695 -0.182082 101
0.530179 2.787613 -0.416589 100
0.440601 2.798744 -0.125683 100
0.345902 2.767010 0.138822 100
0.266594 2.868608 -0.294670 93
0.173792 2.838597 -0.022336 91
0.527275 2.769832 -0.304810 100
0.433846 2.752853 -0.080764 100
0.347544 2.776392 0.182414 100
0.264874 2.844957 -0.247968 91
0.173284 2.822606 0.021224 99
0.526166 2.754197 -0.259626 100
0.435789 2.753469 -0.037953 100
0.346480 2.753278 0.223758 101
0.265941 2.836322 -0.203202 100
0.174842 2.817843 0.064562 98
0.781562 2.678242 -0.317875 101
0.527319 2.757699 -0.216531 95
0.436920 2.757597 0.004873 100
0.345848 2.744509 0.314192 65
0.265935 2.831097 -0.158980 73
0.175237 2.816491 0.107915 100
0.626262 2.788941 -0.465211 101
0.520833 2.721284 -0.085620 100
0.437514 2.758321 0.133659 101
0.360110 2.853789 -0.299786 100
0.267192 2.839319 -0.027875 88
0.176210 2.824424 0.239127 100
0.615478 2.738748 -0.308910 101
0.522984 2.730022 -0.043181 101
0.435729 2.744066 0.175779 100
0.357631 2.830289 -0.253100 87
0.266555 2.827419 0.015861 100
0.175273 2.801776 0.373570 93
0.612278 2.722356 -0.177510 101
0.519501 2.709357 0.084286 27
0.519048 3.265213 -1.541711 9
0.353675 2.795178 -0.119565 100
0.265179 2.807738 0.145828 100
0.182142 2.903683 -0.291934 79
0.610633 2.712897 -0.134056 101
0.449212 2.822812 -0.383922 100
0.352829 2.784709 -0.075954 87
0.266163 2.813078 0.189660 101
0.180641 2.871984 -0.244173 94
0.696335 2.690448 -0.268086 101
0.439273 2.757347 -0.209940 86
0.350849 2.765327 0.053036 101
0.279324 2.946854 -0.851133 66
0.178875 2.836250 -0.109671 94
0.699739 2.701718 -0.226018 90
0.448371 2.811391 -0.170136 100
0.355203 2.795860 0.096941 100
0.273690 2.882220 -0.347793 84
0.179693 2.841557 -0.066104 77
0.529818 2.748073 -0.172646 100
0.438529 2.740732 0.047479 101
0.406296 3.185081 -1.142210 23
0.266648 2.792999 -0.113669 100
0.178638 2.802276 0.150599 100
0.527694 2.734569 -0.128902 101
0.440090 2.747510 0.090361 101
0.363078 2.842447 -0.359462 100
0.269159 2.814265 -0.071068 100
0.180470 2.823502 0.195360 100
0.615348 2.718807 -0.263503 101
0.526447 2.725625 -0.000485 101
0.361886 2.829306 -0.208963 93
0.270424 2.822453 0.059393 100
0.190743 2.976311 -0.719594 57
0.623677 2.753442 -0.223182 101
0.531402 2.748782 0.042515 101
0.358671 2.800407 -0.163284 99
0.270783 2.821166 0.102932 101
0.186240 2.898350 -0.338611 83
0.716570 2.753259 -0.519380 101
0.614263 2.709753 -0.091202 101
0.451241 2.807992 -0.301930 101
0.357685 2.788965 -0.032882 100
0.270519 2.813407 0.233364 101
0.185235 2.875109 -0.199948 98
0.703319 2.700470 -0.312518 101
0.615844 2.714596 -0.048588 39
0.451766 2.808230 -0.257854 100
0.359199 2.797011 0.010336 100
0.267618 2.778300 0.341722 100
0.184353 2.853888 -0.154383 79
0.700620 2.688240 -0.182082 101
0.541518 2.793496 -0.417751 101
0.452379 2.809008 -0.126214 101
0.357191 2.777660 0.139419 100
0.277479 2.875571 -0.295484 100
0.185616 2.865907 -0.022556 87
0.537053 2.767953 -0.304810 101
0.444200 2.755251 -0.080880 100
0.356836 2.771189 0.182153 100
0.274918 2.844003 -0.247968 91
0.183769 2.829960 0.021284 92
0.534254 2.744524 -0.258889 100
0.445397 2.751931 -0.037953 100
0.356600 2.756006 0.224080 101
0.275067 2.827434 -0.202633 98
0.184415 2.813225 0.064470 100
0.787526 2.664064 -0.316516 101
0.536941 2.755842 -0.216531 100
0.447183 2.760004 0.004880 100
0.276203 2.834126 -0.159203 89
0.184543 2.807885 0.107609 100
0.633358 2.775191 -0.463283 101
0.529563 2.715525 -0.085496 101
0.445860 2.748889 0.133277 101
0.368533 2.840679 -0.298542 100
0.276713 2.834389 -0.027835 97
0.185806 2.819814 0.238790 101
0.626805 2.744335 -0.309785 101
0.533277 2.732106 -0.043243 101
0.447864 2.758290 0.176789 93
0.370588 2.852731 -0.255221 97
0.277591 2.838414 0.015928 100
0.185575 2.809060 0.374625 83
0.623556 2.727985 -0.178018 101
0.364461 2.801852 -0.119904 98
0.276536 2.822697 0.146654 100
0.192013 2.899058 -0.291535 78
0.618317 2.702960 -0.133671 101
0.456516 2.805575 -0.381792 101
0.364097 2.795356 -0.076279 96
0.275981 2.812132 0.189660 101
0.191193 2.879290 -0.244849 100
0.705722 2.688001 -0.268086 101
0.449537 2.759734 -0.210240 86
0.361534 2.772017 0.053188 101
0.289233 2.942036 -0.850028 73
0.189040 2.839596 -0.109825 100
0.704100 2.679979 -0.224404 100
0.456896 2.801928 -0.169658 99
0.364443 2.790639 0.096803 100
0.282970 2.873342 -0.346838 91
0.189078 2.832932 -0.065919 80
0.540177 2.750124 -0.172892 100
0.448093 2.739185 0.047479 101
0.417412 3.183644 -1.142210 26
0.277577 2.803983 -0.114155 99
0.189490 2.817577 0.151456 100
0.536466 2.728790 -0.128718 101
0.449678 2.745957 0.090361 101
0.371964 2.833292 -0.358466 100
0.278981 2.813308 -0.071068 100
0.189788 2.814891 0.194809 100
0.624835 2.716643 -0.263503 101
0.535958 2.723770 -0.000485 101
0.371240 2.824070 -0.208671 93
0.280670 2.825471 0.059476 100
0.201918 2.987265 -0.722409 63
0.631496 2.743476 -0.222551 101
0.536357 2.723366 0.042150 100
0.370008 2.811015 -0.163977 100
0.280233 2.816226 0.102787 100
0.197161 2.909574 -0.340001 80
0.727181 2.754546 -0.520099 100
0.626411 2.719280 -0.091595 101
0.462329 2.814250 -0.302774 101
0.368986 2.799595 -0.033022 100
0.279547 2.804512 0.232706 101
0.194999 2.870464 -0.199671 98
0.712741 2.697999 -0.312518 101
0.457041 2.779120 -0.255326 100
0.368960 2.795740 0.010336 100
0.276920 2.773398 0.341236 101
0.192956 2.833302 -0.153305 69
0.706939 2.674201 -0.181297 45
0.548966 2.779941 -0.416008 100
0.460234 2.795583 -0.125683 101
0.365838 2.768475 0.139021 100
0.285138 2.850828 -0.293042 91
0.193984 2.841298 -0.022368 91
0.547482 2.769962 -0.305240 101
0.454465 2.757629 -0.080996 100
0.368078 2.781798 0.182934 100
0.286036 2.854922 -0.249006 87
0.194192 2.837282 0.021344 83
0.544606 2.746549 -0.259257 101
0.455654 2.754306 -0.038008 100
0.366218 2.754744 0.224080 101
0.285736 2.834396 -0.203202 100
0.194234 2.812564 0.064470 92
0.794540 2.653684 -0.315611 101
0.547334 2.757863 -0.216838 99
0.456815 2.758426 0.004880 100
0.285693 2.829171 -0.158980 98
0.195171 2.819187 0.108068 100
0.645717 2.784501 -0.465211 101
0.541376 2.725425 -0.085867 100
0.454799 2.743374 0.133086 101
0.377921 2.835431 -0.298128 92
0.285800 2.825447 -0.027757 99
0.196200 2.827101 0.239464 100
0.636380 2.742130 -0.309785 101
0.542030 2.726305 -0.043181 101
0.448993 2.705514 0.173506 31
0.376854 2.823774 -0.252746 95
0.286287 2.825489 0.015861 100
0.194278 2.792573 0.372515 99
0.632172 2.721904 -0.177764 101
0.373180 2.792640 -0.119565 96
0.284774 2.805818 0.145828 100
0.201855 2.894400 -0.291136 68
0.628653 2.704677 -0.133864 101
0.467608 2.811786 -0.382857 100
0.372792 2.786142 -0.076063 89
0.285796 2.811152 0.189660 100
0.199575 2.854749 -0.242820 99
0.721247 2.708606 -0.270391 100
0.459167 2.758148 -0.210240 82
0.370146 2.762811 0.053036 101
0.300279 2.948657 -0.852238 66
0.198113 2.826957 -0.109362 96
0.715504 2.685210 -0.225050 100
0.467331 2.804254 -0.169897 101
0.375245 2.797274 0.097078 100
0.292998 2.872337 -0.346838 91
0.200087 2.848211 -0.066290 87
0.550556 2.752136 -0.173138 100
0.456993 2.733660 0.047411 101
0.431540 3.204577 -1.150254 15
0.286956 2.799021 -0.113993 100
0.198197 2.800961 0.150599 101
0.546772 2.730818 -0.128902 101
0.459920 2.748314 0.090491 101
0.383443 2.843776 -0.359960 98
0.289208 2.816295 -0.071168 100
0.200460 2.826153 0.195636 100
0.636126 2.722201 -0.264256 100
0.547034 2.729727 -0.000486 101
0.380562 2.818804 -0.208379 100
0.288485 2.804584 0.059058 101
0.211793 2.978785 -0.720532 65
0.636528 2.721841 -0.220975 101
0.545860 2.721477 0.042150 68
0.378748 2.801792 -0.163515 96
0.289652 2.811254 0.102642 101
0.205339 2.881127 -0.336758 83
0.731703 2.732985 -0.516507 100
0.633166 2.705399 -0.091202 101
0.469516 2.796928 -0.301085 101
0.376074 2.778472 -0.032788 100
0.288926 2.799553 0.232377 101
0.205018 2.869766 -0.199671 100
0.723183 2.699334 -0.312963 101
0.469380 2.793222 -0.256770 100
0.379254 2.798399 0.010350 100
0.286599 2.772415 0.341236 101
0.203701 2.844563 -0.153951 78
0.557106 2.770248 -0.414846 101
0.469327 2.790019 -0.125505 101
0.373351 2.751346 0.138225 100
0.295088 2.849816 -0.293042 95
0.203614 2.836614 -0.022336 79
0.555579 2.760237 -0.304380 101
0.462761 2.748140 -0.080764 100
0.376711 2.772585 0.182414 100
0.293944 2.834087 -0.247276 90
0.203808 2.832597 0.021314 96
0.555781 2.752437 -0.259995 100
0.466613 2.760583 -0.038117 101
0.375307 2.749497 0.223758 101
0.296471 2.841316 -0.203772 100
0.204645 2.819845 0.064653 98
0.799194 2.635679 -0.313799 16
0.556967 2.755934 -0.216838 99
0.467784 2.764701 0.004894 100
0.296406 2.836100 -0.159426 88
0.204150 2.806528 0.107609 100
0.654531 2.778386 -0.464569 101
0.550097 2.719599 -0.085743 101
0.463709 2.737830 0.132895 101
0.387820 2.834095 -0.298128 100
0.295664 2.824431 -0.027757 100
0.205491 2.818448 0.238790 100
0.643209 2.728283 -0.308472 101
0.549954 2.716557 -0.043057 101
0.387247 2.826389 -0.253100 98
0.295312 2.816516 0.015817 100
0.203734 2.787924 0.371987 89
0.641661 2.719682 -0.177764 101
0.384004 2.799241 -0.119904 100
0.296227 2.820699 0.146654 100
0.212239 2.897648 -0.291535 76
0.637159 2.698581 -0.133671 101
0.474750 2.794505 -0.380727 100
0.382501 2.784825 -0.076063 96
0.294341 2.798231 0.188857 101
0.210109 2.861986 -0.243497 94
0.726528 2.690701 -0.268855 100
0.467436 2.748667 -0.209641 88
0.381403 2.773391 0.053264 101
0.310147 2.943770 -0.851133 68
0.207960 2.826250 -0.109362 100
0.727969 2.694249 -0.226018 82
0.476421 2.798674 -0.169658 100
0.384437 2.791991 0.096941 100
0.304248 2.883148 -0.348270 87
0.208532 2.827557 -0.065826 79
0.560119 2.750206 -0.173138 100
0.467837 2.739939 0.047547 101
0.447319 3.236656 -1.162320 23
0.297525 2.805955 -0.114317 100
0.208522 2.808222 0.151028 100
0.558649 2.740648 -0.129457 101
0.470138 2.750640 0.090621 101
0.392775 2.838496 -0.359462 100
0.298567 2.811297 -0.071068 100
0.209387 2.813501 0.194809 100
0.645573 2.719976 -0.264256 100
0.555708 2.723892 -0.000485 101
0.389250 2.809562 -0.207794 100
0.297797 2.799588 0.058974 101
0.222422 2.981910 -0.721471 71
0.647811 2.727375 -0.221606 101
0.387918 2.796505 -0.163284 96
0.299405 2.810232 0.102642 101
0.214446 2.868511 -0.335368 82
0.749422 2.760812 -0.522254 100
0.643468 2.707077 -0.091333 87
0.480556 2.803124 -0.301930 101
0.386807 2.785075 -0.032882 100
0.299901 2.810426 0.233364 101
0.213775 2.853121 -0.198564 97
0.735660 2.708320 -0.314298 101
0.481078 2.803357 -0.257854 98
0.388949 2.797068 0.010350 101
0.297893 2.787196 0.343181 100
0.213857 2.847823 -0.154167 67
0.569078 2.779933 -0.416589 100
0.478988 2.788377 -0.125505 101
0.384531 2.761907 0.138822 95
0.304956 2.848777 -0.293042 100
0.214339 2.847857 -0.022431 74
0.567524 2.769985 -0.305670 101
0.473626 2.754403 -0.080996 100
0.385755 2.767312 0.182153 100
0.305452 2.848902 -0.248660 100
0.213311 2.827886 0.021284 85
0.564584 2.746579 -0.259626 101
0.472845 2.739231 -0.037845 101
0.383796 2.740273 0.223115 101
0.304248 2.820430 -0.202349 100
0.213576 2.807151 0.064379 100
0.564976 2.746160 -0.216223 100
0.476751 2.759109 0.004887 100
0.303301 2.807253 -0.157863 95
0.213034 2.793842 0.107150 100
0.665144 2.779924 -0.465211 101
0.558780 2.713746 -0.085620 100
0.473263 2.736195 0.132895 100
0.396604 2.824844 -0.297298 96
0.305091 2.819406 -0.027718 100
0.215328 2.817713 0.238790 101
0.649951 2.714421 -0.307160 101
0.558626 2.710703 -0.042995 101
0.397111 2.825020 -0.253100 95
0.305572 2.819445 0.015839 100
0.214676 2.803009 0.374098 93
0.648360 2.705780 -0.177002 101
0.390431 2.774139 -0.118886 100
0.302192 2.783906 0.144795 100
0.219916 2.865142 -0.288340 75
0.646575 2.696340 -0.133671 101
0.484502 2.792831 -0.380727 101
0.391662 2.779514 -0.075954 87
0.304538 2.801154 0.189125 101
0.220097 2.861235 -0.243497 94
0.738018 2.695829 -0.269623 100
0.476345 2.743089 -0.209341 90
0.388288 2.752242 0.052884 101
0.318757 2.927383 -0.846712 65
0.217824 2.825507 -0.109362 100
0.737369 2.691691 -0.226018 56
0.486188 2.796994 -0.169658 100
0.394180 2.790632 0.096941 100
0.313018 2.870224 -0.346838 91
0.218709 2.830799 -0.065919 79
0.568094 2.740416 -0.172646 100
0.477399 2.738290 0.047547 101
0.306448 2.796954 -0.113993 100
0.218323 2.807477 0.151028 100
0.564966 2.723032 -0.128718 101
0.479049 2.745044 0.090491 101
0.400450 2.821389 -0.357470 100
0.307942 2.806263 -0.070967 100
0.218897 2.808775 0.194534 101
0.651331 2.702220 -0.262750 101
0.566839 2.729769 -0.000487 100
0.400178 2.816086 -0.208379 93
0.309315 2.814433 0.059309 101
0.232527 2.977238 -0.720532 63
0.660133 2.736727 -0.222551 101
0.397677 2.795134 -0.163284 100
0.310087 2.817117 0.102932 100
0.226938 2.899433 -0.339074 82
0.753834 2.739209 -0.518662 100
0.484851 2.770085 -0.298552 101
0.394270 2.767869 -0.032695 100
0.308398 2.797475 0.232377 101
0.223733 2.852357 -0.198564 95
0.740888 2.690406 -0.312518 101
0.485361 2.770270 -0.254965 100
0.397016 2.783813 0.010306 101
0.303699 2.750622 0.338806 101
0.221606 2.819186 -0.152658 72
0.581200 2.789553 -0.418332 99
0.490789 2.798496 -0.126037 101
0.393605 2.756593 0.138623 100
0.315336 2.851650 -0.293449 91
0.224592 2.851079 -0.022462 72
0.574755 2.756308 -0.304380 101
0.483238 2.752733 -0.080996 101
0.396542 2.773851 0.182674 100
0.314078 2.835936 -0.247622 87
0.223496 2.831112 0.021314 92
0.572059 2.736894 -0.258889 100
0.481232 2.733709 -0.037790 100
0.391183 2.727145 0.222151 101
0.313599 2.819405 -0.202349 100
0.221618 2.790482 0.064013 98
0.574080 2.744271 -0.216223 100
0.485204 2.753574 0.004880 100
0.313935 2.818140 -0.158533 81
0.221980 2.789135 0.106998 100
0.671564 2.766193 -0.463283 101
0.566957 2.707965 -0.085496 100
0.485110 2.750349 0.133659 36
0.404271 2.811699 -0.296055 100
0.312221 2.798502 -0.027523 100
0.223720 2.805064 0.237780 100
0.658010 2.708387 -0.306722 101
0.568433 2.712750 -0.043057 101
0.404774 2.811857 -0.252039 100
0.314920 2.818416 0.015839 100
0.223022 2.790425 0.372515 97
0.659216 2.711373 -0.177510 101
0.400769 2.780740 -0.119225 100
0.313643 2.802738 0.145828 100
0.231640 2.892169 -0.291136 73
0.654568 2.690299 -0.133479 101
0.493761 2.791209 -0.380727 101
0.400877 2.778199 -0.075954 87
0.313825 2.800129 0.189125 101
0.228628 2.848571 -0.242482 100
0.748018 2.697204 -0.270007 100
0.488221 2.757205 -0.210540 86
0.400272 2.770730 0.053264 101
0.330178 2.941591 -0.851133 57
0.227513 2.828753 -0.109517 90
0.495460 2.795366 -0.169658 100
0.404577 2.797222 0.097216 100
0.323422 2.877064 -0.347793 89
0.228737 2.838030 -0.066104 86
0.575532 2.730704 -0.172153 100
0.483677 2.720941 0.047274 101
0.313927 2.780036 -0.113346 101
0.226341 2.790812 0.150171 100
0.571518 2.709414 -0.128163 101
0.483947 2.719824 0.089712 101
0.409233 2.816118 -0.356973 100
0.315449 2.789333 -0.070565 100
0.227240 2.796102 0.193707 101
0.664072 2.715518 -0.264256 100
0.576715 2.731788 -0.000487 53
0.410088 2.818691 -0.208671 93
0.317296 2.801470 0.059058 101
0.242398 2.976451 -0.720532 72
0.668256 2.730649 -0.222236 101
0.408095 2.801703 -0.163746 100
0.319427 2.816073 0.102932 100
0.236228 2.894705 -0.338611 80
0.759744 2.725323 -0.516507 100
0.497529 2.788041 -0.300663 101
0.404601 2.774462 -0.032788 100
0.316324 2.784554 0.231389 101
0.233516 2.855577 -0.198840 87
0.750873 2.691763 -0.312963 101
0.498047 2.788253 -0.256770 100
0.406246 2.782481 0.010306 101
0.315063 2.769324 0.341236 100
0.231932 2.830378 -0.153305 69
0.585527 2.764380 -0.414846 100
0.497253 2.781118 -0.125328 101
0.401010 2.743413 0.138027 100
0.324791 2.850588 -0.293449 89
0.232082 2.826400 -0.022274 91
0.584716 2.758277 -0.304810 101
0.490954 2.743243 -0.080764 101
0.404004 2.760672 0.181893 100
0.321222 2.815082 -0.245893 96
0.231899 2.818396 0.021224 89
0.581614 2.734879 -0.258889 101
0.490777 2.732011 -0.037790 101
0.402445 2.737596 0.223115 101
0.323444 2.818293 -0.202349 97
0.232685 2.805632 0.064379 92
0.584489 2.746150 -0.216531 100
0.496232 2.759737 0.004894 100
0.324230 2.820994 -0.158756 81
0.232711 2.800293 0.107456 100
0.682162 2.767665 -0.463926 101
0.576408 2.705969 -0.085496 100
0.415245 2.818143 -0.296884 100
0.323819 2.813290 -0.027679 100
0.234504 2.816182 0.238790 100
0.671268 2.721515 -0.308472 101
0.579565 2.718573 -0.043181 101
0.415167 2.814368 -0.252393 100
0.323840 2.809353 0.015794 100
0.233749 2.801483 0.374098 93
0.670586 2.716807 -0.178018 101
0.411638 2.787231 -0.119565 100
0.322505 2.793689 0.145415 101
0.239742 2.867546 -0.288739 72
0.664908 2.691878 -0.133671 100
0.502087 2.781667 -0.379662 101
0.410567 2.776784 -0.075954 99
0.321301 2.779194 0.187785 101
0.237899 2.839812 -0.241806 100
0.756344 2.690746 -0.269623 100
0.495707 2.743709 -0.209641 88
0.407591 2.753492 0.052960 101
0.337341 2.913690 -0.843396 65
0.236710 2.819976 -0.109208 92
0.505205 2.793621 -0.169658 100
0.413157 2.787885 0.096941 100
0.332995 2.871973 -0.347316 91
0.237627 2.825260 -0.065826 81
0.585881 2.732585 -0.172399 100
0.493156 2.719239 0.047274 101
0.324075 2.782896 -0.113508 101
0.236738 2.797967 0.150599 100
0.581793 2.711313 -0.128348 101
0.491992 2.710254 0.089453 101
0.419626 2.818601 -0.357470 100
0.324702 2.784245 -0.070465 100
0.236306 2.787340 0.193156 100
0.673527 2.713189 -0.264256 100
0.418140 2.805408 -0.207794 97
0.326589 2.796376 0.058974 101
0.251777 2.963965 -0.717718 62
0.676800 2.724436 -0.221921 101
0.415492 2.784467 -0.162822 100
0.327375 2.799062 0.102352 101
0.245634 2.885947 -0.337684 82
0.768158 2.718875 -0.515788 100
0.507945 2.790205 -0.301085 101
0.411894 2.757213 -0.032601 101
0.325553 2.779477 0.231060 101
0.242439 2.842818 -0.198010 97
0.763483 2.700609 -0.314298 100
0.507036 2.782583 -0.256409 100
0.414745 2.773139 0.010277 101
0.323775 2.760324 0.340264 91
0.241782 2.829554 -0.153305 69
0.596811 2.770063 -0.416008 100
0.507645 2.783302 -0.125505 101
0.411738 2.749903 0.138424 100
0.333316 2.837585 -0.292228 87
0.242599 2.833546 -0.022336 85
0.593471 2.752339 -0.304380 101
0.501932 2.749385 -0.080996 101
0.414790 2.767145 0.182414 100
0.333808 2.837694 -0.247968 84
0.240336 2.801631 0.021104 93
0.592842 2.740618 -0.259626 100
0.502474 2.742084 -0.037953 101
0.409624 2.720404 0.221829 100
0.333280 2.817147 -0.202349 100
0.242132 2.800818 0.064287 100
0.592384 2.736298 -0.215916 100
0.503697 2.746185 0.004873 100
0.332666 2.807947 -0.158087 86
0.241795 2.791500 0.107150 100
0.693736 2.772927 -0.465211 101
0.586696 2.707848 -0.085620 100
0.426860 2.828478 -0.298128 100
0.333637 2.812142 -0.027679 100
0.241576 2.783580 0.236096 101
0.682695 2.726869 -0.309347 100
0.589051 2.716533 -0.043181 101
0.425584 2.816842 -0.252746 100
0.333644 2.808205 0.015794 100
0.241466 2.776949 0.370932 91
0.679096 2.710577 -0.177764 101
0.420767 2.781826 -0.119395 100
0.332255 2.792547 0.145415 100
0.250095 2.870656 -0.289139 86
0.676244 2.697291 -0.134056 33
0.513947 2.791594 -0.381260 101
0.420257 2.775334 -0.075954 89
0.332416 2.789944 0.188589 101
0.248504 2.846906 -0.242482 99
0.762459 2.676601 -0.268470 101
0.507450 2.753730 -0.210540 89
0.417800 2.756007 0.053036 101
0.349331 2.927763 -0.847817 59
0.246552 2.819133 -0.109208 94
0.514229 2.787914 -0.169420 96
0.422886 2.786426 0.096941 100
0.344432 2.882623 -0.348747 89
0.246440 2.812463 -0.065547 81
0.593715 2.722722 -0.171907 101
0.502645 2.717501 0.047274 101
0.332359 2.769843 -0.113022 100
0.245101 2.781208 0.149742 100
0.591253 2.709266 -0.128348 101
0.504361 2.724245 0.089972 100
0.427668 2.805349 -0.355977 101
0.335373 2.791035 -0.070666 100
0.247438 2.802399 0.194258 100
0.682021 2.706960 -0.263880 101
0.428532 2.807875 -0.208087 100
0.336348 2.795219 0.058974 101
0.262122 2.963068 -0.717718 66
0.684356 2.714323 -0.221290 101
0.426415 2.790895 -0.163284 100
0.336187 2.789965 0.102061 101
0.255706 2.885072 -0.337684 80
0.778727 2.719960 -0.516507 100
0.516955 2.784504 -0.300663 101
0.422121 2.759712 -0.032648 101
0.335253 2.778323 0.231060 101
0.252008 2.837980 -0.197733 100
0.771810 2.694106 -0.313853 101
0.516018 2.776880 -0.256048 98
0.426845 2.787489 0.010336 100
0.334361 2.767061 0.341236 34
0.252012 2.832671 -0.153520 74
0.604782 2.760231 -0.414846 100
0.515896 2.773655 -0.125151 101
0.420729 2.744500 0.138225 100
0.344175 2.844305 -0.293042 75
0.252133 2.828698 -0.022305 83
0.603927 2.754135 -0.304810 100
0.510794 2.743686 -0.080880 101
0.424447 2.765680 0.182414 100
0.342753 2.828599 -0.247276 100
0.251181 2.812727 0.021194 92
0.601549 2.734642 -0.259257 100
0.512042 2.740313 -0.037953 101
0.342629 2.812006 -0.202064 100
0.250833 2.788007 0.064013 92
0.603646 2.742003 -0.216531 100
0.512545 2.740478 0.004866 101
0.341498 2.798840 -0.157640 93
0.250820 2.782677 0.106845 100
0.701468 2.762836 -0.463926 101
0.595285 2.701879 -0.085496 101
0.433694 2.807312 -0.296055 100
0.341026 2.791109 -0.027484 100
0.250574 2.774780 0.235422 101
0.689272 2.712909 -0.308035 101
0.600253 2.722272 -0.043305 95
0.435414 2.815339 -0.252746 100
0.344416 2.814964 0.015839 100
0.251515 2.780039 0.371460 91
0.688553 2.708190 -0.177764 101
0.429863 2.776391 -0.119225 100
0.339572 2.771545 0.144382 100
0.259396 2.861838 -0.288340 75
0.522957 2.785886 -0.380727 101
0.429330 2.769899 -0.075846 96
0.341667 2.784806 0.188321 101
0.258440 2.846021 -0.242482 100
0.764069 2.647146 -0.265782 41
0.512640 2.728421 -0.208741 85
0.424965 2.738724 0.052732 101
0.357674 2.911264 -0.843396 69
0.255305 2.806313 -0.108745 90
0.523220 2.782178 -0.169181 100
0.430155 2.769132 0.096391 100
0.351582 2.857753 -0.345884 89
0.256982 2.819550 -0.065733 79
0.604080 2.724530 -0.172153 101
0.512127 2.715729 0.047274 101
0.343006 2.776599 -0.113346 101
0.255901 2.792269 0.150385 101
0.603304 2.718888 -0.128902 101
0.438682 2.811682 -0.356973 101
0.344623 2.785879 -0.070565 100
0.255395 2.781649 0.192881 101
0.692452 2.708421 -0.264256 101
0.437715 2.802421 -0.207794 100
0.346103 2.794028 0.058974 101
0.272463 2.962135 -0.717718 68
0.697780 2.727371 -0.222551 101
0.435538 2.785444 -0.163053 100
0.348384 2.808609 0.102787 101
0.264681 2.872293 -0.336295 82
0.791505 2.728562 -0.518662 101
0.525932 2.778774 -0.300241 101
0.431752 2.758222 -0.032648 101
0.345440 2.781092 0.231389 101
0.262280 2.841056 -0.198010 97
0.780101 2.687577 -0.313408 101
0.524966 2.771147 -0.255687 100
0.435334 2.778079 0.010306 100
0.261530 2.827797 -0.153305 81
0.615274 2.761966 -0.415427 100
0.527808 2.783616 -0.125683 101
0.434641 2.770642 0.139618 100
0.354102 2.843086 -0.293042 89
0.263481 2.843732 -0.022431 92
0.614402 2.755892 -0.305240 101
0.521860 2.749743 -0.081112 101
0.430383 2.740522 0.180852 100
0.352624 2.827386 -0.247276 92
0.260628 2.807851 0.021164 94
0.607601 2.716981 -0.257782 100
0.520095 2.730654 -0.037845 101
0.352430 2.810794 -0.202064 94
0.260178 2.783134 0.063922 100
0.611464 2.732097 -0.215916 100
0.523598 2.746532 0.004880 98
0.352252 2.805557 -0.158087 86
0.260524 2.781785 0.106845 100
0.709134 2.752724 -0.462641 101
0.604709 2.699785 -0.085496 100
0.441003 2.790062 -0.294396 100
0.351761 2.797839 -0.027562 100
0.259882 2.769921 0.235085 101
0.697747 2.706636 -0.307597 101
0.608879 2.716257 -0.043243 52
0.443995 2.805931 -0.252039 100
0.353243 2.805807 0.015794 100
0.261590 2.783091 0.371987 93
0.700003 2.713499 -0.178272 98
0.438934 2.770925 -0.119056 100
0.349751 2.774305 0.144589 100
0.268272 2.849027 -0.287142 81
0.531200 2.776254 -0.379662 101
0.440260 2.776280 -0.076063 100
0.350398 2.775675 0.187785 101
0.267636 2.837164 -0.241806 100
0.527429 2.754035 -0.210840 96
0.434539 2.737221 0.052732 101
0.366887 2.902368 -0.841185 58
0.266620 2.821321 -0.109362 100
0.532950 2.780330 -0.169181 100
0.440468 2.771558 0.096528 100
0.360581 2.848626 -0.344930 91
0.265714 2.806690 -0.065454 81
0.613623 2.722397 -0.172153 100
0.521640 2.713918 0.047274 101
0.353236 2.779345 -0.113508 101
0.266062 2.795331 0.150599 101
0.612832 2.716756 -0.128902 101
0.451038 2.825804 -0.358964 101
0.355902 2.796554 -0.070867 100
0.267039 2.800599 0.194258 101
0.700948 2.702121 -0.263880 101
0.448800 2.808747 -0.208379 100
0.355395 2.788830 0.058890 101
0.283221 2.965032 -0.718656 62
0.705344 2.717185 -0.221921 101
0.445310 2.783898 -0.163053 100
0.357226 2.799439 0.102497 101
0.275138 2.875301 -0.336758 83
0.801081 2.725767 -0.518662 100
0.532672 2.761288 -0.298552 101
0.442066 2.760638 -0.032695 101
0.353687 2.767999 0.230402 101
0.272254 2.840118 -0.198010 100
0.790659 2.688634 -0.313853 100
0.533188 2.761463 -0.254965 100
0.441924 2.756785 0.010233 101
0.269935 2.810957 -0.152442 83
0.625852 2.763647 -0.416008 100
0.536830 2.777820 -0.125505 101
0.440578 2.745430 0.138424 100
0.363586 2.837877 -0.292635 95
0.273092 2.838807 -0.022399 81
0.619695 2.734322 -0.303090 101
0.529248 2.736114 -0.080764 101
0.438751 2.731110 0.180332 68
0.361550 2.818223 -0.246585 94
0.270501 2.806917 0.021164 99
0.617964 2.718727 -0.258151 100
0.528861 2.724895 -0.037790 101
0.362239 2.809547 -0.202064 100
0.271049 2.794150 0.064196 100
0.620997 2.729946 -0.215916 95
0.533945 2.748614 0.004887 101
0.362043 2.804311 -0.158087 89
0.270232 2.780859 0.106845 100
0.721734 2.761692 -0.464569 101
0.614130 2.697658 -0.085496 101
0.453279 2.804216 -0.296055 100
0.361013 2.792628 -0.027523 100
0.270322 2.776931 0.235759 100
0.706185 2.700337 -0.307160 101
0.451877 2.792565 -0.250979 95
0.363035 2.804557 0.015794 101
0.270534 2.774268 0.370932 99
0.703407 2.687868 -0.176749 47
0.448603 2.769376 -0.119056 100
0.359433 2.773067 0.144589 101
0.278215 2.848073 -0.287142 81
0.541647 2.778274 -0.380195 101
0.448669 2.766832 -0.075846 99
0.361112 2.782351 0.188321 101
0.276373 2.824312 -0.240791 100
0.534748 2.740433 -0.209940 89
0.444732 2.739635 0.052808 101
0.379493 2.920130 -0.846712 69
0.275687 2.812417 -0.109054 98
0.541887 2.774534 -0.168942 100
0.449498 2.766058 0.096391 100
0.370010 2.843411 -0.344453 91
0.275510 2.805746 -0.065454 89
0.623122 2.720239 -0.172153 101
0.528036 2.696382 0.047000 101
0.361900 2.770169 -0.113184 101
0.274641 2.782460 0.149957 101
0.617847 2.695127 -0.127978 101
0.455786 2.792875 -0.354981 101
0.364105 2.783399 -0.070565 100
0.274457 2.775823 0.192605 100
0.711389 2.703509 -0.264256 100
0.456672 2.795352 -0.207502 100
0.364089 2.779641 0.058723 101
0.292803 2.956286 -0.716780 71
0.712793 2.706995 -0.221290 101
0.457603 2.798091 -0.163977 101
0.366476 2.794212 0.102352 101
0.285173 2.874323 -0.336758 78
0.810591 2.722954 -0.518662 100
0.544608 2.771121 -0.299818 101
0.449761 2.747237 -0.032555 101
0.363866 2.770700 0.230731 101
0.281771 2.835180 -0.197733 100
0.800040 2.685858 -0.313853 87
0.546668 2.779129 -0.256770 100
0.454132 2.771015 0.010292 101
0.281329 2.825896 -0.153305 85
0.633720 2.753731 -0.414846 101
0.544980 2.768088 -0.125151 101
0.448865 2.735991 0.138027 100
0.372451 2.828700 -0.291821 95
0.281015 2.817935 -0.022242 85
0.631913 2.743768 -0.304380 101
0.539569 2.738173 -0.080880 100
0.371386 2.816944 -0.246585 100
0.278706 2.790035 0.021044 100
0.628347 2.720434 -0.258520 100
0.540697 2.734803 -0.037953 100
0.370472 2.796399 -0.201210 100
0.280001 2.785229 0.064013 100
0.630523 2.727762 -0.215916 100
0.543536 2.746733 0.004887 100
0.372880 2.810948 -0.158533 100
0.281540 2.795806 0.107456 101
0.730358 2.755339 -0.463926 100
0.624444 2.699393 -0.085620 100
0.463713 2.806542 -0.296469 100
0.370759 2.791350 -0.027523 100
0.281614 2.791833 0.237106 101
0.716626 2.701699 -0.307597 101
0.464873 2.810625 -0.252746 98
0.372822 2.803273 0.015794 100
0.280615 2.777252 0.371460 95
0.458267 2.767793 -0.119056 100
0.370692 2.783675 0.145208 100
0.288556 2.851045 -0.287541 82
0.550569 2.772478 -0.379662 101
0.458324 2.765249 -0.075846 93
0.369767 2.773162 0.187785 101
0.289447 2.855053 -0.243497 100
0.541200 2.722900 -0.208741 87
0.452983 2.730175 0.052656 101
0.387649 2.903546 -0.842290 73
0.284291 2.799508 -0.108591 95
0.550789 2.768710 -0.168704 101
0.460461 2.772359 0.096666 101
0.378354 2.830293 -0.343022 89
0.284088 2.792832 -0.065176 90
0.634424 2.725824 -0.172646 101
0.537445 2.694522 0.047000 53
0.371036 2.764927 -0.113022 100
0.285571 2.793405 0.150599 101
0.628157 2.696846 -0.128163 101
0.464879 2.787352 -0.354483 101
0.372754 2.774185 -0.070364 100
0.284552 2.778818 0.192881 101
0.719795 2.697161 -0.263880 101
0.465770 2.789806 -0.207210 100
0.375389 2.790244 0.058974 101
0.303120 2.955246 -0.716780 62
0.724296 2.712195 -0.221921 101
0.467368 2.796476 -0.163977 100
0.376227 2.792916 0.102352 101
0.296423 2.885167 -0.338148 80
0.822362 2.727643 -0.520099 101
0.557401 2.784804 -0.301508 101
0.459348 2.745650 -0.032555 101
0.366608 2.718055 0.226452 101
0.292074 2.838148 -0.198010 100
0.551671 2.753768 -0.254604 100
0.464463 2.773358 0.010306 101
0.289962 2.812977 -0.152658 90
0.645131 2.759210 -0.416008 100
0.552282 2.754414 -0.124619 101
0.457752 2.730467 0.137828 100
0.383390 2.835269 -0.292635 99
0.289617 2.805001 -0.022148 85
0.642393 2.745418 -0.304810 100
0.548337 2.732352 -0.080764 101
0.380682 2.811681 -0.246239 100
0.290501 2.808939 0.021194 96
0.638294 2.722209 -0.258889 100
0.549783 2.732991 -0.037953 100
0.382449 2.814920 -0.202633 90
0.290496 2.796216 0.064287 100
0.641399 2.733419 -0.216531 100
0.552654 2.744913 0.004887 94
0.380059 2.793865 -0.157640 87
0.289581 2.782929 0.106998 100
0.738471 2.749088 -0.463283 101
0.632482 2.693414 -0.085496 75
0.471699 2.797142 -0.295640 100
0.380558 2.794068 -0.027562 100
0.288809 2.771061 0.235422 101
0.724546 2.695468 -0.307160 101
0.472199 2.797282 -0.251686 93
0.379951 2.786168 0.015705 100
0.288174 2.760532 0.369349 100
0.466101 2.758379 -0.118717 100
0.380991 2.790348 0.145621 101
0.296342 2.834239 -0.285944 79
0.558957 2.766755 -0.379130 101
0.465472 2.751889 -0.075522 99
0.377321 2.760060 0.186982 101
0.297233 2.838224 -0.242144 100
0.550201 2.721096 -0.208741 89
0.464679 2.744435 0.052960 101
0.396727 2.898440 -0.841185 63
0.293130 2.794577 -0.108437 95
0.559142 2.762961 -0.168465 100
0.468282 2.762940 0.096391 101
0.388781 2.836897 -0.343976 82
0.293731 2.795855 -0.065269 90
0.642485 2.719833 -0.172399 100
0.381780 2.775568 -0.113508 101
0.294355 2.788477 0.150385 101
0.637034 2.694763 -0.128163 101
0.476717 2.801457 -0.356475 101
0.382432 2.776904 -0.070465 100
0.294119 2.781834 0.193156 100
0.728664 2.694779 -0.263880 101
0.474946 2.788259 -0.207210 100
0.381836 2.769186 0.058555 101
0.311203 2.938766 -0.713027 66
0.734248 2.713649 -0.222236 100
0.474543 2.783115 -0.163284 100
0.384312 2.783744 0.102061 101
0.303390 2.860472 -0.335368 78
0.829020 2.717400 -0.518662 100
0.564163 2.771265 -0.300241 101
0.466344 2.732299 -0.032414 101
0.370621 2.681296 0.223490 101
0.301394 2.837173 -0.198010 100
0.562294 2.759750 -0.255326 101
0.470867 2.756047 0.010248 101
0.297924 2.800095 -0.152011 87
0.655087 2.760931 -0.416589 100
0.563705 2.764335 -0.125151 101
0.467375 2.732889 0.138027 100
0.393229 2.837939 -0.293042 99
0.300084 2.815969 -0.022242 96
0.650464 2.739429 -0.304380 100
0.556485 2.726624 -0.080648 101
0.388795 2.802525 -0.245547 95
0.298428 2.796040 0.021104 100
0.648715 2.723839 -0.259257 101
0.557715 2.723219 -0.037845 101
0.391722 2.809617 -0.202349 100
0.297692 2.771328 0.063739 100
0.649088 2.723404 -0.215916 100
0.559823 2.731212 0.004866 100
0.389809 2.792521 -0.157640 100
0.298438 2.773953 0.106692 100
0.750138 2.754112 -0.464569 101
0.480785 2.791557 -0.295225 100
0.389755 2.788761 -0.027523 100
0.299334 2.777962 0.236096 101
0.738133 2.708267 -0.308910 101
0.482637 2.799543 -0.252039 91
0.390783 2.792748 0.015750 100
0.296957 2.751625 0.368294 81
0.477086 2.764612 -0.119056 100
0.389621 2.781089 0.145208 101
0.308372 2.852973 -0.287941 75
0.568611 2.764787 -0.379130 101
0.475756 2.754188 -0.075630 96
0.389171 2.774535 0.188053 101
0.306710 2.833207 -0.241806 100
0.562108 2.730879 -0.209641 100
0.470167 2.719152 0.052503 101
0.406842 2.897037 -0.841185 59
0.304175 2.805458 -0.108900 98
0.567172 2.753171 -0.167988 100
0.479287 2.769167 0.096666 101
0.399235 2.839456 -0.344453 89
0.303489 2.794813 -0.065269 88
0.652907 2.721456 -0.172646 100
0.389232 2.758388 -0.112860 100
0.303654 2.783462 0.150171 101
0.645503 2.688637 -0.127978 101
0.483096 2.780225 -0.353985 101
0.391004 2.767633 -0.070264 100
0.301227 2.756989 0.191503 101
0.738066 2.692219 -0.263880 101
0.487410 2.802305 -0.208379 100
0.392060 2.771796 0.058639 101
0.324420 2.964719 -0.719594 71
0.739497 2.695688 -0.220975 37
