# This PCD file was generated using the MATLAB® pcwrite function
# from Computer Vision Toolbox®.
# .PCD v.7 - Point Cloud Data file format
VERSION .7
FIELDS x y z intensity
SIZE 4 4 4 1
TYPE F F F U
COUNT 1 1 1 1
WIDTH 1519
HEIGHT 1
VIEWPOINT 0 0 0 1 0 0 0
POINTS 1519
DATA ascii
1.777092 4.815574 -0.564876 72
1.689684 5.069163 -0.083007 101
1.348832 5.108166 -0.468729 86
2.150982 4.856915 -0.031522 101
1.805758 4.890748 -0.331657 83
1.715242 5.142984 0.165641 101
1.366017 5.169759 -0.226918 90
2.169555 4.896654 0.050478 101
1.816431 4.917136 -0.252704 85
1.735327 5.200324 0.251823 101
1.469412 4.919118 -0.689569 100
1.373739 5.195486 -0.145417 101
1.045611 5.286218 -0.457232 70
1.930864 4.755102 -0.495076 100
1.849863 5.005075 -0.011176 76
1.497534 5.010222 -0.393188 100
1.941793 4.779733 -0.417811 89
1.861635 5.034349 0.071202 100
1.522804 5.091677 -0.317602 91
1.182275 5.115407 -0.630702 35
2.077651 4.678711 -0.503753 101
2.003286 4.924047 -0.021340 100
1.659636 4.959750 -0.322633 101
1.547358 5.164382 0.092221 67
1.211310 5.229132 -0.217462 100
2.087799 4.699456 -0.426393 101
2.016056 4.953074 0.060670 101
1.669451 4.986321 -0.243380 100
1.330006 5.009838 -0.650218 100
2.126812 4.785123 -0.192013 101
1.799566 4.854079 -0.489363 80
1.710186 5.105166 -0.000940 100
1.361243 5.124062 -0.388409 79
2.144804 4.823441 -0.112419 101
1.805549 4.867731 -0.410427 77
1.721006 5.134631 0.082235 101
1.368597 5.148293 -0.308091 85
1.880381 4.613150 -0.909454 101
1.840229 4.958697 -0.173611 67
1.488578 4.956201 -0.549386 100
1.381931 5.194968 -0.062864 68
1.045414 5.243948 -0.371095 67
1.934885 4.744604 -0.573840 100
1.845942 4.971554 -0.092568 83
1.504268 5.005415 -0.473815 101
1.963207 4.811763 -0.340620 101
1.879711 5.059921 0.154545 101
1.623613 4.836044 -0.748931 100
1.533954 5.101115 -0.236297 80
1.190466 5.115912 -0.537244 65
1.968772 4.823109 -0.261165 101
1.898995 5.109228 0.239890 81
1.641185 4.885686 -0.557170 95
1.535668 5.103733 -0.154460 65
1.205702 5.177483 -0.461352 101
1.991407 4.869351 -0.182793 101
1.906439 5.118883 0.324524 101
1.649494 4.899683 -0.478686 101
1.548786 5.135019 -0.073021 98
1.215133 5.202400 -0.381075 101
2.070609 4.637913 -0.578695 101
2.002132 4.893252 -0.102439 101
1.662646 4.936034 -0.401689 100
1.557872 5.162035 0.009411 98
1.221733 5.226728 -0.300096 99
2.114232 4.733507 -0.349788 101
2.035934 4.973504 0.143541 86
1.762559 4.727746 -0.821188 90
1.694426 5.027614 -0.163950 101
1.353498 5.057666 -0.545669 100
2.123481 4.752090 -0.270958 101
1.793890 4.809342 -0.564876 74
1.704813 5.055654 -0.082883 101
1.365624 5.099578 -0.468376 88
2.167922 4.849378 -0.031522 101
1.822819 4.884415 -0.331657 79
1.730627 5.129389 0.165397 101
1.384054 5.164959 -0.226918 90
1.829391 4.899537 -0.252126 96
1.752191 5.190449 0.251639 101
1.481982 4.898781 -0.687439 100
1.392902 5.194521 -0.145525 101
1.060909 5.266907 -0.455880 80
1.945940 4.744649 -0.494692 100
1.864523 4.991094 -0.011159 77
1.512703 4.997329 -0.392589 100
1.956952 4.769238 -0.417488 87
1.876396 5.020327 0.071096 101
1.535938 5.071044 -0.316648 91
1.201031 5.115115 -0.631179 39
2.090714 4.664165 -0.502970 101
2.021982 4.920725 -0.021356 97
1.676939 4.953926 -0.322633 101
1.568859 5.170431 0.092427 72
1.225893 5.209311 -0.216814 101
2.104191 4.692139 -0.426393 101
2.030291 4.938608 0.060579 101
1.683000 4.969110 -0.242825 100
1.585382 5.221758 0.177218 0
1.345422 4.997500 -0.649222 100
2.148411 4.788611 -0.192453 101
1.815102 4.844039 -0.488987 85
1.727995 5.099165 -0.000940 101
1.376008 5.107723 -0.387532 82
2.163265 4.819573 -0.112504 101
1.826729 4.872601 -0.411373 70
1.737635 5.124804 0.082175 101
1.385520 5.139628 -0.307860 88
1.896473 4.606558 -0.909454 101
1.856123 4.948501 -0.173480 66
1.777754 5.240260 0.339419 0
1.505870 4.950974 -0.549386 100
1.402140 5.197836 -0.062957 73
1.065300 5.248089 -0.371649 72
1.951435 4.737821 -0.573840 100
1.860474 4.957591 -0.092428 79
1.520571 4.996323 -0.473454 101
1.981512 4.808571 -0.340881 101
1.895956 5.049586 0.154431 101
1.637939 4.822852 -0.747769 100
1.548259 5.084261 -0.235766 89
1.213809 5.134961 -0.539686 72
1.985596 4.816208 -0.261165 101
1.909792 5.083863 0.239011 81
1.659508 4.883693 -0.557600 95
1.553474 5.098341 -0.154460 69
1.221933 5.165487 -0.460660 101
2.003803 4.851290 -0.182376 101
1.918658 5.097253 0.323576 101
1.662725 4.882588 -0.477579 101
1.562018 5.114285 -0.072803 94
1.230512 5.186483 -0.380222 101
2.083514 4.623413 -0.577789 101
2.022249 4.893629 -0.102594 101
1.679860 4.930202 -0.401689 97
1.580551 5.171869 0.009439 93
1.236273 5.206890 -0.299203 93
2.130740 4.726099 -0.349788 101
2.062447 4.988539 0.144182 70
1.779049 4.721566 -0.821188 99
1.711962 5.021670 -0.163950 101
1.372184 5.056751 -0.546084 100
2.140057 4.744648 -0.270958 101
1.812071 4.806770 -0.565314 79
1.723743 5.053457 -0.082945 100
1.381330 5.087089 -0.467669 94
2.181551 4.834486 -0.031474 101
1.838454 4.874286 -0.331403 69
1.744653 5.111963 0.165030 101
1.401032 5.156239 -0.226749 80
1.847902 4.896855 -0.252319 91
1.772891 5.191861 0.252006 101
1.500243 4.897366 -0.687971 101
1.409987 5.185766 -0.145417 101
1.072892 5.231934 -0.453174 78
1.967074 4.748858 -0.495845 92
1.884773 4.992034 -0.011176 70
1.531320 4.995828 -0.392889 100
1.976657 4.769737 -0.418134 89
1.892513 5.009998 0.071043 100
1.555989 5.073282 -0.317125 99
1.216133 5.099298 -0.629748 40
2.107009 4.656826 -0.502970 101
2.037642 4.909930 -0.021340 83
1.696837 4.955586 -0.323125 101
1.591626 5.180206 0.092700 97
1.244100 5.204992 -0.216814 101
2.120588 4.684752 -0.426393 101
2.050618 4.938865 0.060670 101
1.699074 4.959413 -0.242640 100
1.597761 5.197074 0.176568 0
1.362891 4.992764 -0.649222 100
1.260482 5.269633 -0.136205 1
2.158553 4.766501 -0.191866 101
1.830625 4.833936 -0.488610 78
1.743228 5.085522 -0.000938 101
1.391764 5.095182 -0.386948 86
2.180115 4.811974 -0.112504 101
1.840941 4.858721 -0.410742 66
1.754258 5.114910 0.082114 101
1.402442 5.130897 -0.307629 93
1.912583 4.599893 -0.909454 101
1.870596 4.934498 -0.173217 64
1.793491 5.226453 0.338929 4
1.522016 4.941873 -0.548963 100
1.420322 5.192897 -0.062957 71
1.088505 5.267776 -0.373310 82
1.971061 4.738301 -0.574730 97
1.883490 4.966006 -0.092707 75
1.538051 4.990969 -0.473454 101
1.443452 5.273999 0.020041 0
1.998336 4.801604 -0.340881 101
1.909369 5.031702 0.154087 101
1.654815 4.817088 -0.747769 100
1.566050 5.078809 -0.235766 89
1.229923 5.122941 -0.538872 73
2.002451 4.809225 -0.261165 101
1.924747 5.069672 0.238659 88
1.674016 4.870330 -0.556740 97
1.572497 5.096691 -0.154575 62
1.240946 5.165051 -0.461006 101
2.019186 4.840577 -0.182237 101
1.932180 5.079328 0.322864 101
1.677164 4.869223 -0.476842 101
1.582223 5.116443 -0.072912 98
1.246739 5.174399 -0.379653 101
2.104577 4.626965 -0.579148 101
2.045480 4.901303 -0.102904 101
1.698358 4.928079 -0.401997 100
1.598594 5.166321 0.009439 99
1.256313 5.210308 -0.299650 91
2.147224 4.718633 -0.349788 101
2.081388 4.985000 0.144289 74
1.799734 4.726396 -0.823115 99
1.730784 5.019443 -0.164074 101
1.391938 5.059602 -0.546913 101
2.156606 4.737149 -0.270958 101
1.826008 4.792985 -0.564439 75
1.740067 5.043629 -0.082883 100
1.394849 5.066871 -0.466255 99
2.196756 4.823202 -0.031451 101
1.855457 4.867838 -0.331403 85
1.761182 5.102063 0.164908 101
1.417961 5.147464 -0.226579 88
1.085474 5.205325 -0.533549 101
1.860713 4.879176 -0.251741 86
1.789698 5.181863 0.251823 101
1.518504 4.895885 -0.688504 100
1.428080 5.180812 -0.145417 101
1.083820 5.193043 -0.450130 64
1.983639 4.741963 -0.495845 100
1.903613 4.989161 -0.011184 64
1.546385 4.982833 -0.392289 100
1.993294 4.762808 -0.418134 89
1.911416 5.007099 0.071096 100
1.571320 5.060193 -0.316648 80
1.237665 5.110461 -0.631656 44
2.126559 4.656685 -0.503753 101
2.051676 4.895410 -0.021308 86
1.710205 4.938315 -0.322387 101
1.604947 5.159343 0.092427 100
1.262261 5.200618 -0.216814 101
2.135271 4.673695 -0.426062 101
2.067846 4.931677 0.060670 101
1.713758 4.945901 -0.242270 100
1.620645 5.206735 0.177088 28
1.379253 4.984151 -0.648724 100
1.271318 5.234115 -0.135401 4
2.178501 4.766209 -0.192160 101
1.846064 4.823797 -0.488234 82
1.758349 5.071847 -0.000937 100
1.410606 5.094138 -0.387240 86
2.196899 4.804335 -0.112504 101
1.860741 4.859714 -0.411373 66
1.772101 5.108755 0.082114 101
1.419277 5.122122 -0.307399 100
1.933198 4.604073 -0.911609 101
1.887809 4.927938 -0.173217 66
1.813032 5.223933 0.339174 70
1.538074 4.932733 -0.548541 100
1.440577 5.195616 -0.063051 67
1.106066 5.260039 -0.373034 100
1.984509 4.724062 -0.573840 94
1.899382 4.955667 -0.092637 81
1.555464 4.985570 -0.473454 101
1.459714 5.261220 0.020012 41
1.110462 5.276566 -0.291084 3
2.019724 4.805638 -0.341666 101
1.931216 5.036206 0.154431 101
1.672919 4.815020 -0.748350 100
1.582578 5.069497 -0.235588 93
1.248740 5.122482 -0.539279 83
2.019226 4.802205 -0.261165 101
1.946726 5.074115 0.239187 76
1.689700 4.860700 -0.556310 93
1.587895 5.083538 -0.154344 69
1.255190 5.145202 -0.459623 101
2.032967 4.826130 -0.181959 101
1.696771 4.870861 -0.477579 101
1.598879 5.107072 -0.072858 90
1.263845 5.166140 -0.379368 101
2.119057 4.615978 -0.578695 101
2.057917 4.883077 -0.102671 101
1.715550 4.922121 -0.401997 100
1.614227 5.153075 0.009425 100
1.272593 5.198133 -0.299203 93
2.157019 4.696602 -0.348711 101
2.080134 4.933490 0.143007 86
1.810550 4.705346 -0.820545 100
1.743029 4.998271 -0.163580 101
1.404247 5.035551 -0.544840 100
2.174796 4.733222 -0.271166 101
1.845584 4.794003 -0.565314 76
1.752392 5.022419 -0.082635 100
1.411456 5.058133 -0.465901 100
2.216920 4.822773 -0.031498 101
1.872438 4.861332 -0.331403 79
1.782934 5.107208 0.165274 101
1.436995 5.146332 -0.226749 86
1.105290 5.209291 -0.534348 101
1.879170 4.876379 -0.251934 86
1.801188 5.156723 0.250905 101
1.532021 4.879208 -0.686906 101
1.445079 5.171945 -0.145309 101
1.098628 5.173633 -0.448778 74
1.992432 4.716671 -0.493924 100
1.915261 4.967557 -0.011151 76
1.564964 4.981210 -0.392589 95
2.008356 4.752149 -0.417811 89
1.928882 5.000396 0.071096 100
1.592566 5.066104 -0.317364 72
1.247910 5.075257 -0.627840 41
2.139468 4.642003 -0.502970 101
2.074988 4.902953 -0.021372 99
1.731392 4.943620 -0.323125 101
1.625349 5.161338 0.092564 86
1.277538 5.184538 -0.216328 101
2.154911 4.673453 -0.426723 101
2.083488 4.920745 0.060624 101
1.733655 4.947431 -0.242640 100
1.635205 5.189607 0.176698 42
1.397714 4.983128 -0.649222 100
1.302984 5.283999 -0.136808 77
2.191776 4.751316 -0.191866 101
1.858582 4.806181 -0.487105 92
1.780012 5.077003 -0.000939 101
1.424067 5.073819 -0.386071 88
2.208629 4.785744 -0.112248 101
1.873377 4.842032 -0.410427 73
1.788599 5.098764 0.082053 101
1.433909 5.105603 -0.306706 98
1.958474 4.619034 -0.915920 76
1.904999 4.921319 -0.173217 66
1.818034 5.179900 0.336725 86
1.554085 4.923540 -0.548119 100
1.458704 5.190556 -0.063051 71
1.125255 5.260048 -0.373310 100
1.999435 4.713447 -0.573394 100
1.912335 4.937818 -0.092428 88
1.570458 4.972513 -0.472732 101
1.474822 5.244541 0.019968 88
1.132219 5.288280 -0.291947 86
2.030249 4.783862 -0.340620 101
1.951673 5.036891 0.154660 101
1.688404 4.805418 -0.747769 100
1.599061 5.060132 -0.235411 89
1.263746 5.106504 -0.538058 83
2.035976 4.795128 -0.261165 101
1.962982 5.063563 0.239011 85
1.706657 4.854773 -0.556310 97
1.608041 5.085588 -0.154575 73
1.273143 5.140789 -0.459623 101
2.047406 4.815679 -0.181820 101
1.710279 4.857690 -0.476842 101
1.614608 5.097925 -0.072803 94
1.280020 5.158045 -0.379083 101
2.136028 4.612529 -0.579148 101
2.074104 4.876223 -0.102671 101
1.729219 4.908879 -0.401382 100
1.626480 5.132439 0.009397 100
1.288868 5.190006 -0.298980 90
2.172584 4.689422 -0.348711 101
1.826146 4.699315 -0.820545 100
1.759597 4.992462 -0.163580 101
1.414452 5.007894 -0.542352 100
2.192159 4.729609 -0.271374 101
1.855707 4.773034 -0.563564 76
1.769036 5.016581 -0.082635 100
1.427137 5.049591 -0.465548 97
2.234578 4.819026 -0.031522 101
1.888543 4.855098 -0.331403 90
1.801185 5.105040 0.165397 101
1.452960 5.137694 -0.226579 84
1.122553 5.205598 -0.534348 101
1.895321 4.870124 -0.251934 94
1.818268 5.150725 0.250905 101
1.548184 4.874104 -0.686906 101
1.458946 5.155585 -0.144984 101
1.119973 5.189444 -0.450469 91
2.012734 4.721031 -0.495076 96
1.934613 4.968639 -0.011167 64
1.577836 4.964593 -0.391689 95
2.022522 4.741803 -0.417488 89
1.945436 4.993979 0.071096 100
1.609340 5.060801 -0.317364 83
1.264716 5.071095 -0.627840 42
2.156501 4.638505 -0.503362 101
2.092778 4.899735 -0.021388 98
1.746415 4.934098 -0.322879 101
1.639998 5.148308 0.092427 86
1.294694 5.180281 -0.216328 101
2.165322 4.655452 -0.425732 101
2.096619 4.906467 0.060534 101
1.746017 4.930367 -0.242085 100
1.649943 5.176548 0.176439 51
1.410944 4.967021 -0.647728 100
1.310762 5.240866 -0.135803 101
2.209171 4.747662 -0.192013 101
1.875923 4.803715 -0.487481 89
1.794129 5.063545 -0.000938 100
1.444119 5.080591 -0.386948 86
2.232886 4.796539 -0.112674 101
1.890835 4.839522 -0.410742 80
1.808129 5.100359 0.082175 100
1.454067 5.112355 -0.307399 90
2.038756 4.764474 -0.946091 17
1.922719 4.918715 -0.173349 62
1.839159 5.185148 0.337460 81
1.575199 4.933531 -0.549808 100
1.474767 5.181857 -0.063004 78
1.142644 5.256298 -0.373310 101
2.015008 4.706810 -0.573394 100
1.931564 4.938918 -0.092568 75
1.584465 4.959704 -0.472010 101
1.486676 5.220401 0.019895 91
1.145452 5.264993 -0.290869 100
2.049194 4.784462 -0.341143 101
1.963941 5.019241 0.154316 101
1.701631 4.792351 -0.746607 101
1.615778 5.054818 -0.235411 89
1.276743 5.086861 -0.536430 97
2.051812 4.788373 -0.261165 101
1.981162 5.060770 0.239187 80
1.721360 4.845359 -0.555880 89
1.623620 5.076438 -0.154460 70
1.289154 5.132689 -0.459277 101
2.062626 4.804830 -0.181682 101
1.728561 4.855443 -0.477211 101
1.631173 5.088449 -0.072749 92
1.294119 5.138070 -0.377945 101
2.155481 4.612246 -0.580053 101
2.092691 4.872628 -0.102749 101
1.750359 4.914084 -0.402304 100
1.650494 5.145775 0.009432 100
1.304049 5.173858 -0.298310 86
2.185560 4.674579 -0.348173 101
1.838210 4.681887 -0.818617 100
1.767618 4.959927 -0.162715 101
1.675104 5.219516 0.262347 0
1.434114 5.010576 -0.543181 100
2.210347 4.725546 -0.271582 101
1.876718 4.777629 -0.564876 80
1.785193 5.006608 -0.082572 101
1.442560 5.036918 -0.464841 100
1.905479 4.848476 -0.331403 87
1.820338 5.102487 0.165519 101
1.469784 5.128750 -0.226410 92
1.139012 5.193872 -0.533549 101
1.910847 4.859761 -0.251741 83
1.834893 5.140584 0.250721 101
1.563975 4.864896 -0.686374 100
1.473627 5.138930 -0.144660 101
1.140644 5.197181 -0.451483 100
2.033924 4.724948 -0.496229 98
1.951945 4.961856 -0.011167 74
1.596377 4.962853 -0.391989 95
2.039062 4.734714 -0.417488 89
1.958462 4.975992 0.070936 101
1.617209 5.024745 -0.315455 83
1.283384 5.070500 -0.628317 48
2.172679 4.630949 -0.503362 101
2.109868 4.892401 -0.021388 100
1.763627 4.927971 -0.322879 101
1.657959 5.142552 0.092427 83
1.312768 5.175730 -0.216328 101
2.184947 4.655083 -0.426393 101
2.112148 4.895446 0.060488 101
1.765911 4.931766 -0.242455 100
1.674139 5.189782 0.177088 58
1.428274 4.962066 -0.647728 100
1.321178 5.205252 -0.134999 101
2.224031 4.736303 -0.191866 101
1.895603 4.804546 -0.488234 87
1.814491 5.064783 -0.000939 100
1.458533 5.064019 -0.386071 80
2.239413 4.766998 -0.112163 101
1.901860 4.818057 -0.409482 77
1.819173 5.075191 0.081871 101
1.465269 5.084225 -0.306013 95
1.134512 5.136571 -0.613298 8
1.935472 4.900818 -0.172955 70
1.854551 5.171180 0.336970 70
1.586295 4.909077 -0.547696 100
1.489522 5.165148 -0.062864 95
1.157540 5.236692 -0.372203 101
2.029849 4.696099 -0.572949 99
1.947323 4.928425 -0.092498 81
1.604219 4.961724 -0.472732 101
1.510435 5.234395 0.019968 91
1.160372 5.245363 -0.290006 93
2.057961 4.758963 -0.339835 101
1.975570 4.997482 0.153858 101
1.715674 4.778933 -0.745445 101
1.629723 5.037741 -0.234879 85
1.292528 5.074661 -0.535616 97
2.066927 4.777515 -0.260965 101
2.000285 5.057539 0.239362 76
1.740952 4.846806 -0.556740 81
1.633942 5.047915 -0.153764 63
1.301157 5.104988 -0.457202 101
2.088924 4.819608 -0.182515 101
1.748196 4.856874 -0.477948 101
1.652627 5.094138 -0.072912 78
1.314022 5.141252 -0.378514 101
2.171568 4.604694 -0.580053 101
2.101732 4.846948 -0.102361 101
1.763447 4.896687 -0.401382 100
1.661036 5.117155 0.009390 99
1.322101 5.169274 -0.298310 100
2.201864 4.666922 -0.348173 101
1.857453 4.682782 -0.819903 100
1.786276 4.957488 -0.162838 101
1.684674 5.187037 0.261009 0
1.448271 4.994076 -0.541937 100
2.223419 4.710577 -0.271166 101
1.888984 4.759962 -0.563564 78
1.804015 5.004108 -0.082635 101
1.459023 5.028025 -0.464487 91
1.919446 4.834375 -0.330896 75
1.832711 5.081058 0.165030 101
1.486564 5.119750 -0.226240 88
1.153670 5.174326 -0.531951 101
1.929275 4.856774 -0.251934 89
1.850113 5.126630 0.250354 101
1.582173 4.863177 -0.686906 100
1.491556 5.133755 -0.144660 101
1.158779 5.193168 -0.451483 100
2.048818 4.714168 -0.495845 100
1.967775 4.951295 -0.011159 77
1.611222 4.949665 -0.391389 100
2.057167 4.731224 -0.417811 89
1.980253 4.980276 0.071096 101
1.637212 5.026663 -0.315932 80
1.304039 5.077529 -0.629748 52
2.188831 4.623337 -0.503362 101
2.123739 4.877671 -0.021356 97
1.776743 4.910522 -0.322140 101
1.667216 5.110118 0.091948 78
1.326842 5.155633 -0.215680 101
2.206302 4.658236 -0.427384 101
2.130821 4.891711 0.060534 101
1.781755 4.921814 -0.242270 100
1.693485 5.187707 0.177218 64
1.446697 4.960860 -0.648226 100
1.342332 5.212225 -0.135300 101
2.240551 4.728511 -0.191866 101
1.912362 4.797900 -0.488234 87
1.829435 5.050896 -0.000938 100
1.471730 5.043579 -0.384902 80
2.261178 4.769993 -0.112419 101
1.923098 4.822500 -0.410427 73
1.839603 5.076331 0.081992 100
1.483007 5.079079 -0.306013 99
1.160269 5.167469 -0.617467 83
2.027917 4.649135 -0.925977 11
1.952567 4.894032 -0.172955 64
1.868508 5.153415 0.336235 69
1.599712 4.892168 -0.546430 100
1.506420 5.156077 -0.062817 89
1.173187 5.220940 -0.371372 100
2.049408 4.696272 -0.573840 77
1.960066 4.910455 -0.092288 88
1.616574 4.940949 -0.471287 101
1.521963 5.206055 0.019880 96
1.173417 5.217899 -0.288713 74
2.082545 4.770040 -0.341143 101
1.998934 5.005408 0.154316 101
1.735046 4.780355 -0.746607 101
1.648541 5.035820 -0.235057 89
1.315212 5.089382 -0.537651 88
2.081992 4.766610 -0.260765 101
2.014961 5.043104 0.239011 45
1.749715 4.818271 -0.554161 100
1.649064 5.034582 -0.153533 61
1.318969 5.100415 -0.457202 101
2.099289 4.797653 -0.181959 101
1.762380 4.843270 -0.477211 101
1.662877 5.065550 -0.072585 91
1.331923 5.136644 -0.378514 101
2.185899 4.593507 -0.579600 101
2.120220 4.843255 -0.102439 101
1.783236 4.898005 -0.401997 100
1.681361 5.118934 0.009404 100
1.337104 5.153037 -0.297640 97
2.224995 4.673625 -0.349250 101
1.875247 4.679938 -0.820545 100
1.810403 4.970009 -0.163456 101
1.717730 5.226676 0.263303 39
1.462322 4.977542 -0.540693 100
1.358096 5.230297 -0.052817 1
2.236418 4.695571 -0.270750 101
1.907072 4.757028 -0.564001 79
1.817368 4.986506 -0.082448 100
1.474323 5.015255 -0.463780 87
1.939300 4.835048 -0.331403 85
1.851826 5.078379 0.165152 101
1.503318 5.110690 -0.226070 86
1.173505 5.178027 -0.532750 101
1.941785 4.838873 -0.251356 86
1.868032 5.120129 0.250354 101
1.595453 4.846317 -0.685309 101
1.508373 5.124671 -0.144551 101
1.176934 5.189084 -0.451483 100
2.063706 4.703322 -0.495461 100
1.980623 4.933241 -0.011134 77
1.626041 4.936418 -0.390789 100
1.541156 5.232781 0.103789 30
1.192667 5.254329 -0.207927 0
2.073728 4.723988 -0.417811 89
1.993214 4.962174 0.070936 101
1.652311 5.013312 -0.315455 83
1.314808 5.046028 -0.626408 58
2.201620 4.608439 -0.502578 101
2.132806 4.851875 -0.021276 89
1.792604 4.900504 -0.321894 101
1.691419 5.123221 0.092290 86
1.348977 5.166411 -0.216328 101
2.220940 4.646857 -0.427054 101
2.143168 4.873209 0.060398 101
1.800414 4.919274 -0.242455 100
1.711706 5.181723 0.177218 67
1.464122 4.955746 -0.648226 100
1.365695 5.226820 -0.135803 101
2.257167 4.720602 -0.191866 101
1.927737 4.787450 -0.487857 82
1.845813 5.040674 -0.000937 100
1.492853 5.049848 -0.385779 93
2.274503 4.754789 -0.112248 101
1.940060 4.815701 -0.410427 71
1.856084 5.066069 0.081932 101
1.495212 5.054681 -0.304858 92
1.174030 5.143985 -0.615151 100
2.033181 4.616754 -0.920948 8
1.966806 4.879708 -0.172692 63
1.889399 5.154298 0.336725 83
1.616936 4.886503 -0.546430 100
1.524575 5.150739 -0.062817 85
1.191572 5.216774 -0.371372 100
2.064350 4.685380 -0.573394 82
1.975870 4.899805 -0.092219 90
1.632731 4.931437 -0.470926 101
1.538036 5.192986 0.019851 95
1.194476 5.225411 -0.289360 80
2.097753 4.759010 -0.340881 101
2.013591 4.990908 0.154087 101
1.747812 4.763057 -0.744864 101
1.661273 5.014798 -0.234347 97
1.328115 5.065464 -0.535616 78
2.100423 4.762884 -0.260965 101
1.773572 4.830729 -0.556310 100
1.669348 5.036318 -0.153764 67
1.341016 5.111144 -0.458585 101
2.117639 4.793953 -0.182098 101
1.779275 4.837089 -0.477211 101
1.684331 5.071102 -0.072749 98
1.347815 5.124246 -0.377945 101
2.198480 4.578683 -0.578695 101
2.138730 4.839482 -0.102516 101
1.794812 4.876780 -0.400767 101
1.694173 5.097850 0.009376 100
1.359149 5.163787 -0.298533 100
2.243023 4.669427 -0.349519 101
1.891572 4.673363 -0.820545 100
1.829122 4.967411 -0.163580 101
1.730921 5.205482 0.262538 59
1.489900 5.006726 -0.544425 100
1.381439 5.244864 -0.053012 57
2.261446 4.705739 -0.271790 101
1.922173 4.746657 -0.563564 79
1.838911 4.991390 -0.082635 101
1.488410 4.998622 -0.462720 100
1.954666 4.824549 -0.331150 75
1.869541 5.071884 0.165152 100
1.520007 5.101581 -0.225901 92
1.189786 5.166142 -0.531951 101
1.960165 4.835768 -0.251548 91
1.887275 5.117326 0.250538 101
1.614866 4.848240 -0.686374 101
1.529679 5.130870 -0.144876 101
1.198621 5.200479 -0.452836 101
2.078499 4.692449 -0.495076 100
1.999334 4.930004 -0.011142 72
1.642001 4.926928 -0.390489 98
1.553696 5.208208 0.103409 79
1.211001 5.250134 -0.207927 37
2.090205 4.716721 -0.417811 89
2.010523 4.955186 0.070936 101
1.672326 5.015090 -0.315932 96
1.332414 5.041408 -0.626408 54
2.217693 4.600726 -0.502578 101
2.154596 4.855369 -0.021324 94
1.808314 4.890472 -0.321648 101
1.706758 5.109699 0.092153 86
1.367003 5.161670 -0.216328 101
2.231952 4.628304 -0.426062 101
1.816188 4.909212 -0.242270 100
1.725981 5.164341 0.176828 55
1.479136 4.943000 -0.647231 100
1.380859 5.210425 -0.135501 101
2.273631 4.712694 -0.191866 101
1.945937 4.784381 -0.488234 78
1.864785 5.037952 -0.000938 101
1.504750 5.025498 -0.384317 90
2.294563 4.754024 -0.112419 101
1.956859 4.808900 -0.410427 71
1.870979 5.052058 0.081810 101
1.515139 5.057082 -0.305320 95
1.190184 5.132115 -0.614224 101
2.060473 4.634798 -0.925977 30
1.986842 4.880218 -0.172955 67
1.904605 5.140184 0.336235 98
1.631458 4.873285 -0.545585 100
1.543693 5.149217 -0.062864 88
1.207971 5.204809 -0.370818 98
2.080692 4.678145 -0.573394 92
1.991453 4.889174 -0.092149 83
1.648670 4.921930 -0.470565 101
1.555004 5.183755 0.019836 100
1.215419 5.232882 -0.290006 100
2.114352 4.751658 -0.340881 101
2.027982 4.976444 0.153858 101
1.764427 4.756927 -0.744864 101
1.682577 5.020335 -0.234879 89
1.346811 5.064642 -0.536023 83
2.117036 4.755523 -0.260965 101
1.790423 4.824508 -0.556310 91
1.688189 5.034251 -0.153880 70
1.354750 5.091028 -0.457202 101
2.133524 4.786904 -0.182098 101
1.793918 4.827428 -0.476842 101
1.697318 5.054114 -0.072585 89
1.365828 5.123603 -0.378229 101
2.217115 4.578522 -0.579600 101
2.156395 4.836016 -0.102594 101
1.813754 4.878277 -0.401382 100
1.713617 5.099787 0.009390 100
1.373178 5.147675 -0.297864 100
2.253275 4.651188 -0.348711 101
1.902579 4.656101 -0.818617 100
1.841403 4.950076 -0.163209 101
1.744354 5.188353 0.261965 69
1.500758 4.982710 -0.542352 100
1.393666 5.220931 -0.052817 80
2.270070 4.683835 -0.270958 101
1.939408 4.743937 -0.564001 76
1.856848 4.989013 -0.082697 100
1.507277 5.001288 -0.463427 100
1.967632 4.810651 -0.330642 78
1.879374 5.046922 0.164542 101
1.536916 5.096513 -0.225901 84
1.202380 5.142790 -0.529955 101
1.974677 4.825544 -0.251356 96
1.902840 5.107295 0.250354 101
1.630934 4.842859 -0.686374 100
1.539755 5.102801 -0.144227 101
1.212227 5.180953 -0.451483 100
2.094048 4.685531 -0.495076 100
2.018703 4.930750 -0.011159 70
1.659604 4.925235 -0.390789 100
1.564023 5.180056 0.102952 94
1.230227 5.253873 -0.208236 58
2.104207 4.706124 -0.417488 89
2.029976 4.955894 0.071043 100
1.688948 5.009517 -0.315932 88
1.349124 5.036962 -0.626408 55
2.232937 4.593346 -0.502578 101
2.170685 4.848197 -0.021324 99
1.827316 4.891929 -0.322140 101
1.727532 5.115379 0.092358 89
1.382040 5.149389 -0.216004 101
2.254261 4.635216 -0.427384 101
1.832458 4.903162 -0.242270 100
1.739258 5.147227 0.176439 70
1.495520 4.938068 -0.647231 100
1.395018 5.194232 -0.135200 101
2.289247 4.705128 -0.191866 101
1.957255 4.766850 -0.487105 87
1.877279 5.020500 -0.000935 100
1.521406 5.020480 -0.384317 90
1.971280 4.798696 -0.410112 71
1.886321 5.042080 0.081749 101
1.533060 5.055851 -0.305551 99
1.199913 5.097201 -0.610519 101
2.095157 4.671024 -0.934597 34
2.004535 4.877300 -0.173086 62
1.923040 5.137579 0.336480 100
1.648885 4.871615 -0.546007 100
1.558438 5.136415 -0.062770 100
1.227054 5.208543 -0.371372 100
2.096194 4.671220 -0.573394 84
2.010697 4.889941 -0.092288 73
1.663705 4.912663 -0.470204 101
1.568699 5.167088 0.019792 94
1.228183 5.209384 -0.288928 93
2.130098 4.744621 -0.340881 101
2.042952 4.965994 0.153744 101
1.780192 4.751050 -0.744864 101
1.692804 4.995804 -0.233993 91
1.361528 5.052464 -0.535209 99
2.132794 4.748477 -0.260965 101
1.800828 4.803649 -0.554591 87
1.704874 5.028625 -0.153880 65
1.369550 5.078812 -0.456510 101
2.151896 4.783057 -0.182237 101
1.807993 4.813666 -0.476104 101
1.714987 5.048146 -0.072585 95
1.379577 5.103388 -0.377091 101
2.233105 4.570745 -0.579600 101
2.168360 4.817509 -0.102361 101
1.827988 4.864441 -0.400767 100
1.730144 5.089979 0.009383 100
1.390119 5.138988 -0.297640 100
2.273010 4.650462 -0.349250 101
1.924853 4.664026 -0.821188 100
1.858679 4.943615 -0.163209 101
1.768896 5.201142 0.262921 79
1.515829 4.969828 -0.541523 100
1.419207 5.243058 -0.053091 95
2.289910 4.683062 -0.271374 101
1.957468 4.740815 -0.564439 80
1.875655 4.986247 -0.082759 101
1.527046 5.003620 -0.464134 101
1.985918 4.807451 -0.330896 75
1.901185 5.051564 0.164908 101
1.551176 5.079656 -0.225392 88
1.221224 5.142439 -0.530354 101
1.991477 4.818635 -0.251356 91
1.920622 5.100635 0.250354 101
1.643961 4.825890 -0.684776 101
1.563366 5.116526 -0.144768 101
1.229349 5.172820 -0.451145 101
2.110346 4.678213 -0.495076 100
2.034327 4.919997 -0.011151 78
1.675453 4.915653 -0.390489 100
1.578538 5.163106 0.102724 100
1.244810 5.234004 -0.207619 66
2.122204 4.702410 -0.417811 89
2.047202 4.948803 0.071043 101
1.707651 5.007391 -0.316171 80
1.590444 5.198954 0.187007 0
1.366636 5.032238 -0.626408 58
2.254121 4.596293 -0.503753 101
2.184200 4.833346 -0.021292 100
1.845689 4.889294 -0.322387 101
1.741393 5.098000 0.092153 89
1.400949 5.148419 -0.216166 101
2.263295 4.613058 -0.426062 101
1.849446 4.896780 -0.242270 100
1.757093 5.141166 0.176439 61
1.510304 4.925264 -0.646235 100
1.415119 5.197081 -0.135401 101
2.314339 4.715111 -0.192599 101
1.973756 4.760041 -0.487105 92
1.896073 5.017709 -0.000936 100
1.538789 5.015180 -0.384317 86
1.986350 4.788160 -0.409797 71
1.905176 5.039261 0.081810 101
1.545863 5.035244 -0.304627 96
1.213854 5.077560 -0.608666 101
2.104808 4.649411 -0.931724 29
2.019859 4.866646 -0.172955 69
1.937972 5.123428 0.335990 86
1.664436 4.862121 -0.545585 100
1.577368 5.134818 -0.062817 94
1.243204 5.196506 -0.370818 94
2.115604 4.671190 -0.574285 92
2.030651 4.890351 -0.092428 79
1.683254 4.914422 -0.470926 101
1.588896 5.169282 0.019821 100
1.248038 5.212878 -0.289360 100
2.144820 4.733602 -0.340620 101
2.053951 4.944140 0.153286 101
1.795185 4.741174 -0.744283 101
1.711339 4.993710 -0.234170 93
1.376868 5.040055 -0.534395 91
2.147515 4.737452 -0.260765 101
1.818799 4.801126 -0.555021 93
1.720916 5.018931 -0.153764 71
1.384963 5.066369 -0.455818 101
2.165273 4.768237 -0.181959 101
1.824785 4.807326 -0.476104 101
1.732598 5.042129 -0.072585 100
1.398438 5.102389 -0.377376 101
2.245532 4.555792 -0.578695 101
2.191780 4.824475 -0.102671 101
1.847789 4.865488 -0.401382 100
1.746601 5.080126 0.009376 100
1.406992 5.130253 -0.297417 100
2.285700 4.635340 -0.348711 101
1.936565 4.646346 -0.819260 100
1.871664 4.925885 -0.162838 101
1.779242 5.172267 0.261774 80
1.530820 4.956904 -0.540693 100
1.435382 5.230358 -0.053012 100
2.304476 4.671458 -0.271166 101
1.970944 4.726614 -0.563564 75
1.885942 4.960977 -0.082448 100
1.785080 5.186433 0.347011 0
1.543326 4.994452 -0.463780 100
1.435240 5.226430 0.030271 0
2.004224 4.804173 -0.331150 79
1.917385 5.041160 0.164786 101
1.567717 5.070393 -0.225222 82
1.233569 5.114930 -0.527958 101
2.008285 4.811654 -0.251356 96
1.935572 5.086430 0.249987 101
1.659505 4.816373 -0.684244 101
1.577671 5.099577 -0.144443 101
1.244592 5.156874 -0.450130 101
2.123364 4.663570 -0.494308 100
2.053030 4.916556 -0.011159 70
1.690001 4.902232 -0.389889 98
1.597733 5.161385 0.102800 101
1.264011 5.233512 -0.207773 71
2.138605 4.694973 -0.417811 89
2.061381 4.934246 0.070936 101
1.718610 4.982526 -0.314977 86
1.618044 5.223919 0.188107 1
1.384194 5.027437 -0.626408 60
2.270151 4.588397 -0.503753 101
2.199399 4.822053 -0.021276 100
1.861322 4.879091 -0.322140 101
1.757872 5.088110 0.092085 73
1.416786 5.135791 -0.215842 101
2.284689 4.615847 -0.427054 101
1.863678 4.882828 -0.241900 100
1.776335 5.138780 0.176568 71
1.527487 4.919962 -0.646235 100
1.430060 5.180546 -0.135099 101
2.323689 4.692676 -0.192013 101
1.988822 4.749449 -0.486728 89
1.912150 5.007323 -0.000935 100
1.556286 5.009778 -0.384317 82
2.003052 4.781198 -0.409797 77
1.919900 5.025108 0.081689 101
1.561059 5.022191 -0.304165 93
1.230633 5.069431 -0.608203 101
2.032198 4.848505 -0.172561 64
1.681397 4.856281 -0.545585 100
1.595282 5.129280 -0.062817 90
1.254741 5.164991 -0.368879 100
2.128592 4.656546 -0.573394 100
2.036883 4.857415 -0.091939 81
1.697790 4.900988 -0.470204 101
1.605742 5.159885 0.019807 100
1.264339 5.200727 -0.288928 99
2.159671 4.722456 -0.340358 101
2.078931 4.955376 0.153858 101
1.806067 4.720094 -0.741958 101
1.732686 4.999033 -0.234702 85
1.393391 5.031384 -0.533988 93
2.169025 4.740825 -0.261365 101
1.835547 4.794749 -0.555021 89
1.738425 5.012893 -0.153764 69
1.404768 5.069184 -0.456510 101
2.181905 4.760650 -0.181959 101
1.841554 4.800927 -0.476104 101
1.751501 5.039828 -0.072640 100
1.415172 5.093632 -0.377091 101
2.268499 4.562160 -0.580506 101
2.210274 4.820430 -0.102749 101
1.860474 4.847838 -0.400459 100
1.768264 5.085333 0.009397 97
1.424892 5.125311 -0.297417 100
2.298311 4.620187 -0.348173 101
1.952772 4.639557 -0.819260 100
1.888847 4.919322 -0.162838 101
1.795973 5.162251 0.261582 70
1.545739 4.943936 -0.539864 100
1.446127 5.198341 -0.052739 100
2.322548 4.666961 -0.271374 101
1.987431 4.719706 -0.563564 80
1.903248 4.954363 -0.082448 100
1.811048 5.202791 0.348527 42
1.555993 4.973825 -0.462366 100
1.477074 5.306163 0.030762 21
2.020981 4.797148 -0.331150 79
1.936405 5.038168 0.164908 100
1.584213 5.061076 -0.225053 88
1.250469 5.106728 -0.527559 101
2.023516 4.800932 -0.251163 100
1.954750 5.083372 0.250171 101
1.677612 4.814295 -0.684776 101
1.593072 5.086408 -0.144227 101
1.260688 5.144756 -0.449454 101
2.141292 4.659748 -0.494692 100
2.068625 4.905674 -0.011151 74
1.709729 4.903836 -0.390489 100
1.615740 5.155777 0.102800 101
1.283223 5.232950 -0.207927 93
2.153315 4.683857 -0.417488 89
2.083256 4.938076 0.071096 100
1.739937 4.987807 -0.315693 99
1.642250 5.237312 0.188794 100
1.397464 5.007274 -0.624500 55
1.298999 5.293476 -0.126545 60
2.280820 4.569759 -0.502578 101
2.214545 4.810713 -0.021259 100
1.875469 4.865114 -0.321648 101
1.772983 5.074392 0.091948 73
1.432552 5.123116 -0.215519 101
2.295445 4.597145 -0.426062 101
1.879273 4.872565 -0.241715 100
1.792942 5.128774 0.176439 71
1.543462 4.910814 -0.645737 100
1.449212 5.179373 -0.135200 101
2.340055 4.684536 -0.192013 101
2.006939 4.746146 -0.487105 94
1.931057 5.004349 -0.000936 100
1.572567 5.000509 -0.384025 86
2.019729 4.774177 -0.409797 80
1.933108 5.007182 0.081507 100
1.580977 5.024330 -0.304627 93
1.251174 5.076678 -0.609592 101
2.055343 4.856108 -0.173086 63
1.695710 4.842874 -0.544740 100
1.613177 5.123680 -0.062817 81
1.275629 5.172203 -0.369710 94
2.144833 4.649087 -0.573394 88
2.060064 4.865006 -0.092219 85
1.714887 4.895031 -0.470204 101
1.620138 5.142803 0.019763 100
1.283443 5.200161 -0.289144 100
2.176142 4.714889 -0.340358 101
1.828241 4.728526 -0.744283 101
1.744838 4.977870 -0.233993 91
1.413096 5.034152 -0.534802 86
2.185560 4.733224 -0.261365 101
1.853708 4.792021 -0.555450 100
1.755912 5.006794 -0.153764 69
1.421376 5.060413 -0.456164 101
2.195143 4.745752 -0.181682 101
1.856852 4.790760 -0.475735 101
1.769072 5.033687 -0.072640 94
1.428607 5.073303 -0.375953 101
2.280840 4.547112 -0.579600 101
2.217004 4.790912 -0.102284 101
1.875937 4.837598 -0.400151 101
1.782017 5.067811 0.009376 100
1.439518 5.108776 -0.296747 100
2.310842 4.605003 -0.347634 101
1.968953 4.632714 -0.819260 100
1.900220 4.897789 -0.162344 101
1.812653 5.152183 0.261391 93
1.561784 4.934718 -0.539449 100
1.457749 5.170164 -0.052504 100
2.342410 4.665965 -0.271790 101
2.005451 4.716398 -0.564001 80
1.923426 4.955146 -0.082572 101
1.825223 5.185141 0.347769 63
1.576955 4.979757 -0.463427 100
1.479296 5.243230 0.030427 101
2.033031 4.779042 -0.330388 89
1.953985 5.031376 0.164908 101
1.600668 5.051703 -0.224883 99
1.267333 5.098467 -0.527159 101
2.041836 4.797513 -0.251356 96
1.972492 5.076514 0.250171 101
1.695734 4.812145 -0.685309 101
1.612035 5.084625 -0.144335 101
1.278649 5.140321 -0.449454 101
2.162582 4.663075 -0.495845 100
2.081048 4.887377 -0.011125 68
1.726850 4.897833 -0.390489 98
1.637369 5.161537 0.103028 100
1.299565 5.220678 -0.207619 69
2.164634 4.665455 -0.416519 89
2.092660 4.912368 0.070830 100
1.753370 4.970401 -0.314977 72
1.656911 5.220111 0.188382 101
1.413871 4.998538 -0.624023 59
1.305888 5.242341 -0.125431 101
2.298575 4.565312 -0.502970 101
1.891020 4.854806 -0.321401 101
1.794712 5.079474 0.092153 76
1.449366 5.114231 -0.215357 101
2.311508 4.589089 -0.426062 101
1.894852 4.862240 -0.241530 100
1.806871 5.111165 0.176049 70
1.558220 4.897822 -0.644741 100
1.459680 5.147344 -0.134496 101
2.352830 4.669182 -0.191720 90
2.023529 4.739096 -0.487105 100
1.947098 4.993837 -0.000935 100
1.586420 4.983573 -0.383148 84
2.034854 4.763413 -0.409482 77
1.954976 5.011566 0.081689 101
1.599759 5.022572 -0.304858 87
1.268929 5.072269 -0.609592 101
2.069183 4.841533 -0.172824 70
1.715303 4.844409 -0.545585 100
1.627454 5.106571 -0.062677 87
1.290815 5.156094 -0.368879 100
2.162772 4.645155 -0.573840 96
2.081798 4.868797 -0.092428 88
1.730681 4.885244 -0.469843 101
1.645422 5.159966 0.019851 100
1.299696 5.187887 -0.288713 101
2.197693 4.718095 -0.341143 101
1.843345 4.718409 -0.743702 101
1.760921 4.967964 -0.233816 91
1.431802 5.033000 -0.535209 90
2.197061 4.714678 -0.260765 101
1.869030 4.781796 -0.555021 100
1.770763 4.993078 -0.153533 69
1.432543 5.032408 -0.454089 101
2.213386 4.741683 -0.181820 101
1.875016 4.787957 -0.476104 101
1.787971 5.031250 -0.072694 87
1.445212 5.064448 -0.375668 101
2.303876 4.553308 -0.581412 100
2.237098 4.790391 -0.102439 101
1.891357 4.827307 -0.399844 100
1.799696 5.061560 0.009376 100
1.452956 5.088358 -0.295854 97
2.330508 4.604030 -0.348173 101
1.985112 4.625813 -0.819260 100
1.921683 4.902294 -0.162715 101
1.831966 5.149589 0.261582 83
1.579000 4.929236 -0.539449 98
1.477985 5.172736 -0.052582 100
2.353269 4.647069 -0.271166 101
2.015627 4.694755 -0.562251 80
1.936331 4.937231 -0.082386 100
1.839295 5.167455 0.347011 62
1.591896 4.966634 -0.462720 100
1.497590 5.238034 0.030427 100
2.051276 4.775584 -0.330642 81
1.970075 5.020803 0.164786 91
1.614631 5.034668 -0.224374 86
1.288043 5.105590 -0.528357 101
2.052260 4.775673 -0.250585 96
1.984359 5.054720 0.249437 101
1.711190 4.802463 -0.684776 101
1.626109 5.067544 -0.144010 101
1.294633 5.128098 -0.448778 101
2.173783 4.644680 -0.494692 100
2.098096 4.880084 -0.011125 74
1.738578 4.876747 -0.389290 100
1.657822 5.163405 0.103180 100
1.316801 5.212235 -0.207465 77
2.185978 4.668703 -0.417488 89
2.114536 4.916056 0.070990 100
1.770709 4.964250 -0.314977 80
1.677568 5.221908 0.188657 101
1.432404 4.997391 -0.624500 57
1.315358 5.202858 -0.124596 101
2.316299 4.560810 -0.503362 101
1.912341 4.859321 -0.322140 101
1.811087 5.069412 0.092085 74
1.467209 5.109141 -0.215357 101
2.331125 4.588100 -0.426723 101
1.913276 4.859314 -0.241715 101
1.828738 5.116120 0.176439 67
1.576524 4.896131 -0.645239 100
1.480952 5.153747 -0.134798 101
2.038483 4.728347 -0.486728 85
1.963052 4.983288 -0.000935 101
1.603806 4.978005 -0.383148 94
2.051469 4.756281 -0.409482 75
1.972458 5.004712 0.081689 101
1.617281 5.016957 -0.304858 100
1.288582 5.075511 -0.610519 101
2.084486 4.830610 -0.172692 69
1.729521 4.830902 -0.544740 100
1.645270 5.100859 -0.062677 87
1.304875 5.136087 -0.367772 100
2.173902 4.626783 -0.572504 93
2.089270 4.839470 -0.092009 85
1.747723 4.879173 -0.469843 101
1.657281 5.135158 0.019777 100
1.314845 5.171705 -0.288066 101
2.209055 4.699558 -0.340358 101
1.858352 4.708265 -0.743120 101
1.779600 4.965549 -0.233993 100
1.444953 5.012678 -0.533581 91
2.215204 4.710596 -0.260965 101
1.884250 4.771544 -0.554591 100
1.785482 4.979339 -0.153301 67
1.452310 5.035034 -0.454781 101
2.231627 4.737545 -0.181959 101
1.890252 4.777679 -0.475735 101
1.805523 5.024978 -0.072694 100
1.461773 5.055540 -0.375384 101
2.257215 4.789788 -0.102594 101
1.912599 4.831800 -0.400767 100
1.817353 5.055247 0.009376 100
1.475148 5.098601 -0.296747 100
2.350194 4.602976 -0.348711 101
2.001247 4.618855 -0.819260 99
1.943200 4.906708 -0.163086 101
1.848578 5.139402 0.261391 89
1.596197 4.923694 -0.539449 100
1.496032 5.167545 -0.052582 101
2.367659 4.635269 -0.270958 101
2.036747 4.698634 -0.563564 80
1.956499 4.937879 -0.082510 101
1.864081 5.179784 0.348274 59
1.609223 4.961047 -0.462720 100
1.512526 5.221249 0.030360 100
2.066345 4.764732 -0.330388 87
1.981696 4.999029 0.164297 100
1.633429 5.032803 -0.224544 88
1.303882 5.093351 -0.527559 101
2.070508 4.772145 -0.250778 96
2.000518 5.044048 0.249253 101
1.725256 4.789001 -0.683711 101
1.642553 5.058034 -0.143902 101
1.311536 5.119687 -0.448439 101
2.196784 4.651464 -0.496229 100
2.124674 4.894745 -0.011176 70
1.759648 4.881906 -0.390189 100
1.673363 5.149980 0.103028 100
1.335980 5.211479 -0.207619 73
2.202262 4.661044 -0.417488 89
2.131683 4.908645 0.070990 100
1.786672 4.954283 -0.314739 94
1.693314 5.208416 0.188382 101
1.452055 4.999988 -0.625454 56
1.332518 5.194362 -0.124503 100
2.328576 4.545610 -0.502578 101
1.926341 4.845196 -0.321648 101
1.827412 5.059298 0.092016 74
1.486151 5.107826 -0.215519 101
2.350762 4.587030 -0.427384 101
1.933181 4.860031 -0.242085 100
1.841150 5.094666 0.175919 71
1.593605 4.890598 -0.645239 100
1.497815 5.144707 -0.134697 101
2.056565 4.724854 -0.487105 93
1.983393 4.983839 -0.000936 101
1.622409 4.976170 -0.383441 92
1.508887 5.179508 0.113005 2
2.066467 4.745436 -0.409166 74
1.989915 4.997796 0.081689 101
1.627353 4.988503 -0.303472 100
1.300344 5.047897 -0.607739 101
2.106126 4.834300 -0.173086 66
1.750435 4.836056 -0.546007 100
1.660583 5.087480 -0.062583 94
1.330764 5.162414 -0.369987 100
2.193445 4.626351 -0.573394 82
2.109346 4.839480 -0.092149 92
1.757962 4.854314 -0.468037 101
1.667745 5.106527 0.019689 100
1.330894 5.159349 -0.287635 100
2.232288 4.706244 -0.341404 101
1.874775 4.701749 -0.743120 101
1.791477 4.944278 -0.233284 99
1.708737 5.229080 0.273865 2
1.462442 5.007603 -0.533581 95
2.231634 4.702834 -0.260965 101
1.906789 4.779713 -0.556310 100
1.801490 4.969317 -0.153185 67
1.467641 5.022284 -0.454089 101
2.251571 4.736953 -0.182237 101
1.905427 4.767359 -0.475367 101
1.817577 5.003613 -0.072476 100
1.479398 5.050410 -0.375384 101
2.267044 4.767437 -0.102284 101
1.929446 4.825098 -0.400767 101
1.833614 5.045116 0.009369 100
1.490682 5.085758 -0.296301 100
2.369899 4.601842 -0.349250 101
2.018937 4.615460 -0.819903 100
1.957342 4.892472 -0.162838 101
1.866503 5.132920 0.261391 91
1.610891 4.910533 -0.538620 100
1.516309 5.169969 -0.052661 100
2.392974 4.644730 -0.271998 101
2.053138 4.691495 -0.563564 80
1.975212 4.934731 -0.082572 101
1.878057 5.161991 0.347516 66
1.627775 4.959185 -0.463073 100
1.527365 5.204422 0.030293 101
2.082972 4.757488 -0.330388 78
2.000627 4.995790 0.164419 100
1.647253 5.015678 -0.224035 86
1.315658 5.065654 -0.525162 101
2.093577 4.779522 -0.251548 86
1.744687 4.790395 -0.684776 101
1.663955 5.063662 -0.144227 101
1.329412 5.115074 -0.448439 101
2.211310 4.640166 -0.495845 90
2.130525 4.861646 -0.011117 76
1.772598 4.864485 -0.389290 100
1.687600 5.132704 0.102800 100
1.351163 5.195174 -0.207156 68
2.221971 4.660516 -0.418134 89
2.148826 4.901165 0.070990 57
1.808080 4.959262 -0.315455 99
1.714006 5.210061 0.188657 101
1.467280 4.987262 -0.624500 60
1.359729 5.224503 -0.125338 101
2.351772 4.551583 -0.504145 101
1.943278 4.838428 -0.321648 101
1.845099 5.052875 0.092016 76
1.502880 5.098762 -0.215357 101
2.363137 4.571694 -0.426723 101
1.945705 4.842114 -0.241530 100
1.853478 5.073172 0.175400 71
1.609465 4.881222 -0.644741 100
1.514677 5.135599 -0.134597 101
2.073090 4.717627 -0.487105 93
1.999333 4.973155 -0.000935 101
1.639816 4.970461 -0.383441 92
1.538326 5.212551 0.113843 9
2.083069 4.738172 -0.409166 77
2.007401 4.990798 0.081689 101
1.644809 4.982775 -0.303472 100
1.319014 5.047157 -0.608203 101
2.123043 4.826894 -0.173086 59
1.764627 4.822425 -0.545163 100
1.678390 5.081633 -0.062583 97
1.343787 5.138418 -0.368603 98
2.209638 4.618639 -0.573394 78
2.129508 4.839383 -0.092288 79
1.779065 4.859349 -0.469121 101
1.688134 5.108250 0.019719 100
1.347949 5.150791 -0.287419 100
2.241873 4.683992 -0.340358 101
1.894197 4.702493 -0.744283 101
1.811540 4.945475 -0.233638 97
1.727050 5.223061 0.273865 41
1.481109 5.006264 -0.533988 93
1.371004 5.235292 -0.042505 2
2.248105 4.694983 -0.260965 101
1.917584 4.758245 -0.554591 100
1.816145 4.955464 -0.152953 71
1.484105 5.013288 -0.453743 101
2.261177 4.714647 -0.181682 101
1.922057 4.760678 -0.475367 101
1.837789 5.004746 -0.072585 100
1.497018 5.045216 -0.375384 101
2.290591 4.773917 -0.102594 94
1.941796 4.807240 -0.399844 101
1.847075 5.027421 0.009348 100
1.506152 5.072867 -0.295854 100
2.387787 4.597083 -0.349519 101
2.035036 4.608384 -0.819903 66
1.974408 4.885610 -0.162838 101
1.887166 5.133873 0.261774 100
1.629275 4.908656 -0.539035 101
1.533207 5.160810 -0.052622 100
2.405489 4.629260 -0.271582 101
2.067895 4.680663 -0.563126 79
1.992425 4.927807 -0.082572 101
1.894687 5.151657 0.347264 66
1.641308 4.942129 -0.462013 101
1.548942 5.210562 0.030360 101
2.101179 4.753839 -0.330642 73
2.015054 4.981363 0.164175 101
1.668531 5.021275 -0.224544 80
1.336374 5.072577 -0.526360 101
2.107017 4.764877 -0.251163 80
1.757289 4.773115 -0.683179 101
1.682882 5.061617 -0.144335 101
1.344211 5.098840 -0.447425 101
2.224043 4.625242 -0.495076 96
2.145864 4.850522 -0.011109 78
1.788189 4.854525 -0.388990 100
1.702981 5.119193 0.102648 97
1.369289 5.190425 -0.207156 77
2.234769 4.645546 -0.417488 89
1.818476 4.934188 -0.314262 94
1.727132 5.188874 0.188107 101
1.480143 4.966886 -0.622592 61
1.369792 5.188793 -0.124596 101
2.358447 4.525696 -0.502187 101
1.957154 4.824216 -0.321155 101
1.861341 5.042651 0.091948 81
1.512665 5.066677 -0.214223 101
2.377238 4.559883 -0.426393 101
1.964098 4.838995 -0.241715 100
1.873945 5.074172 0.175660 68
1.625238 4.871809 -0.644243 100
1.531449 5.126449 -0.134496 101
2.094389 4.721282 -0.488234 87
2.015175 4.962440 -0.000935 101
1.657157 4.964706 -0.383441 86
1.567965 5.245466 0.114681 101
2.101213 4.734516 -0.409482 80
2.018788 4.968939 0.081446 101
1.662192 4.977003 -0.303472 100
1.335606 5.038682 -0.607739 101
2.138257 4.815800 -0.172955 64
1.786969 4.831159 -0.546852 100
1.698653 5.083331 -0.062677 94
1.362739 5.137553 -0.368879 100
2.227475 4.614477 -0.573840 78
2.139893 4.817299 -0.092009 85
1.794634 4.849373 -0.468759 101
1.705955 5.102326 0.019719 100
1.367970 5.153775 -0.287850 100
2.263417 4.686920 -0.341143 101
1.910600 4.695852 -0.744283 101
1.827405 4.935374 -0.233461 97
1.738934 5.198057 0.272871 101
1.492864 4.982004 -0.531953 100
1.395431 5.253670 -0.042694 65
2.266217 4.690704 -0.261165 101
1.934182 4.751523 -0.554591 100
1.838988 4.964091 -0.153417 73
1.502740 5.011894 -0.454089 101
2.279362 4.710323 -0.181820 101
1.937159 4.750252 -0.474998 101
1.851072 4.987052 -0.072422 87
1.515769 5.043780 -0.375668 101
1.957058 4.796740 -0.399536 100
1.861828 5.013443 0.009334 100
1.520400 5.056105 -0.295184 101
2.401968 4.585185 -0.349250 101
2.043072 4.583222 -0.816690 31
1.989939 4.874986 -0.162715 101
1.900900 5.116019 0.261200 100
1.646400 4.902939 -0.539035 100
1.546603 5.140106 -0.052465 100
2.412362 4.603144 -0.270542 101
2.084221 4.673416 -0.563126 80
2.005078 4.909714 -0.082386 100
1.912658 5.145012 0.347264 68
1.657281 4.932592 -0.461659 101
1.565967 5.201293 0.030338 101
2.117761 4.746476 -0.330642 79
2.035455 4.981701 0.164419 101
1.687322 5.019208 -0.224714 86
1.357154 5.079416 -0.527559 101
2.118751 4.746548 -0.250585 94
1.779470 4.781814 -0.685309 101
1.692892 5.032973 -0.143686 101
1.359942 5.086416 -0.446749 101
2.236699 4.610286 -0.494308 100
2.161151 4.839349 -0.011100 76
1.800948 4.837039 -0.388090 101
1.718289 5.105636 0.102496 100
1.380167 5.158586 -0.206076 79
2.250971 4.637717 -0.417488 89
1.832901 4.920327 -0.313784 75
1.741406 5.171448 0.187694 101
1.498619 4.965491 -0.623069 54
1.388930 5.187842 -0.124688 101
2.376082 4.520959 -0.502578 101
1.975496 4.821050 -0.321401 101
1.878932 5.036123 0.091948 76
1.534969 5.076669 -0.214871 101
2.393141 4.551557 -0.426393 101
1.979462 4.828413 -0.241530 100
1.893044 5.071345 0.175789 70
1.640965 4.862346 -0.643745 100
1.550493 5.124899 -0.134597 101
2.105974 4.703039 -0.487105 94
2.029449 4.947973 -0.000933 101
1.671924 4.951332 -0.382856 97
1.576996 5.209340 0.114011 101
2.122618 4.738070 -0.410427 78
2.046749 4.987763 0.081871 101
1.684667 4.986303 -0.304396 98
1.353186 5.033989 -0.607739 101
2.151784 4.801010 -0.172692 67
1.799644 4.813714 -0.545585 100
1.712544 5.066003 -0.062537 100
1.376518 5.117352 -0.367772 100
2.243569 4.606674 -0.573840 88
2.156696 4.809801 -0.092009 83
1.812946 4.846810 -0.469121 101
1.723755 5.096340 0.019719 100
1.384913 5.145112 -0.287635 100
2.276267 4.671815 -0.340620 101
1.923971 4.681833 -0.743120 101
1.846022 4.932707 -0.233638 99
1.754507 5.184387 0.272473 101
1.511401 4.980571 -0.532360 100
1.408560 5.229455 -0.042537 88
2.284328 4.686357 -0.261365 101
1.952268 4.748420 -0.555021 100
1.850696 4.942664 -0.152953 73
1.520225 5.006618 -0.454089 101
2.301052 4.713115 -0.182237 101
1.955246 4.747144 -0.475367 101
1.871279 4.988050 -0.072531 97
1.531042 5.030824 -0.375099 101
1.981387 4.808316 -0.401074 100
1.880722 5.010659 0.009341 100
1.540367 5.058408 -0.295631 101
2.416094 4.573244 -0.348980 101
2.062299 4.583264 -0.817975 26
2.005420 4.864314 -0.162591 101
1.918747 5.109352 0.261200 92
1.659665 4.885861 -0.537791 100
1.565701 5.138502 -0.052504 100
2.103786 4.673363 -0.564001 80
2.022204 4.902685 -0.082386 101
1.930606 5.138304 0.347264 35
1.675771 4.930550 -0.462013 100
1.580614 5.184317 0.030271 101
2.132677 4.735415 -0.330388 87
2.045206 4.956087 0.163809 101
1.699685 4.998153 -0.224035 82
1.368632 5.051599 -0.525162 101
2.140230 4.750051 -0.251163 96
1.793360 4.768152 -0.684244 101
1.715602 5.042174 -0.144119 101
1.378731 5.085485 -0.447087 101
2.252778 4.602451 -0.494308 100
2.173099 4.820836 -0.011075 86
1.819226 4.834456 -0.388390 100
1.737389 5.103393 0.102572 100
1.398166 5.153737 -0.206076 92
2.267146 4.629831 -0.417488 89
1.851471 4.917635 -0.314023 88
1.760736 5.169122 0.187832 101
1.514782 4.956432 -0.622592 60
1.408078 5.186822 -0.124781 101
1.992312 4.814124 -0.321401 101
1.895088 5.025792 0.091879 80
1.549170 5.059815 -0.214385 101
2.412749 4.550219 -0.427054 101
1.994775 4.817782 -0.241345 100
1.905090 5.049744 0.175270 65
