# This PCD file was generated using the MATLAB® pcwrite function
# from Computer Vision Toolbox®.
# .PCD v.7 - Point Cloud Data file format
VERSION .7
FIELDS x y z intensity
SIZE 4 4 4 1
TYPE F F F U
COUNT 1 1 1 1
WIDTH 1156
HEIGHT 1
VIEWPOINT 0 0 0 1 0 0 0
POINTS 1156
DATA ascii
-2.102382 9.111942 -0.486810 5
-2.068794 9.111435 -0.486394 6
-2.160140 9.580902 -0.360134 13
-2.036977 9.118601 -0.486394 6
-2.113700 9.529847 -0.357936 14
-2.005991 9.129558 -0.486602 16
-2.091497 9.587938 -0.359841 4
-1.970740 9.120885 -0.485770 10
-2.055592 9.583436 -0.359401 4
-1.943870 9.151154 -0.487018 3
-2.026250 9.610109 -0.360134 4
-2.132716 10.123443 -0.220323 2
-2.013724 9.637482 -0.664302 8
-1.917629 9.185255 -0.488473 3
-1.996747 9.636694 -0.360867 3
-2.101420 10.150405 -0.220749 2
-1.980945 9.640198 -0.664032 9
-1.888769 9.199389 -0.488889 3
-1.964054 9.639332 -0.360721 3
-2.071820 10.176894 -0.221175 2
-2.159427 9.152905 -0.471459 2
-1.950441 9.662702 -0.665109 10
-1.857435 9.209842 -0.489097 4
-1.934316 9.665727 -0.361454 4
-2.040205 10.203672 -0.221601 2
-2.120234 9.129255 -0.469857 18
-1.918252 9.677280 -0.665648 9
-1.829156 9.235862 -0.490137 4
-1.901335 9.676342 -0.361600 3
-2.007656 10.226428 -0.221942 2
-2.075001 9.078182 -0.466853 8
-1.885234 9.687833 -0.665917 9
-1.796137 9.238270 -0.489929 4
-1.869654 9.694726 -0.362040 3
-1.971756 10.233411 -0.221942 2
-2.062347 9.171171 -0.471259 3
-2.147110 9.576327 -0.341000 7
-1.853519 9.696568 -1.124787 7
-1.857395 9.725716 -0.668071 7
-1.770617 9.279798 -0.491800 4
-1.839612 9.703458 -0.971860 3
-1.843508 9.732955 -0.821385 3
-1.838032 9.712976 -0.362480 3
-1.937508 10.248090 -0.222112 1
-2.026007 9.158811 -0.470257 3
-2.127444 9.646224 -0.343223 5
-1.813800 9.671729 -1.121165 9
-1.824169 9.736062 -0.668341 8
-1.738213 9.285922 -0.491800 4
-1.797724 9.666770 -0.967551 6
-1.801513 9.696218 -0.817749 3
-1.809952 9.750774 -0.363652 3
-1.999969 9.193153 -0.471659 3
-2.097971 9.673131 -0.343917 6
-1.777137 9.662369 -1.119353 12
-1.786561 9.722746 -0.666994 9
-1.706514 9.295861 -0.492008 4
-1.756185 9.629895 -0.963242 6
-1.754162 9.627919 -0.811469 4
-1.775281 9.753083 -0.363506 3
-1.971342 9.215676 -0.472461 3
-2.067527 9.696033 -0.344473 5
-1.733524 9.613757 -1.113014 11
-1.740583 9.662151 -0.662417 8
-1.683253 9.352870 -0.494712 3
-1.718357 9.612454 -0.960892 6
-1.711432 9.582969 -0.807172 3
-1.746842 9.790703 -0.364678 3
-2.036793 9.678789 -0.648276 10
-1.941628 9.234230 -0.473061 4
-2.036949 9.718842 -0.345028 5
-1.697189 9.604095 -1.111203 12
-2.141094 10.224258 -0.202398 2
-1.693662 9.593495 -0.657300 8
-1.649901 9.354754 -0.494504 4
-1.677924 9.579184 -0.956975 6
-1.676597 9.581032 -0.806511 4
-1.715409 9.812490 -0.365264 3
-1.997337 9.658479 -0.646445 8
-1.909382 9.240951 -0.473061 3
-2.007069 9.745464 -0.345723 5
-1.659602 9.586461 -1.108486 11
-2.107020 10.239501 -0.202553 2
-1.653369 9.560022 -0.654608 20
-1.620634 9.380139 -0.495544 4
-1.643059 9.577147 -0.956191 5
-1.642388 9.582911 -0.806180 6
-1.685102 9.842074 -0.366144 3
-1.964275 9.669330 -0.646706 8
-1.880953 9.267162 -0.474063 3
-1.973832 9.756330 -0.345862 5
-1.625465 9.588278 -1.108033 19
-2.079981 10.289913 -0.203405 2
-1.625986 9.601150 -0.657031 12
-1.591213 9.405432 -0.496583 4
-2.141172 9.125276 -0.451863 2
-1.611597 9.594602 -0.957367 8
-1.610247 9.596448 -0.806841 6
-1.656023 9.879436 -0.367317 3
-1.933634 9.691785 -0.647753 8
-1.845469 9.258000 -0.473262 4
-1.943659 9.782764 -0.346556 5
-1.592636 9.597814 -1.108486 11
-1.596377 9.630390 -0.658647 7
-1.560982 9.426693 -0.497415 3
-2.120095 9.179409 -0.454174 9
-1.574221 9.576600 -0.955016 8
-1.573510 9.582342 -0.805188 3
-1.621527 9.885156 -0.367317 3
-1.901326 9.706309 -0.648276 10
-1.818513 9.291830 -0.474664 3
-1.911795 9.801261 -0.346973 5
-1.560398 9.611160 -1.109391 16
-1.571057 9.687117 -0.662147 5
-1.529345 9.439971 -0.497831 4
-2.080956 9.155585 -0.452633 6
-1.543943 9.601688 -0.956975 7
-1.540684 9.591712 -0.805519 6
-1.590178 9.910490 -0.368049 3
-1.878718 9.762724 -1.113400 4
-1.871955 9.736405 -0.649845 6
-1.788328 9.309891 -0.475264 3
-1.880577 9.823580 -0.347528 5
-1.530578 9.640100 -1.112108 16
-1.522855 9.601884 -0.655954 1
-1.499509 9.464978 -0.498871 4
-2.051600 9.174491 -0.453211 5
-1.509181 9.599154 -0.956191 6
-1.507193 9.597032 -0.805519 2
-1.557433 9.927827 -0.368489 3
-2.142962 9.651635 -0.324520 0
-1.832090 9.702818 -1.105832 8
-1.840177 9.754646 -0.650630 8
-1.758779 9.331780 -0.476066 3
-1.850206 9.841548 -0.347945 5
-1.506534 9.696176 -1.117995 15
-1.490393 9.602938 -0.655685 3
-1.470562 9.485688 -0.499703 4
-2.025460 9.200753 -0.454174 8
-1.818241 9.725567 -0.954434 24
-1.814689 9.715620 -0.800428 35
-1.462041 9.515295 -0.798247 1
-1.526928 9.948742 -0.369075 3
-2.135698 9.771953 -0.328325 7
-1.794108 9.677571 -1.102270 9
-1.796916 9.701825 -0.646706 8
-1.730732 9.353274 -0.476867 4
-1.817245 9.855818 -0.348223 5
-1.459246 9.623866 -0.656762 3
-1.441037 9.514461 -0.500950 3
-1.995062 9.215569 -0.454559 8
-1.777878 9.696598 -0.950977 20
-1.767910 9.651291 -0.794616 13
-1.411210 9.402054 -0.788331 2
-1.495322 9.973751 -0.369808 3
-2.087494 9.712859 -0.326095 4
-1.750577 9.628982 -1.096038 10
-1.761846 9.700142 -0.646183 8
-1.703308 9.386730 -0.478269 3
-1.784552 9.861790 -0.348223 5
-1.410063 9.523138 -0.501158 3
-2.055896 9.643353 -0.627254 14
-1.971150 9.253395 -0.456100 8
-1.737252 9.655417 -0.946368 23
-1.728842 9.617860 -0.791387 21
-1.370766 9.343576 -0.783042 1
-1.463399 9.986566 -0.370101 3
-2.064372 9.762753 -0.327538 5
-1.715146 9.615167 -1.093812 9
-1.711463 9.603763 -0.639381 12
-1.671471 9.388394 -0.478068 3
-1.755702 9.899448 -0.349334 5
-1.321134 9.131950 -0.622564 3
-1.380241 9.551723 -0.502406 4
-2.021403 9.646563 -0.627000 29
-1.935562 9.244577 -0.455330 8
-1.697315 9.626133 -0.942911 18
-1.690418 9.596351 -0.789127 24
-1.337013 9.340412 -0.782381 1
-1.432491 10.019312 -0.371127 3
-2.031907 9.777728 -0.327801 6
-1.681573 9.621096 -1.093812 8
-1.677243 9.605746 -0.639119 18
-1.640748 9.405978 -0.478669 4
-1.719082 9.893701 -0.348917 5
-1.289807 9.140458 -0.622833 10
-1.350235 9.580216 -0.503654 4
-1.983693 9.634010 -0.625730 20
-1.907307 9.270844 -0.456293 6
-1.660315 9.612382 -0.940991 19
-1.654876 9.590406 -0.788158 30
-1.401924 10.055923 -0.372300 3
-1.997764 9.784761 -0.327801 5
-1.647978 9.626906 -1.093812 9
-1.641684 9.599740 -0.638335 26
-1.615306 9.454966 -0.480872 4
-1.688560 9.923287 -0.349751 5
-1.255174 9.125136 -0.621487 13
-1.317873 9.592786 -0.504070 4
-1.955592 9.668265 -0.627508 21
-1.881265 9.308775 -0.457834 9
-1.625424 9.610268 -0.940223 15
-1.621389 9.596125 -0.788158 33
-1.367890 10.068678 -0.372593 3
-1.970672 9.826953 -0.328982 5
-1.609765 9.605157 -1.090696 12
-1.613437 9.636905 -0.640427 13
-1.582951 9.464486 -0.481073 3
-1.661793 9.976439 -0.351418 5
-1.223844 9.133418 -0.621756 12
-1.289679 9.636921 -0.506149 3
-1.922609 9.678948 -0.627762 21
-1.850316 9.323123 -0.458219 9
-1.591868 9.615883 -0.940223 20
-1.589834 9.613526 -0.789127 44
-2.126711 9.219767 -0.437935 3
-1.336929 10.105094 -0.373766 3
-1.936357 9.833773 -0.328982 5
-1.580087 9.634254 -1.093367 11
-1.583015 9.662173 -0.641735 8
-1.554421 9.497552 -0.482475 3
-1.629578 9.997954 -0.351973 5
-1.191449 9.133676 -0.621487 6
-1.924995 9.853626 -1.634022 72
-1.257057 9.649287 -0.506565 3
-1.893372 9.709113 -0.629286 25
-1.819249 9.337376 -0.458604 8
-1.559507 9.629251 -0.940991 26
-1.551734 9.591479 -0.786867 33
-2.097029 9.238855 -0.438490 4
-1.303008 10.121614 -0.374206 3
-1.907128 9.867987 -0.329900 5
-1.547492 9.647595 -1.094257 13
-1.555360 9.707088 -0.644352 3
-1.520381 9.499015 -0.482274 3
-1.600195 10.026989 -0.352807 5
-1.168197 9.193004 -0.625257 3
-1.879658 9.794042 -1.623098 62
-1.227064 9.669253 -0.507397 4
-1.865846 9.730916 -1.090373 5
-1.865671 9.738863 -0.630809 19
-1.792030 9.362978 -0.459567 9
-1.527567 9.634370 -0.940991 26
-1.524284 9.624137 -0.789127 45
-2.071609 9.269156 -0.439600 4
-1.270431 10.133813 -0.374499 3
-1.848153 9.727092 -0.782712 1
-1.878867 9.897823 -0.330688 6
-1.517957 9.668382 -1.096038 8
-1.488530 9.491372 -0.629701 2
-1.490728 9.515844 -0.482875 4
-1.567649 10.048313 -0.353362 5
-1.139036 9.220790 -0.626872 4
-1.849843 9.823822 -1.626954 70
-1.193793 9.677443 -0.507605 3
-1.831132 9.733462 -1.089936 45
-1.833877 9.757086 -0.631571 17
-1.762286 9.384884 -0.460338 9
-1.495147 9.647512 -0.941759 22
-1.476042 9.534839 -0.781378 12
-2.035810 9.260720 -0.438860 5
-1.237950 10.161993 -0.375378 3
-1.809755 9.700640 -0.932802 15
-1.807612 9.698203 -0.779875 14
-1.847965 9.923973 -0.331344 6
-1.499270 9.771852 -1.107167 2
-1.403390 9.157207 -0.607203 6
-1.461129 9.544684 -0.484077 4
-1.535502 10.073495 -0.354057 5
-1.107302 9.228675 -0.627142 3
-1.811937 9.810811 -1.623741 58
-2.127568 9.770261 -0.308998 4
-1.164293 9.717245 -0.509476 3
-1.782726 9.661593 -1.081185 25
-1.787542 9.696682 -0.627254 26
-1.730302 9.394896 -0.460530 9
-1.429751 9.453189 -0.774274 42
-2.081237 9.618706 -0.607092 2
-2.008755 9.291157 -0.439970 4
-1.203207 10.170191 -0.375525 3
-1.776854 9.710769 -0.933178 13
-1.762558 9.641642 -0.774831 5
-1.814348 9.934237 -0.331475 5
-1.369396 9.146210 -0.606156 8
-1.432325 9.577326 -0.485479 4
-1.502684 10.094609 -0.354612 5
-1.078774 9.264196 -0.629296 3
-1.783308 9.848155 -1.628882 73
-2.100984 9.812813 -0.310110 4
-1.131289 9.729186 -0.509892 4
-1.741912 9.628633 -1.076809 46
-1.751553 9.691078 -0.626492 23
-1.699627 9.412674 -0.461108 9
-1.379853 9.343740 -0.764911 10
-2.043495 9.606386 -0.605860 4
-1.978803 9.309836 -0.440525 4
-1.171802 10.210070 -0.376844 3
-1.733104 9.662036 -0.927908 13
-1.723264 9.616335 -0.772309 12
-1.781069 9.948381 -0.331737 5
-1.335730 9.139086 -0.605371 11
-1.398308 9.578314 -0.485278 4
-1.470312 10.119574 -0.355307 5
-1.048668 9.287734 -0.630642 3
-1.717185 9.675504 -1.599324 39
-2.069189 9.831824 -0.310480 4
-1.100453 9.760861 -0.511348 4
-1.706209 9.622910 -1.075496 38
-1.699611 9.594934 -0.619890 46
-1.672330 9.450023 -0.462649 8
-1.342679 9.316931 -0.762327 13
-2.009950 9.613461 -0.605860 4
-1.954464 9.355801 -0.442374 4
-1.138364 10.233962 -0.377577 3
-1.695230 9.644494 -0.925649 11
-1.688997 9.618364 -0.771994 8
-1.755312 10.005728 -0.333443 5
-1.304947 9.151595 -0.605895 4
-1.371061 9.626643 -0.487482 4
-1.433932 10.116717 -0.355029 5
-1.016692 9.295303 -0.630911 3
-1.678007 9.650318 -1.594183 66
-2.039732 9.862474 -0.311222 4
-1.068533 9.784499 -0.512387 3
-1.669196 9.609221 -1.073309 50
-1.659929 9.565416 -0.617604 58
-1.637905 9.447941 -0.462264 9
-1.308925 9.313681 -0.761682 7
-1.981002 9.643924 -0.607338 4
-1.919165 9.350868 -0.441819 4
-1.105361 10.265722 -0.378603 3
-1.655895 9.619000 -0.922638 13
-1.649725 9.592811 -0.769472 14
-1.720056 10.011849 -0.333443 5
-1.275399 9.175910 -0.607203 4
-1.341456 9.663080 -0.489084 3
-1.402440 10.149381 -0.356001 4
-0.986339 9.318640 -0.632258 3
-1.644974 9.660009 -1.594826 69
-2.006089 9.873453 -0.311345 4
-1.037311 9.815977 -0.513843 3
-1.633643 9.603230 -1.071996 53
-1.632548 9.606571 -0.619890 63
-1.607591 9.469357 -0.463034 9
-1.947326 9.650780 -0.607338 3
-1.891250 9.381012 -0.442929 4
-1.618999 9.605087 -0.920756 14
-1.616230 9.598511 -0.769472 14
-1.683771 10.009907 -0.333181 5
-1.245504 9.196127 -0.608249 3
-1.311466 9.695416 -0.490486 3
-1.370737 10.181948 -0.356974 4
-0.956243 9.345847 -0.633873 2
-1.612542 9.673481 -1.596111 69
-1.976307 9.903920 -0.312086 4
-1.005070 9.839408 -0.514883 3
-1.600111 9.608874 -1.071996 55
-1.600970 9.624025 -0.620651 33
-1.580421 9.510382 -0.464768 8
-1.922939 9.704514 -0.610293 3
-1.860821 9.399316 -0.443484 4
-1.037267 10.308985 -0.379922 2
-1.588702 9.630326 -0.922638 16
-1.583364 9.608028 -0.769788 23
-1.653365 10.043337 -0.334099 5
-1.219136 9.243948 -0.611127 3
-2.134915 9.267931 -0.421896 2
-1.278136 9.703896 -0.490686 4
-1.337930 10.194374 -0.357252 4
-1.595072 9.768396 -1.610890 58
-1.946513 9.926116 -0.312581 4
-0.975588 9.874488 -0.516546 3
-1.570169 9.625898 -1.073309 45
-1.554960 9.542596 -0.615065 16
-1.548939 9.515560 -0.464768 8
-1.891711 9.714717 -0.610540 2
-1.830625 9.409314 -0.443669 4
-1.555741 9.627638 -0.921885 18
-1.547961 9.589561 -0.767896 17
-1.624190 10.072394 -0.334887 5
-1.189840 9.255813 -0.611650 3
-1.899513 9.806655 -1.466486 47
-2.122202 9.352820 -0.425442 4
-1.250919 9.743693 -0.492489 3
-1.308919 10.250532 -0.359057 4
-1.565945 9.805094 -1.616030 7
-1.914876 9.948554 -0.313075 3
-1.534679 9.619542 -1.071996 42
-1.453789 9.122211 -0.587638 32
-1.518226 9.536692 -0.465538 9
-1.851793 9.689890 -0.608569 1
-1.798519 9.419571 -0.443853 4
-1.522125 9.633010 -0.921885 16
-1.511369 9.575212 -0.766320 16
-1.592757 10.101696 -0.335674 5
-1.160000 9.279713 -0.612958 3
-1.857880 9.774346 -1.460676 82
-2.089542 9.360171 -0.425442 5
-1.217890 9.755929 -0.492889 3
-1.852680 9.755784 -1.073498 38
-1.271653 10.243137 -0.358641 4
-1.840022 9.725125 -0.916436 9
-1.835625 9.710681 -0.762164 10
-1.886815 9.990536 -0.314187 3
-1.506606 9.660197 -1.075934 40
-1.419479 9.111452 -0.586622 23
-1.488614 9.565620 -0.466694 8
-1.809129 9.649206 -0.605614 4
-1.771513 9.457211 -0.445333 4
-1.491529 9.657943 -0.923767 16
-1.467601 9.513433 -0.760961 6
-1.556268 10.099292 -0.335412 5
-1.130007 9.303516 -0.614266 3
-1.819397 9.757429 -1.457190 100
-2.053428 9.351796 -0.424733 6
-1.184790 9.768052 -0.493290 4
-1.808418 9.707458 -1.067479 28
-1.238865 10.271315 -0.359474 4
-1.793805 9.664898 -0.910167 11
-1.796688 9.689569 -0.760011 11
-1.854867 10.012781 -0.314681 3
-1.389420 9.128198 -0.587384 57
-1.459332 9.598421 -0.468042 8
-2.097404 9.644973 -0.589867 3
-1.788158 9.726192 -0.610047 7
-1.738909 9.467323 -0.445518 4
-1.420343 9.427865 -0.753711 18
-1.524731 10.132402 -0.336330 5
-1.097983 9.315389 -0.614789 3
-1.778422 9.728774 -1.451961 58
-2.030411 9.405884 -0.426860 5
-1.152950 9.795997 -0.494491 4
-1.760413 9.639479 -1.059311 25
-2.134495 9.896173 -0.293392 4
-1.205328 10.295428 -0.360168 3
-1.758631 9.663263 -0.909429 12
-1.749299 9.621229 -0.754167 11
-1.817760 10.007394 -0.314310 4
-1.359896 9.148787 -0.588400 12
-1.428165 9.619265 -0.468812 8
-2.061219 9.640521 -0.589151 13
-1.730826 9.602714 -0.601920 5
-1.710100 9.496930 -0.446628 4
-1.370597 9.318357 -0.744569 4
-1.497488 10.193039 -0.338167 5
-1.067273 9.335027 -0.615836 3
-1.729094 9.649220 -1.439179 32
-2.000055 9.424641 -0.427392 6
-1.118296 9.795993 -0.494291 3
-1.726754 9.645565 -1.059311 31
-2.096621 9.887918 -0.292929 4
-1.165309 10.247733 -0.358363 3
-1.718875 9.625912 -0.905373 13
-1.719485 9.638756 -0.755090 11
-1.788072 10.033047 -0.314928 3
-1.338731 9.216454 -0.592463 9
-1.397979 9.635810 -0.469390 8
-2.030882 9.655118 -0.589628 15
-1.689936 9.557292 -0.598718 5
-1.679293 9.506484 -0.446813 4
-1.337420 9.307063 -0.743308 6
-1.464246 10.201906 -0.338299 5
-1.038512 9.358351 -0.617144 3
-1.687495 9.600332 -1.431044 33
-1.965524 9.415574 -0.426683 5
-1.089325 9.831413 -0.495893 4
-1.688568 9.615986 -1.055442 26
-2.069535 9.922215 -0.293740 3
-1.679701 9.600478 -0.902422 12
-1.691279 9.676135 -0.757550 10
-1.757148 10.062861 -0.315669 3
-1.302107 9.189445 -0.590432 10
-1.367199 9.660401 -0.470353 8
-2.001328 9.681675 -0.590821 13
-1.633592 9.429349 -0.590344 9
-1.649049 9.527997 -0.447552 4
-1.302429 9.291892 -0.741732 5
-1.431725 10.226706 -0.338955 5
-1.007899 9.377755 -0.618190 3
-1.650977 9.586601 -1.428139 35
-1.937820 9.445792 -0.427746 4
-1.058809 9.866890 -0.497496 4
-1.654708 9.617835 -1.055012 29
-2.039304 9.948880 -0.294319 3
-1.640124 9.570951 -0.899103 13
-1.650090 9.638740 -0.754167 10
-1.722011 10.068933 -0.315669 3
-1.274938 9.229524 -0.592717 9
-1.336200 9.684904 -0.471316 8
-1.973878 9.719906 -0.592730 8
-1.554591 9.163398 -0.573351 7
-1.617783 9.545514 -0.448107 4
-1.397640 10.243524 -0.339348 5
-0.976396 9.393126 -0.618975 3
-1.618820 9.600110 -1.429301 40
-1.907994 9.468168 -0.428455 5
-1.026422 9.890394 -0.498497 4
-1.619804 9.615709 -1.054152 33
-2.006142 9.963778 -0.294551 3
-1.603410 9.556978 -0.897259 12
-1.607864 9.593307 -0.750169 10
-1.690155 10.094600 -0.316287 3
-1.245375 9.253699 -0.593987 9
-1.305579 9.713268 -0.472472 8
-1.516055 9.129384 -0.570888 6
-1.587069 9.566871 -0.448847 4
-1.367141 10.287971 -0.340661 5
-1.584655 9.601798 -1.428720 36
-1.877259 9.486531 -0.428987 5
-0.993088 9.905842 -0.499098 4
-1.586229 9.621305 -1.054152 29
-1.975227 9.990332 -0.295130 3
-1.571684 9.562246 -0.897259 13
-1.570858 9.567106 -0.747708 17
-1.657959 10.108041 -0.316534 3
-1.216772 9.273609 -0.595003 11
-1.274942 9.729425 -0.473050 8
-1.902739 9.699226 -0.743189 11
-1.481353 9.106766 -0.569164 6
-1.561825 9.611507 -0.450696 4
-1.333648 10.296397 -0.340792 5
-1.557986 9.638234 -1.433369 35
-1.847443 9.500525 -0.429342 5
-0.961918 9.924973 -0.499899 2
-1.552552 9.614712 -1.052862 30
-1.942994 10.000724 -0.295246 3
-1.542090 9.591269 -0.899472 14
-1.538085 9.576468 -0.748016 12
-1.625198 10.129557 -0.317028 3
-1.187932 9.305518 -0.596780 9
-2.121158 9.382560 -0.408216 9
-1.244004 9.757596 -0.474205 7
-1.913828 9.930444 -1.358370 14
-1.873396 9.729310 -0.744989 13
-1.452691 9.131596 -0.570395 5
-1.533909 9.652417 -0.452361 4
-1.296700 10.293056 -0.340529 3
-1.866548 9.763319 -1.055276 6
-1.539780 9.741340 -1.447894 30
-1.815018 9.510840 -0.429519 5
-1.524563 9.655426 -1.056732 24
-1.909571 10.015300 -0.295478 3
-1.504889 9.572986 -0.897259 13
-1.502173 9.566020 -0.746785 10
-1.592928 10.154917 -0.317646 3
-1.158885 9.337339 -0.598558 10
-2.093599 9.413314 -0.409233 8
-1.211410 9.773774 -0.474783 7
-1.847477 9.769563 -1.335473 43
-1.833499 9.704435 -0.742589 13
-1.738252 9.208658 -0.560039 2
-1.425715 9.168171 -0.572365 4
-1.501433 9.665609 -0.452731 4
-2.127068 9.631436 -0.570454 1
-1.257362 10.269742 -0.339611 1
-1.816325 9.683767 -1.045986 22
-1.824805 9.737870 -0.898155 6
-1.501538 9.719277 -1.443827 34
-1.783279 9.524974 -0.429873 5
-1.500555 9.723574 -1.063610 7
-1.875334 10.025835 -0.295594 3
-1.480633 9.637218 -0.902791 12
-1.454918 9.480530 -0.739711 8
-1.562947 10.195979 -0.318758 3
-1.125757 9.337370 -0.598304 10
-2.062386 9.428384 -0.409572 8
-1.178630 9.789854 -0.475361 8
-1.801707 9.713602 -1.326954 18
-1.795854 9.691190 -0.741090 13
-1.707397 9.222550 -0.560517 69
-1.394644 9.181025 -0.572858 4
-1.468574 9.678740 -0.453100 4
-2.078647 9.572545 -0.566528 11
-1.774895 9.651005 -1.041763 21
-1.779543 9.685493 -0.892738 3
-1.758190 9.578395 -0.432001 5
-1.844102 10.056017 -0.296289 3
-1.408218 9.394836 -0.732637 12
-1.530899 10.225097 -0.319499 3
-1.096405 9.368997 -0.600082 10
-2.031143 9.443339 -0.409911 9
-1.146305 9.809782 -0.476132 7
-1.753602 9.641824 -1.316304 19
-2.138167 9.949111 -0.275362 4
-1.750605 9.634607 -0.736291 11
-1.658078 9.134166 -0.554790 18
-1.367274 9.217431 -0.574828 3
-1.440050 9.719379 -0.454765 4
-2.047721 9.591458 -0.567221 12
-1.732726 9.610168 -1.036696 30
-1.742899 9.675964 -0.891293 3
-1.722621 9.572675 -0.431469 4
-1.811818 10.078135 -0.296752 3
-1.356361 9.269472 -0.722487 7
-1.496932 10.242247 -0.319870 3
-1.065495 9.388633 -0.601097 9
-2.002301 9.469921 -0.410759 8
-1.118353 9.869303 -0.478828 7
-1.718543 9.640080 -1.315239 16
-2.108384 9.979987 -0.276011 3
-1.714166 9.624951 -0.735091 15
-1.631080 9.167416 -0.556460 20
-1.335091 9.222147 -0.574828 4
-1.404399 9.712483 -0.454210 4
-2.023250 9.641538 -0.569761 9
-1.701246 9.627909 -1.037963 19
-1.701495 9.638836 -0.887320 4
-1.691972 9.594371 -0.432178 4
-1.780097 10.104086 -0.297332 3
-1.318908 9.238619 -0.719719 10
-1.463986 10.267200 -0.320488 3
-1.034038 9.404198 -0.601859 8
-1.971685 9.488588 -0.411268 8
-1.083920 9.873144 -0.478828 7
-1.679449 9.614775 -1.310979 20
-2.077623 10.006857 -0.276552 3
-1.683334 9.646588 -0.736291 12
-1.597053 9.161246 -0.555744 15
-1.308544 9.266273 -0.577291 4
-1.376709 9.760837 -0.456244 4
-1.990491 9.652431 -0.569992 2
-1.664348 9.614172 -1.035851 29
-1.667961 9.644695 -0.887320 5
-1.660643 9.612009 -0.432710 4
-1.749044 10.133853 -0.298027 3
-1.295998 9.310318 -0.724948 49
-1.428138 10.272248 -0.320488 2
-1.003317 9.427597 -0.603129 8
-1.939351 9.499329 -0.411438 8
-1.053249 9.912624 -0.480562 7
-1.643203 9.604948 -1.308849 24
-2.046676 10.033637 -0.277093 3
-1.646963 9.636679 -0.735091 13
-1.566409 9.174637 -0.556222 14
-1.277279 9.278695 -0.577784 4
-1.340996 9.753708 -0.455690 4
-1.982773 9.770711 -1.250648 2
-1.969123 9.711829 -0.725965 9
-1.848163 9.123127 -0.538352 5
-1.628783 9.608158 -1.034585 24
-1.630958 9.630820 -0.885515 6
-1.632413 9.649268 -0.434128 5
-1.718324 10.167493 -0.298838 3
-1.260823 9.282949 -0.722487 14
-1.395141 10.284851 -0.320735 2
-0.974095 9.450727 -0.604399 6
-1.912558 9.529218 -0.412455 9
-1.022008 9.931960 -0.481332 7
-1.608065 9.590795 -1.306187 25
-2.015750 10.052131 -0.277418 3
-1.603796 9.575210 -0.729993 12
-1.543224 9.223100 -0.558846 5
-1.249159 9.302664 -0.579015 3
-1.311831 9.781862 -0.456799 4
-1.951138 9.781124 -1.251146 14
-1.933788 9.702656 -0.724796 25
-1.815560 9.117456 -0.537659 11
-1.596913 9.613506 -1.034585 30
-1.596404 9.620457 -0.884070 6
-1.604980 9.682224 -0.435369 5
-1.689170 10.200747 -0.299649 3
-1.882398 9.551515 -0.413134 8
-0.988165 9.943415 -0.481717 7
-1.577186 9.611991 -1.308316 25
-1.987645 10.094406 -0.278391 3
-1.568485 9.568932 -0.729093 17
-1.512383 9.236300 -0.559324 5
-1.219391 9.326745 -0.580247 4
-2.179302 9.509475 -0.395252 1
-1.280930 9.810135 -0.457909 3
-1.908739 9.745003 -1.245670 13
-1.901604 9.717145 -0.725381 25
-1.780828 9.108028 -0.536735 10
-1.562266 9.611137 -1.033740 32
-1.563027 9.625936 -0.884070 5
-1.575885 9.715342 -0.436610 5
-1.654456 10.210485 -0.299765 3
-1.852993 9.569475 -0.413643 8
-1.549076 9.640654 -1.311511 19
-1.949603 10.077387 -0.277742 3
-1.536112 9.570142 -0.728793 13
-1.483011 9.249149 -0.559801 5
-1.189465 9.338658 -0.580739 4
-2.129278 9.434777 -0.391852 6
-1.249904 9.826221 -0.458464 4
-1.874164 9.739587 -1.244176 8
-1.872383 9.739068 -0.726550 23
-1.751369 9.117805 -0.536966 12
-1.533512 9.635906 -1.035851 18
-1.529847 9.623197 -0.883348 8
-1.544286 9.724461 -0.436787 4
-1.621215 10.219865 -0.299881 3
-1.854752 9.743313 -1.033703 6
-1.852901 9.742412 -0.879839 4
-1.823308 9.595515 -0.414491 9
-1.519722 9.673417 -1.315239 16
-1.918143 10.103773 -0.278283 3
-1.500224 9.559684 -0.727594 12
-1.452571 9.266104 -0.560517 5
-1.162256 9.386337 -0.583448 4
-2.102395 9.469464 -0.392985 6
-1.218048 9.850351 -0.459388 4
-1.838682 9.738270 -1.243180 5
-1.836897 9.737704 -0.725965 27
-1.721750 9.135636 -0.537659 11
-1.507204 9.688365 -1.040919 20
-1.500528 9.656034 -0.885876 4
-1.514010 9.753485 -0.437850 5
-1.588594 10.245217 -0.300460 3
-2.105124 9.571941 -0.547944 16
-1.809039 9.687155 -1.027069 12
-1.812309 9.713569 -0.876658 12
-1.790548 9.605748 -0.414660 8
-1.493790 9.729600 -1.322161 17
-1.889475 10.145782 -0.279257 3
-1.454784 9.486005 -0.721595 11
-1.422677 9.286899 -0.561471 5
-1.129554 9.390328 -0.583448 3
-2.071956 9.488444 -0.393471 6
-1.187075 9.882303 -0.460683 3
-1.789581 9.662661 -1.232725 12
-1.799357 9.724426 -0.724504 28
-1.697204 9.180840 -0.539968 4
-1.481284 9.766592 -0.438205 4
-1.555964 10.270444 -0.301040 2
-2.068322 9.563618 -0.547051 17
-1.767330 9.650364 -1.022508 18
-1.767635 9.661046 -0.871355 5
-1.759881 9.627665 -0.415339 9
-1.855485 10.160182 -0.279473 3
-1.413982 9.439743 -0.717696 11
-1.392614 9.307604 -0.562426 5
-1.099084 9.414042 -0.584680 3
-2.043856 9.519065 -0.394443 5
-1.157199 9.926075 -0.462532 3
-1.750168 9.637608 -1.228742 19
-2.153194 10.036384 -0.258036 2
-1.754007 9.667844 -0.719828 13
-1.663010 9.174921 -0.539275 4
-1.449525 9.787515 -0.438914 5
-1.519519 10.271857 -0.300924 2
-1.938578 9.117632 -0.521150 17
-1.729415 9.632979 -1.020020 20
-1.733197 9.663236 -0.871002 5
-1.728378 9.645551 -0.415847 8
-1.827054 10.205956 -0.280555 3
-1.362555 9.318325 -0.708099 9
-1.366464 9.355868 -0.565050 5
-1.068461 9.437656 -0.585911 3
-2.005664 9.502678 -0.393471 5
-1.123890 9.941965 -0.463087 3
-1.713039 9.624121 -1.226253 19
-2.120623 10.055576 -0.258337 3
-1.720948 9.677835 -0.720120 21
-1.635863 9.208193 -0.540892 4
-1.417637 9.808335 -0.439623 5
-1.479084 10.245440 -0.299997 2
-2.032243 9.716528 -0.708077 2
-1.904331 9.112607 -0.520480 18
-1.695107 9.635036 -1.019605 20
-1.693238 9.633910 -0.867821 6
-1.696735 9.663340 -0.416356 8
-1.795495 10.235914 -0.281205 3
-1.313596 9.208523 -0.699402 22
-1.333682 9.360598 -0.565050 5
-1.038797 9.473099 -0.587881 3
-1.976343 9.529229 -0.394281 5
-1.092859 9.981602 -0.464752 3
-1.675117 9.606622 -1.223266 22
-2.096633 10.117785 -0.259745 3
-1.684847 9.672038 -0.719243 17
-1.606866 9.233564 -0.542047 3
-1.388042 9.848888 -0.441218 4
-1.988675 9.676664 -0.704662 7
-1.875723 9.134847 -0.521373 16
-1.658085 9.621291 -1.017532 19
-1.656895 9.624056 -0.866407 11
-1.662993 9.669204 -0.416356 9
-1.761108 10.250001 -0.281421 3
-1.291335 9.284164 -0.704800 53
-1.303747 9.384971 -0.566244 5
-1.006567 9.484608 -0.588374 3
-1.946259 9.551735 -0.394928 5
-1.058432 9.989329 -0.464937 3
-1.642241 9.616323 -1.223763 25
-2.059707 10.117205 -0.259544 3
-1.649062 9.666062 -0.718367 23
-1.575296 9.243053 -0.542278 3
-1.354743 9.861591 -0.441573 4
-1.958833 9.703102 -0.706085 7
-1.838298 9.113935 -0.519810 20
-1.624491 9.627020 -1.017532 15
-1.620641 9.614065 -0.864993 13
-1.632549 9.694654 -0.417204 8
-1.725981 10.260029 -0.281529 3
-1.257312 9.276758 -0.703900 19
-1.270444 9.385508 -0.566005 5
-0.973861 9.492035 -0.588620 3
-1.918396 9.585903 -0.396062 5
-1.024370 10.000913 -0.465306 3
-1.607355 9.614168 -1.222768 31
-2.025163 10.128254 -0.259644 3
-1.609397 9.636347 -0.715736 12
-1.546965 9.272130 -0.543664 3
-1.320841 9.870221 -0.441750 4
-1.927376 9.713468 -0.706370 6
-1.806485 9.112151 -0.519363 18
-1.592547 9.632356 -1.017532 21
-1.587459 9.611524 -0.864286 15
-1.604970 9.727612 -0.418391 8
-1.690692 10.257798 -0.281313 2
-1.244612 9.429245 -0.568391 5
-1.889039 9.603952 -0.396548 5
-0.993321 10.024120 -0.466231 3
-1.574968 9.615504 -1.222270 33
-1.995573 10.154502 -0.260147 2
-1.567933 9.582550 -0.711352 30
-1.518959 9.292944 -0.544587 3
-1.294028 9.918103 -0.443700 5
-1.894984 9.727968 -0.706939 7
-1.774667 9.118401 -0.519363 13
-1.557643 9.630001 -1.016703 21
-1.556441 9.632740 -0.865700 11
-1.576735 9.768663 -0.419918 8
-2.163980 9.546523 -0.377755 16
-1.215251 9.461254 -0.570061 5
-1.887787 9.751543 -1.193182 6
-1.856261 9.614412 -0.396710 5
-0.961366 10.059348 -0.467711 2
-1.543906 9.636620 -1.224261 23
-1.964660 10.184964 -0.260750 2
-1.533844 9.584025 -0.711060 22
-1.487141 9.302133 -0.544818 3
-2.051664 9.114333 -0.504331 6
-1.259902 9.926524 -0.443878 4
-1.869350 9.734421 -1.013845 5
-1.861015 9.734524 -0.706939 6
-1.754066 9.183383 -0.522713 12
-1.525883 9.647169 -1.017946 15
-1.520942 9.626307 -0.864639 14
-1.542627 9.774108 -0.419918 8
-2.123683 9.522809 -0.376521 22
-1.185187 9.489211 -0.571493 5
-1.844101 9.707352 -1.186980 11
-1.826409 9.640468 -0.397519 5
-1.515172 9.673319 -1.228244 34
-1.929839 10.195689 -0.260850 2
-1.500996 9.593263 -0.711352 22
-1.456512 9.319104 -0.545511 3
-2.019836 9.121439 -0.504331 10
-1.230138 9.970521 -0.445650 4
-1.829465 9.709603 -1.010589 19
-1.829031 9.716183 -0.858032 6
-1.827070 9.740952 -0.706939 9
-1.724968 9.205147 -0.523606 12
-1.492796 9.666998 -0.867821 7
-1.515177 9.822884 -0.421783 8
-2.099791 9.573124 -0.378218 11
-1.152462 9.497263 -0.571732 4
-1.805763 9.690318 -1.184117 20
-1.794078 9.654667 -0.397843 5
-1.897733 10.222050 -0.261353 2
-1.469147 9.610299 -0.712229 10
-1.427416 9.347843 -0.546897 3
-1.988631 9.132380 -0.504546 9
-1.196037 9.982718 -0.446005 4
-1.783758 9.653365 -1.004077 17
-1.781830 9.652016 -0.851806 7
-1.787282 9.715878 -0.704662 8
-1.692826 9.211112 -0.523606 12
-1.480879 9.828113 -0.421783 8
-2.068890 9.592116 -0.378681 10
-1.122574 9.528986 -0.573402 5
-1.763360 9.649682 -1.178392 21
-1.764665 9.684463 -0.398815 5
-1.864189 10.240414 -0.261655 2
-1.437359 9.627205 -0.713106 12
-1.395366 9.356718 -0.547128 3
-1.951723 9.115833 -0.503253 11
-1.163953 10.010649 -0.447068 4
-1.745795 9.636040 -1.001635 17
-1.744578 9.638571 -0.850077 5
-1.746275 9.682793 -0.701816 3
-1.663496 9.232686 -0.524499 12
-1.450635 9.860899 -0.422970 8
-2.036224 9.603189 -0.378835 10
-1.092025 9.556649 -0.574834 4
-1.726864 9.640141 -1.176484 18
-2.145807 10.128399 -0.240371 5
-1.731552 9.694497 -0.398977 5
-1.829837 10.254732 -0.261856 2
-1.358296 9.320303 -0.690018 5
-1.364997 9.377339 -0.548052 3
-2.033105 9.652480 -0.684587 6
-1.924827 9.146042 -0.504546 8
-1.129002 10.014650 -0.447068 3
-1.702408 9.587224 -0.995937 17
-1.703962 9.605364 -0.846619 5
-1.702769 9.633820 -0.697832 7
-1.630578 9.234501 -0.524276 12
-1.417895 9.877772 -0.423479 8
-2.004288 9.618072 -0.379144 10
-1.056859 9.544533 -0.573879 5
-1.690414 9.630471 -1.174575 17
-2.107948 10.124092 -0.240092 5
-1.699695 9.712306 -0.399462 5
-1.793253 10.257133 -0.261755 2
-1.317243 9.265756 -0.685634 24
-1.338893 9.429504 -0.550823 3
-2.004139 9.682986 -0.686249 27
-1.892774 9.152729 -0.504546 6
-1.099540 10.070188 -0.449373 4
-1.674939 9.628414 -0.999600 29
-1.669600 9.607351 -0.846273 8
-1.665361 9.607963 -0.695555 12
-1.604716 9.267405 -0.525839 12
-1.387350 9.898251 -0.424157 8
-1.975592 9.640328 -0.379761 10
-1.030744 9.599596 -0.576981 4
-1.655101 9.616454 -1.172190 18
-2.074364 10.131027 -0.240092 5
-1.671534 9.741524 -0.400434 5
-1.753149 10.227552 -0.260850 0
-1.282670 9.242414 -0.683588 20
-1.310906 9.457625 -0.552209 3
-1.970427 9.681759 -0.685695 32
-1.866391 9.178525 -0.505625 4
-1.066140 10.073778 -0.449373 4
-1.641663 9.626070 -0.998786 19
-1.637732 9.612835 -0.846273 8
-1.637822 9.649120 -0.698117 6
-1.572357 9.272949 -0.525839 12
-1.356036 9.926791 -0.425175 8
-1.941929 9.647165 -0.379761 10
-0.998053 9.611078 -0.577459 5
-1.619543 9.610425 -1.170759 30
-2.045295 10.169569 -0.240835 7
-1.641493 9.770948 -0.401405 5
-1.249331 9.238928 -0.683003 34
-1.279488 9.474016 -0.552902 3
-1.935837 9.684665 -0.685418 28
-1.838252 9.204569 -0.506703 4
-1.033409 10.101291 -0.450436 4
-1.605430 9.616042 -0.997158 20
-1.601544 9.602771 -0.844890 7
-1.606649 9.670538 -0.699255 5
-1.543191 9.298090 -0.526955 13
-1.324064 9.951264 -0.426023 8
-1.913792 9.681309 -0.380840 11
-0.964659 9.614488 -0.577459 3
-1.589379 9.635585 -1.173144 18
-2.012279 10.188383 -0.241114 7
-1.609597 9.788404 -0.401891 5
-1.248869 9.494212 -0.553825 3
-1.903209 9.695196 -0.685695 33
-1.808084 9.218682 -0.507134 4
-0.999839 10.116715 -0.450968 3
-1.572346 9.621508 -0.997158 28
-1.565974 9.592484 -0.843506 7
-1.558799 9.589448 -0.692994 3
-1.516486 9.338900 -0.528965 12
-1.289833 9.959789 -0.426193 8
-1.879987 9.687930 -0.380840 10
-1.558266 9.656757 -1.175052 20
-1.980508 10.214973 -0.241578 6
-1.577324 9.805801 -0.402377 5
-1.216735 9.506435 -0.554287 3
-1.873376 9.713996 -1.153408 4
-1.868600 9.697863 -0.685418 33
-1.777404 9.232782 -0.507565 4
-0.968689 10.163902 -0.452918 2
-1.540636 9.638725 -0.998379 23
-1.532481 9.597892 -0.843506 8
-1.528022 9.622680 -0.694986 7
-1.482873 9.348339 -0.529188 12
-1.256811 9.992206 -0.427380 8
-1.856948 9.742808 -0.995213 8
-1.852684 9.737947 -0.382537 10
-1.526571 9.685942 -1.177915 17
-1.940068 10.206450 -0.241207 6
-1.546335 9.843103 -0.403672 5
-1.186316 9.546497 -0.556366 3
-1.834069 9.701277 -1.151092 4
-1.838228 9.732094 -0.687357 35
-1.743552 9.239235 -0.507565 4
-1.509593 9.671828 -1.001228 21
-1.499134 9.615257 -0.844544 6
-1.494336 9.615855 -0.694132 6
-1.457421 9.388717 -0.531197 12
-1.227029 10.024091 -0.428567 8
-1.817271 9.709799 -0.991219 9
-1.813093 9.696499 -0.837019 9
-1.819555 9.740127 -0.382383 10
-1.516518 9.867960 -0.404482 5
-1.155332 9.558341 -0.556828 3
-1.792906 9.660481 -1.145533 6
-1.802724 9.722499 -0.686249 36
-1.719859 9.284299 -0.509721 4
-1.466751 9.660460 -0.696978 5
-1.426436 9.405593 -0.531867 12
-1.194862 10.052123 -0.429585 8
-1.774025 9.665194 -0.986027 8
-1.772046 9.663566 -0.833638 10
-1.784104 9.738555 -0.382074 10
-1.484436 9.889003 -0.405130 5
-1.075884 9.156301 -0.675405 21
-1.124753 9.586113 -0.558214 3
-1.754194 9.639319 -1.142291 5
-1.760924 9.685546 -0.683203 29
-1.688154 9.294176 -0.509937 4
-1.430680 9.649734 -0.695840 2
-1.395936 9.426318 -0.532760 12
-1.161139 10.068143 -0.430093 8
-1.733228 9.632155 -0.982034 9
-1.729136 9.618696 -0.829241 9
-1.757164 9.784064 -0.383617 10
-1.451067 9.902034 -0.405453 5
-1.043464 9.156036 -0.675113 31
-1.094896 9.621722 -0.560061 3
-1.719839 9.641472 -1.141827 5
-1.722904 9.668063 -0.681541 24
-1.657801 9.311809 -0.510584 4
-1.365879 9.450896 -0.533877 12
-1.127320 10.084050 -0.430602 8
-1.695448 9.614630 -0.979637 8
-1.690709 9.597197 -0.826874 10
-1.728544 9.821630 -0.384851 10
-1.420453 9.934733 -0.406587 5
-1.011935 9.163589 -0.675405 32
-1.060866 9.621516 -0.559830 3
-1.684121 9.635675 -1.140438 6
-1.671986 9.575745 -0.674617 46
-1.627346 9.329343 -0.511231 4
-1.293023 9.161697 -0.659981 4
-1.339571 9.503063 -0.536556 11
-1.095554 10.119709 -0.431959 8
-1.665264 9.640100 -0.981634 10
-1.658554 9.610895 -0.827550 14
-1.696286 9.839421 -0.385314 10
-1.387973 9.955465 -0.407235 5
-0.979518 9.163098 -0.675113 48
-1.029393 9.645015 -0.560985 3
-1.648465 9.629747 -1.139048 9
-1.643259 9.609056 -0.676556 49
-1.596788 9.346778 -0.511877 4
-1.260491 9.162202 -0.659696 14
-1.305847 9.503724 -0.536333 12
-1.062721 10.147320 -0.432976 7
-1.627621 9.622308 -0.979238 10
-1.623003 9.604836 -0.826536 14
-1.667252 9.876813 -0.386548 10
-1.355366 9.976091 -0.407882 5
-0.999408 9.684299 -0.563064 3
-1.614841 9.635443 -1.139048 8
-1.615637 9.650154 -0.679048 25
-1.569423 9.383811 -0.513602 4
-1.227441 9.158637 -0.659127 11
-1.275314 9.528017 -0.537449 12
-1.029306 10.170848 -0.433824 7
-1.596623 9.643637 -0.980835 11
-1.586865 9.594714 -0.825183 11
-1.631463 9.874685 -0.386239 10
-1.324729 10.012459 -0.409178 5
-0.967974 9.711571 -0.564449 2
-1.581197 9.641021 -1.139048 9
-1.585813 9.679362 -0.680710 22
-1.541174 9.416824 -0.515112 4
-1.195464 9.162866 -0.659127 10
-1.244111 9.548252 -0.538343 11
-0.994185 10.178356 -0.433994 7
-1.562314 9.645223 -0.980436 11
-1.554000 9.604129 -0.825521 14
-1.599535 9.896103 -0.386856 10
-1.293343 10.044770 -0.410311 5
-1.550051 9.662173 -1.140901 5
-1.541913 9.621797 -0.676279 5
-1.508293 9.422147 -0.515112 4
-1.161463 9.151151 -0.657988 10
-1.212783 9.568384 -0.539236 11
-0.960898 10.205638 -0.435012 6
-1.528637 9.650618 -0.980436 10
-1.519843 9.605558 -0.825183 13
-1.568725 9.925314 -0.387782 10
-1.260259 10.065086 -0.410959 5
-1.518777 9.683226 -1.142754 5
-1.504612 9.603467 -0.674617 21
-1.477247 9.439193 -0.515759 4
-1.130978 9.167028 -0.658842 9
-1.180352 9.580487 -0.539682 11
-1.478994 9.563539 -0.821124 7
-1.535290 9.938630 -0.388090 10
-1.226083 10.077359 -0.411283 4
-1.472892 9.620494 -0.675448 18
-1.449120 9.475878 -0.517484 4
-1.098498 9.166959 -0.658558 10
-1.150225 9.612308 -0.541245 11
-1.427145 9.446473 -0.810641 7
-1.503571 9.963690 -0.388861 10
-1.193243 10.101423 -0.412092 5
-1.446383 9.672935 -0.678771 16
-1.418984 9.500630 -0.518562 4
-1.064649 9.154885 -0.657419 8
-1.121732 9.659902 -0.543701 11
-1.381948 9.368594 -0.803539 4
-1.474025 10.004467 -0.390250 10
-1.160705 10.129352 -0.413064 4
-1.384660 9.497621 -0.518130 4
-1.039590 9.205949 -0.660834 3
-1.090991 9.675480 -0.544371 11
-1.353778 9.392841 -0.805230 4
-1.439797 10.001373 -0.389941 10
-1.129528 10.152983 -0.413873 4
-1.357993 9.533748 -0.519855 4
-1.010052 9.233319 -0.662542 3
-1.057210 9.679229 -0.544371 11
-1.409323 10.038004 -0.391175 10
-1.095365 10.168784 -0.414359 5
-1.272268 9.149750 -0.641108 33
-1.323606 9.530518 -0.519424 4
-0.980755 9.264563 -0.664534 3
-1.026356 9.710662 -0.545934 11
-1.376984 10.062663 -0.391946 10
-1.062762 10.200373 -0.415493 4
-1.240322 9.154135 -0.641108 31
-1.296758 9.582577 -0.522012 4
-0.996978 9.757883 -0.548390 10
-1.344889 10.091198 -0.392872 10
-1.030463 10.239839 -0.416950 4
-1.203266 9.122856 -0.638616 26
-1.263369 9.591064 -0.522227 4
-1.313255 10.123577 -0.393952 10
-0.995486 10.251329 -0.417274 4
-1.170905 9.123042 -0.638339 37
-1.236483 9.646919 -0.525030 4
-1.277909 10.128099 -0.393952 10
-1.142018 9.150832 -0.640000 28
-1.203296 9.655140 -0.525246 4
-1.247448 10.172168 -0.395494 10
-1.114498 9.190402 -0.642493 12
-1.172109 9.679093 -0.526324 3
-1.211460 10.172491 -0.395340 10
-1.083811 9.206126 -0.643324 10
-1.142046 9.714860 -0.528049 3
-1.179156 10.204453 -0.396420 10
-1.054838 9.237605 -0.645262 12
-1.109938 9.734661 -0.528911 4
-1.147155 10.224188 -0.397037 9
-1.025707 9.252930 -0.646093 8
-1.077867 9.738265 -0.528911 4
-1.114481 10.255945 -0.398116 10
-0.998512 9.304066 -0.649416 9
-1.045995 9.761825 -0.529989 4
-0.964793 9.295587 -0.648585 7
-1.013972 9.785281 -0.531067 3
-1.043197 10.267459 -0.398271 8
-0.982375 9.816604 -0.532577 3