# This PCD file was generated using the MATLAB® pcwrite function
# from Computer Vision Toolbox®.
# .PCD v.7 - Point Cloud Data file format
VERSION .7
FIELDS x y z intensity
SIZE 4 4 4 1
TYPE F F F U
COUNT 1 1 1 1
WIDTH 1515
HEIGHT 1
VIEWPOINT 0 0 0 1 0 0 0
POINTS 1515
DATA ascii
3.518517 6.276867 0.344379 101
3.094099 5.955901 -0.699501 101
3.035337 6.325052 -0.068572 101
3.600482 5.560040 -0.728957 45
3.580657 5.934638 -0.107673 101
3.112558 5.988955 -0.598814 101
3.687478 5.692273 -0.431459 101
3.170923 6.098734 -0.291704 101
3.706819 5.720008 -0.328592 101
3.222722 5.742346 -0.884458 101
3.205016 6.161758 -0.187939 101
2.755178 6.229434 -0.577966 101
3.794770 5.853553 -0.014610 71
3.298164 5.874441 -0.506556 101
3.263880 6.272334 0.134530 100
2.791574 6.308839 -0.266234 92
3.337775 5.942637 -0.407323 100
2.900359 6.030696 -0.803883 44
3.504849 5.793463 -0.417699 101
3.456040 6.145888 0.120613 78
2.987792 6.204428 -0.278992 101
3.527357 5.828441 -0.315321 101
3.481246 6.188261 0.230578 91
3.060848 5.870022 -0.830446 89
3.014647 6.257485 -0.174604 101
3.651504 5.620051 -0.633537 101
3.625343 5.988062 -0.001222 101
3.132942 6.005803 -0.496252 101
3.670366 5.646988 -0.532421 101
3.661162 6.044915 0.107319 101
3.157438 6.050264 -0.394699 101
3.754888 5.774890 -0.226101 88
3.269592 5.805125 -0.707318 100
3.226461 6.179975 -0.081527 101
2.780897 6.261784 -0.475500 100
3.783484 5.816715 -0.121120 98
3.297032 5.851528 -0.608882 101
3.261038 6.243629 0.025818 101
2.804055 6.311050 -0.372804 87
3.881406 5.570555 -0.445003 100
3.502671 5.776610 -0.991796 56
3.371084 5.980587 -0.304545 101
2.930821 6.070346 -0.689464 99
3.904074 5.601067 -0.342279 101
3.442317 5.674908 -0.717529 101
3.379888 5.993834 -0.199419 101
2.949974 6.107376 -0.588621 101
3.932993 5.635063 -0.238770 101
3.455305 5.688318 -0.616243 101
3.414232 6.045926 -0.094530 100
2.962584 6.123728 -0.485238 101
3.498033 5.756512 -0.519489 101
3.448991 6.105117 0.012238 100
2.982152 6.161577 -0.382712 100
3.578311 5.886428 -0.212876 100
3.536489 6.257582 0.343996 101
3.114884 5.945057 -0.699501 101
3.050440 6.300011 -0.068416 101
3.641587 5.580742 -0.733333 11
3.599265 5.918691 -0.107611 101
3.131586 5.974529 -0.598460 101
3.055067 6.306909 0.039140 20
3.709477 5.682728 -0.431713 101
3.190304 6.084106 -0.291534 101
3.731081 5.713758 -0.328978 101
3.240742 5.727641 -0.883926 101
3.215304 6.129316 -0.187289 100
2.780099 6.227083 -0.578642 101
3.314644 5.855992 -0.505956 101
3.291249 6.271569 0.134759 101
2.831429 6.339237 -0.267930 100
3.362334 5.937955 -0.407800 100
2.921292 6.020584 -0.803883 67
2.851768 6.381939 -0.162290 37
3.522809 5.777884 -0.417452 101
3.479272 6.137364 0.120682 81
3.014496 6.204830 -0.279478 101
3.553736 5.826440 -0.315876 101
3.506573 6.183139 0.230837 89
3.086673 5.869939 -0.831940 89
3.041515 6.257811 -0.174905 101
3.679623 5.620729 -0.635043 101
3.646009 5.975501 -0.001222 101
3.164816 6.016127 -0.498005 101
3.689831 5.634289 -0.532421 101
3.679918 6.028831 0.107258 101
3.176439 6.035798 -0.394468 101
3.779155 5.768600 -0.226363 98
3.287620 5.790360 -0.706896 100
3.244018 6.161737 -0.081433 100
2.792673 6.230312 -0.473838 101
3.796914 5.793618 -0.120910 100
3.323064 5.850532 -0.609965 101
3.278790 6.225285 0.025788 101
2.825769 6.301357 -0.372804 87
3.898249 5.553905 -0.444741 100
3.524582 5.767905 -0.992377 45
3.387686 5.962008 -0.304191 100
2.955168 6.067385 -0.690278 98
3.918703 5.581081 -0.341878 101
3.465942 5.669834 -0.718388 101
3.408364 5.996090 -0.199882 100
2.963958 6.082875 -0.587238 101
3.954938 5.624570 -0.238908 100
3.479300 5.683016 -0.616981 101
3.435316 6.033971 -0.094530 101
2.990942 6.127691 -0.486376 101
3.522271 5.751069 -0.520105 101
3.466321 6.086089 0.012224 100
3.005395 6.154719 -0.382936 92
3.600926 5.877311 -0.213000 100
3.536553 6.207013 0.341893 100
3.133759 5.930630 -0.699087 101
3.063634 6.271355 -0.068220 101
3.624083 5.912910 -0.107736 101
3.148698 5.956517 -0.597753 101
3.120972 6.386049 0.039698 101
3.727097 5.666410 -0.431459 100
3.213390 6.076465 -0.291704 101
3.744414 5.690687 -0.328400 101
3.256787 5.709406 -0.882861 101
3.234810 6.114521 -0.187181 100
2.800181 6.213706 -0.578304 101
3.337042 5.847851 -0.506256 101
3.307509 6.249438 0.134530 101
2.853539 6.329315 -0.267930 100
3.385020 5.929649 -0.408039 100
3.338985 6.306388 0.245446 79
2.945782 6.017484 -0.804837 92
2.857586 6.335493 -0.161361 62
3.551317 5.779159 -0.418438 101
3.496705 6.118237 0.120545 76
3.034378 6.190681 -0.279316 101
3.574052 5.814000 -0.315876 101
3.528135 6.170861 0.230837 91
3.103425 5.852116 -0.830944 89
3.063341 6.247156 -0.174905 101
3.694835 5.601202 -0.634290 101
3.664750 5.959331 -0.001221 101
3.174579 5.983899 -0.496252 101
3.709476 5.621374 -0.532421 101
3.698844 6.012542 0.107197 101
3.201232 6.031728 -0.394930 101
3.799268 5.755373 -0.226363 84
3.315716 5.792657 -0.708585 100
3.269258 6.157442 -0.081527 101
2.819338 6.231433 -0.474669 101
3.828134 5.797016 -0.121259 93
3.345445 5.842354 -0.610326 101
3.302377 6.217334 0.025803 101
2.844454 6.284177 -0.372373 86
3.922221 5.546781 -0.445265 101
3.530167 5.731979 -0.988310 40
3.408477 5.950147 -0.304191 100
2.967555 6.039176 -0.688243 85
3.942775 5.573892 -0.342279 101
3.487799 5.661087 -0.718818 101
3.423310 5.973749 -0.199534 100
2.983415 6.068916 -0.586892 101
3.490750 5.657278 -0.615506 101
3.456357 6.021943 -0.094530 100
2.992924 6.077840 -0.483246 101
3.538135 5.731951 -0.519489 101
3.491528 6.080890 0.012238 94
3.028625 6.147773 -0.383159 83
3.627721 5.874911 -0.213370 100
3.566158 6.208488 0.342658 55
3.154441 5.919655 -0.699087 101
3.089043 6.267798 -0.068299 101
3.651006 5.910432 -0.107922 101
3.171345 5.949005 -0.598107 101
3.125556 6.339240 0.039475 100
3.751265 5.660021 -0.431967 101
3.230820 6.058159 -0.291364 101
2.808583 6.177428 -0.680914 32
3.764256 5.677582 -0.328400 101
3.274721 5.694566 -0.882328 101
3.254251 6.099665 -0.187073 101
2.816903 6.193010 -0.577290 101
3.357434 5.836167 -0.506256 101
3.327420 6.234326 0.134454 101
2.872304 6.312040 -0.267622 94
3.395740 5.900494 -0.406846 90
3.357213 6.287642 0.245171 72
2.949183 5.971556 -0.800066 87
2.887968 6.343677 -0.161826 57
3.567264 5.759939 -0.417945 101
3.522033 6.112925 0.120682 80
3.055969 6.180051 -0.279316 101
3.592221 5.798092 -0.315691 101
3.549654 6.158508 0.230837 85
3.123834 5.841247 -0.830944 89
3.076263 6.218503 -0.174403 101
3.712160 5.584954 -0.633914 101
3.687637 5.949902 -0.001222 101
3.201093 5.983334 -0.497128 101
3.731284 5.611712 -0.532736 101
3.715594 5.992795 0.107076 100
3.222268 6.020517 -0.394930 101
3.817120 5.738748 -0.226232 74
3.325975 5.763822 -0.706474 100
3.286956 6.138940 -0.081433 101
2.837758 6.214294 -0.474115 101
3.850561 5.786948 -0.121329 95
3.353869 5.809940 -0.608159 101
3.325948 6.209295 0.025818 101
2.859734 6.259678 -0.371510 86
3.941559 5.533056 -0.445265 100
3.539718 5.702809 -0.985405 38
3.431224 5.941674 -0.304368 100
2.986850 6.025215 -0.687836 85
3.964526 5.563348 -0.342479 101
3.505440 5.645499 -0.718388 101
3.452141 5.975612 -0.199998 100
3.001040 6.051324 -0.586200 100
3.512523 5.648476 -0.615875 101
3.473290 6.002952 -0.094421 100
3.019386 6.078106 -0.484100 101
3.566513 5.733134 -0.520720 101
3.512695 6.068687 0.012238 91
3.050028 6.137183 -0.383159 86
3.637630 5.845248 -0.212753 100
3.165655 5.891093 -0.697013 101
3.105546 6.246240 -0.068181 101
3.661055 5.880670 -0.107611 101
3.192100 5.937894 -0.598107 101
3.142330 6.317543 0.039408 98
3.773246 5.650192 -0.432221 101
3.253872 6.050347 -0.291534 101
2.821862 6.149485 -0.678917 86
3.781883 5.661051 -0.328207 101
3.288665 5.672781 -0.880731 101
3.277473 6.091759 -0.187181 101
2.840223 6.186736 -0.577628 101
3.379862 5.827818 -0.506556 101
3.353033 6.229673 0.134606 101
2.897738 6.309202 -0.267930 95
3.422425 5.898909 -0.407562 94
3.381140 6.279348 0.245309 73
2.966567 5.954066 -0.799112 85
2.908530 6.329875 -0.161733 51
3.589625 5.750737 -0.418191 101
3.535487 6.086660 0.120408 72
3.068776 6.151378 -0.278506 101
3.608391 5.778624 -0.315321 101
3.565300 6.135595 0.230448 78
3.138740 5.819727 -0.829451 89
3.103507 6.218362 -0.174704 101
3.736264 5.578446 -0.634666 101
3.710716 5.940253 -0.001222 101
3.220279 5.968497 -0.496836 101
3.748852 5.595192 -0.532421 101
3.237812 5.998561 -0.394237 101
3.835152 5.721901 -0.226101 100
3.346325 5.752032 -0.706474 100
3.308631 6.127285 -0.081433 101
2.856361 6.196978 -0.473562 101
3.866557 5.766644 -0.121190 93
3.382418 5.811810 -0.609604 101
3.342191 6.186931 0.025774 101
2.890225 6.267657 -0.372588 87
3.545202 5.666750 -0.981337 52
3.458279 5.939844 -0.304900 100
3.006391 6.011039 -0.687429 77
3.986556 5.552502 -0.342679 101
3.535984 5.649890 -0.720538 101
3.467270 5.952970 -0.199650 100
3.033176 6.062029 -0.588275 100
3.527005 5.630046 -0.615137 101
3.499221 6.001767 -0.094584 100
3.035951 6.060925 -0.483530 101
3.589741 5.728034 -0.521335 101
3.534816 6.060461 0.012245 91
3.066785 6.119894 -0.382712 87
3.661241 5.839928 -0.213000 100
3.181384 5.873566 -0.696184 101
3.129827 6.243059 -0.068259 100
3.686911 5.878662 -0.107798 101
3.213671 5.930779 -0.598460 101
3.165056 6.310663 0.039430 95
3.791962 5.637648 -0.432221 101
3.270109 6.032496 -0.291195 100
2.833879 6.122035 -0.676920 101
3.807326 5.658423 -0.328785 101
3.313458 5.672114 -0.882328 101
3.293844 6.073827 -0.186965 101
2.855698 6.166434 -0.576613 101
3.401182 5.820022 -0.506856 101
3.367952 6.207974 0.134378 101
2.916964 6.295932 -0.267776 94
3.435922 5.877186 -0.406846 96
3.403852 6.271615 0.245446 73
3.002341 5.976135 -0.803406 95
2.926141 6.312939 -0.161547 53
3.610800 5.742181 -0.418438 101
3.563733 6.088709 0.120682 75
3.090954 6.144738 -0.278668 101
3.631788 5.773390 -0.315691 101
3.591687 6.134089 0.230837 78
3.161812 5.816260 -0.830446 89
3.124111 6.208036 -0.174704 100
3.768105 5.585834 -0.636925 44
3.732524 5.931301 -0.001223 101
3.241960 5.961290 -0.497128 101
3.769616 5.586035 -0.532736 101
3.261503 5.994807 -0.394699 101
3.858579 5.715779 -0.226363 96
3.367393 5.744335 -0.706896 100
3.328932 6.116280 -0.081433 100
2.876895 6.187472 -0.473562 101
3.876705 5.740533 -0.120910 15
3.403687 5.803998 -0.609965 101
3.362690 6.175814 0.025774 101
2.907624 6.250795 -0.372157 81
3.555533 5.641571 -0.979013 26
3.471891 5.918003 -0.304368 100
3.015557 5.979718 -0.684987 84
4.007288 5.542489 -0.342879 101
3.541975 5.617949 -0.717958 101
3.495087 5.955232 -0.200114 100
3.044287 6.034148 -0.586546 101
3.546636 5.617701 -0.615137 101
3.518123 5.986068 -0.094530 101
3.058889 6.053852 -0.483815 101
3.592676 5.688493 -0.518874 101
3.547840 6.034292 0.012217 100
3.086327 6.105587 -0.382489 88
3.683740 5.830492 -0.213123 100
3.203774 5.865917 -0.696599 101
3.151600 6.232095 -0.068259 101
3.707409 5.865757 -0.107798 101
3.222892 5.898547 -0.596339 101
3.183453 6.292438 0.039386 97
3.807139 5.617768 -0.431713 101
3.289230 6.017539 -0.291025 100
2.846809 6.094076 -0.674923 101
3.836023 5.658327 -0.329555 101
3.331225 5.657097 -0.881796 101
3.328454 6.086851 -0.187722 100
2.878893 6.160038 -0.576952 101
3.419452 5.804678 -0.506556 101
3.389601 6.196180 0.134378 101
2.937230 6.282090 -0.267622 92
3.460471 5.872036 -0.407323 91
3.423804 6.256188 0.245309 80
3.017797 5.954990 -0.801974 95
2.951548 6.309931 -0.161733 51
3.628685 5.726170 -0.418191 101
3.582932 6.072788 0.120613 75
3.108767 6.126783 -0.278344 101
3.647641 5.753928 -0.315321 101
3.611045 6.118071 0.230707 78
3.168741 5.780826 -0.826961 89
3.145762 6.197093 -0.174704 100
3.748921 5.911479 -0.001222 101
3.258913 5.942941 -0.496544 101
3.217734 6.336221 0.148859 59
3.791334 5.576140 -0.533051 101
3.280488 5.979885 -0.394468 101
3.874011 5.695663 -0.226101 92
3.387424 5.732545 -0.706896 100
3.348337 6.101116 -0.081386 100
2.896781 6.173780 -0.473285 101
3.413790 5.774935 -0.608159 101
3.378452 6.153520 0.025730 101
2.915848 6.211682 -0.370432 77
3.492527 5.905848 -0.304368 100
3.438804 6.260932 0.355607 28
3.040020 5.976249 -0.685801 92
2.997568 6.382963 -0.055386 100
4.028962 5.531696 -0.343080 93
3.570094 5.618978 -0.719678 101
3.515853 5.942996 -0.200114 100
3.065331 6.023484 -0.586546 100
3.576956 5.622062 -0.616981 101
3.539042 5.973725 -0.094530 101
3.078235 6.039560 -0.483530 101
3.606113 5.665807 -0.517952 101
3.564831 6.014973 0.012203 100
3.105834 6.091204 -0.382266 94
3.706227 5.820964 -0.213247 100
3.231918 5.868632 -0.698257 101
3.178798 6.231740 -0.068377 100
3.723558 5.846037 -0.107673 101
3.247301 5.894244 -0.597046 101
3.198119 6.267040 0.039296 85
3.828954 5.607756 -0.431967 101
3.306334 5.999033 -0.290686 100
2.883314 6.116513 -0.678518 100
3.851206 5.638330 -0.329170 101
3.352937 5.648866 -0.882328 101
3.338057 6.054208 -0.187073 101
2.902037 6.153576 -0.577290 101
3.437602 5.789310 -0.506256 101
3.413082 6.187845 0.134454 101
2.960786 6.275442 -0.267776 87
3.478836 5.856532 -0.407084 96
3.445544 6.244241 0.245309 78
3.042108 5.951530 -0.802929 97
2.973478 6.299626 -0.161733 53
3.644235 5.706815 -0.417699 101
3.606026 6.063757 0.120682 81
3.124545 6.105286 -0.277859 101
3.678323 5.758084 -0.316246 101
3.634279 6.108951 0.230837 46
3.198364 5.787173 -0.829451 89
3.161762 6.175471 -0.174403 101
3.771531 5.901827 -0.001222 101
3.273690 5.921142 -0.495667 101
3.239665 6.325036 0.148859 100
3.815120 5.569563 -0.533682 101
3.303100 5.971988 -0.394699 101
2.884040 6.094369 -0.786077 100
3.891427 5.678933 -0.225970 100
3.411300 5.727630 -0.707740 100
3.371355 6.092999 -0.081433 101
2.918116 6.163724 -0.473285 101
3.439844 5.773370 -0.609243 101
3.407445 6.155806 0.025788 101
2.944136 6.216008 -0.371294 85
3.512899 5.893753 -0.304368 100
3.472014 6.269991 0.356801 72
3.062454 5.969257 -0.686208 92
3.014452 6.361731 -0.055291 74
3.595892 5.616674 -0.720968 74
3.526098 5.913659 -0.199534 100
3.086095 6.012873 -0.586546 101
3.592259 5.602836 -0.616243 101
3.557822 5.957901 -0.094475 101
3.099298 6.028778 -0.483530 101
3.634481 5.666613 -0.519182 101
3.587857 6.005927 0.012210 100
3.123425 6.073223 -0.381819 88
3.726523 5.807992 -0.213247 100
3.246589 5.846880 -0.697013 101
3.196872 6.213492 -0.068299 100
3.746102 5.836370 -0.107736 101
3.267856 5.882873 -0.597046 101
3.232790 6.280733 0.039453 95
3.850768 5.597645 -0.432221 101
3.325313 5.983962 -0.290516 100
2.902937 6.102817 -0.678118 100
3.861804 5.611687 -0.328400 101
3.366529 5.626922 -0.880731 101
3.351398 6.028540 -0.186640 101
2.914936 6.125414 -0.575599 101
3.453692 5.770430 -0.505657 101
3.432717 6.172398 0.134378 101
2.977519 6.254242 -0.267313 93
3.495155 5.837501 -0.406607 90
3.467320 6.232176 0.245309 75
3.062864 5.940875 -0.802929 90
2.993731 6.285598 -0.161640 51
3.661973 5.690702 -0.417452 101
3.623059 6.044271 0.120545 81
3.145837 6.094342 -0.277859 101
3.689749 5.731770 -0.315506 101
3.216613 5.772507 -0.828953 89
3.179629 6.157291 -0.174202 101
3.798606 5.898715 -0.001225 101
3.300166 5.920132 -0.496544 101
3.261724 6.313689 0.148859 92
3.832273 5.552930 -0.533366 101
3.320036 5.953446 -0.394237 101
2.893312 6.059168 -0.782835 101
3.915769 5.671895 -0.226232 100
3.427178 5.708867 -0.706896 100
3.392603 6.081193 -0.081433 101
2.939614 6.153501 -0.473285 101
3.459976 5.761327 -0.609243 101
3.419165 6.126410 0.025715 101
2.962371 6.198485 -0.370863 75
3.529335 5.874604 -0.304014 100
3.484141 6.240392 0.355806 57
3.072299 5.937326 -0.683766 76
3.034915 6.347561 -0.055260 79
3.615476 5.604088 -0.720968 90
3.552898 5.911596 -0.199882 100
3.107065 6.002064 -0.586546 100
3.613956 5.593608 -0.616612 101
3.578597 5.945446 -0.094475 101
3.118487 6.014381 -0.483246 101
3.662898 5.667290 -0.520412 101
3.602609 5.983086 0.012189 88
3.142766 6.058738 -0.381596 96
3.746774 5.794948 -0.213247 100
3.265035 5.832040 -0.696599 101
3.211172 6.188095 -0.068142 100
3.768624 5.826616 -0.107798 101
3.290318 5.874906 -0.597400 101
3.251008 6.262311 0.039408 92
3.872558 5.587451 -0.432475 101
3.350087 5.979291 -0.290856 100
2.922500 6.089058 -0.677719 97
3.885921 5.604739 -0.328785 101
3.388197 5.618531 -0.881263 101
3.376331 6.023781 -0.186857 101
2.936300 6.115201 -0.575599 101
3.475874 5.761754 -0.505956 101
3.446418 6.146424 0.134074 101
2.995871 6.236605 -0.267005 93
3.521700 5.835521 -0.407323 100
3.489053 6.220035 0.245309 73
3.079918 5.923100 -0.801974 87
3.017385 6.278714 -0.161733 51
3.679642 5.674535 -0.417206 101
3.644135 6.031588 0.120545 82
3.170783 6.090414 -0.278183 101
3.709734 5.718855 -0.315506 101
3.238688 5.764704 -0.829451 89
3.210338 6.163888 -0.174704 100
3.314947 5.898143 -0.495667 101
3.283743 6.302265 0.148859 90
3.858462 5.549341 -0.534312 58
3.342754 5.945302 -0.394468 101
2.912720 6.045452 -0.782372 101
3.935544 5.658192 -0.226232 100
3.447085 5.696869 -0.706896 100
3.415770 6.072800 -0.081480 101
2.959343 6.139607 -0.473008 101
3.486254 5.759439 -0.610326 101
3.446414 6.124896 0.025759 101
2.978785 6.177314 -0.370216 90
3.553959 5.869085 -0.304368 100
3.505903 6.228192 0.355806 56
3.107735 5.954787 -0.687022 88
3.050102 6.322518 -0.055134 76
3.635015 5.591434 -0.720968 100
3.569368 5.892318 -0.199650 94
3.124308 5.984116 -0.585855 100
3.635621 5.584304 -0.616981 101
3.597241 5.929505 -0.094421 100
3.139450 6.003465 -0.483246 101
3.676121 5.644448 -0.519489 101
3.625540 5.973898 0.012196 100
3.163888 6.047735 -0.381596 91
3.766977 5.781836 -0.213247 100
3.287326 5.824074 -0.697013 101
3.234605 6.180393 -0.068181 100
3.784574 5.806723 -0.107673 101
3.308848 5.859915 -0.597046 101
3.261718 6.229661 0.039274 97
3.889759 5.570621 -0.432221 101
3.368979 5.964077 -0.290686 100
2.943744 6.078817 -0.677719 100
3.905473 5.591133 -0.328785 101
3.409859 5.610051 -0.881796 101
3.399316 6.015433 -0.186965 101
2.954164 6.097735 -0.574922 101
3.498053 5.752985 -0.506256 101
3.475741 6.148273 0.134378 101
3.007179 6.204520 -0.266079 89
3.544143 5.826591 -0.407562 100
3.508797 6.204326 0.245171 78
3.098751 5.908785 -0.801497 82
3.034071 6.257338 -0.161454 54
3.719116 5.691714 -0.419423 101
3.665202 6.018809 0.120545 94
3.195774 6.086367 -0.278506 101
3.731898 5.709191 -0.315691 101
3.260785 5.756795 -0.829949 89
3.228157 6.145542 -0.174503 100
3.339493 5.893453 -0.496252 101
3.303908 6.287199 0.148775 85
3.357628 5.923148 -0.393775 101
2.930380 6.028078 -0.781445 101
3.936967 5.618192 -0.225182 8
3.467001 5.684771 -0.706896 100
3.435029 6.057330 -0.081433 100
2.982557 6.132802 -0.473285 101
3.493945 5.726796 -0.608159 101
3.454017 6.088440 0.025656 101
2.991653 6.148890 -0.369138 100
3.572405 5.853195 -0.304191 100
3.533604 6.226303 0.356403 43
3.121151 5.929785 -0.685394 82
3.075721 6.318994 -0.055197 74
3.592065 5.883194 -0.199766 100
3.148959 5.980190 -0.586546 101
3.083791 6.332880 0.052864 3
3.659461 5.578240 -0.617719 101
3.620004 5.920325 -0.094475 101
3.152942 5.978353 -0.482107 101
3.700178 5.638250 -0.520105 101
3.644283 5.957794 0.012189 100
3.184979 6.036654 -0.381596 82
3.782748 5.761967 -0.213000 101
3.305668 5.809106 -0.696599 101
3.259893 6.176139 -0.068259 101
3.815798 5.810192 -0.107984 101
3.337167 5.862179 -0.598460 101
3.298385 6.246535 0.039453 90
3.913774 5.563540 -0.432729 101
3.391755 5.955754 -0.290856 100
2.968439 6.075656 -0.678518 100
3.931864 5.587268 -0.329363 101
3.425279 5.591353 -0.880731 101
3.412376 5.989634 -0.186532 101
2.977182 6.090967 -0.575261 101
3.518113 5.740739 -0.506256 101
3.493220 6.129154 0.134226 101
3.032331 6.201167 -0.266388 90
3.568635 5.820992 -0.408039 91
3.530433 6.192040 0.245171 70
3.113787 5.887401 -0.800066 90
3.055895 6.246709 -0.161454 53
3.723592 5.655355 -0.417699 101
3.679913 5.995753 0.120339 90
3.209519 6.061046 -0.277859 101
3.754002 5.699466 -0.315876 101
3.274956 5.735038 -0.828455 89
3.242101 6.120102 -0.174101 100
3.360044 5.881760 -0.496252 101
3.316471 6.257960 0.148356 85
3.386208 5.925260 -0.394699 101
3.344146 6.307630 0.259291 56
2.939158 5.992842 -0.778203 101
3.490989 5.679411 -0.707740 100
3.456152 6.045302 -0.081433 100
3.003946 6.122353 -0.473285 101
3.513914 5.714564 -0.608159 101
3.479221 6.083291 0.025686 101
3.016618 6.145581 -0.369569 82
3.599096 5.850900 -0.304723 100
3.143697 5.922369 -0.685801 90
3.097760 6.308218 -0.055197 79
3.616770 5.877430 -0.199998 95
3.166077 5.962123 -0.585855 101
3.119987 6.350798 0.053104 95
3.670125 5.552142 -0.616243 101
3.634352 5.897438 -0.094312 101
3.175664 5.970834 -0.482392 101
3.722037 5.628627 -0.520412 101
3.673454 5.958656 0.012217 93
3.207908 6.029025 -0.381819 94
3.800632 5.745393 -0.212876 100
3.325925 5.797532 -0.696599 101
3.273914 6.150599 -0.068103 101
3.829434 5.786831 -0.107798 101
3.347693 5.833216 -0.596693 101
3.312649 6.220861 0.039363 92
3.928554 5.543330 -0.432221 101
3.410534 5.940412 -0.290686 100
2.984350 6.054548 -0.677320 94
3.949032 5.570251 -0.329170 100
3.519753 5.700800 -0.899900 40
3.441229 5.991555 -0.186965 100
3.000188 6.084112 -0.575599 101
3.536035 5.725030 -0.505956 101
3.512601 6.113456 0.134150 101
3.055727 6.194129 -0.266542 94
3.582635 5.798310 -0.407323 91
3.556010 6.186610 0.245446 73
3.134319 5.876496 -0.800066 97
3.082991 6.246762 -0.161733 52
3.752139 5.655631 -0.418684 101
3.700820 5.982871 0.120339 66
3.230656 6.049806 -0.277859 101
3.773874 5.686327 -0.315876 101
3.294955 5.723572 -0.828455 89
3.261561 6.105221 -0.174001 101
3.378564 5.866539 -0.495959 101
3.334526 6.239291 0.148189 92
3.400890 5.903023 -0.394006 101
3.368027 6.299443 0.259436 83
2.947725 5.957618 -0.774960 101
3.506603 5.660428 -0.706896 100
3.477233 6.033201 -0.081433 100
3.025299 6.111830 -0.473285 101
3.540135 5.712422 -0.609243 101
3.496438 6.064178 0.025656 101
3.041597 6.142172 -0.370001 71
3.613180 5.828112 -0.304191 100
3.154961 5.893818 -0.683766 91
3.109107 6.275862 -0.055009 63
3.633050 5.857974 -0.199766 100
3.181226 5.940495 -0.584817 101
3.133255 6.321949 0.052954 76
3.687276 5.535982 -0.615875 101
3.663357 5.898306 -0.094530 101
3.198373 5.963228 -0.482677 101
3.746084 5.622238 -0.521027 101
3.702675 5.959388 0.012245 99
3.230822 6.021310 -0.382042 91
3.833969 5.752052 -0.213617 100
3.344150 5.782443 -0.696184 101
3.301039 6.149706 -0.068220 100
3.851830 5.776756 -0.107860 101
3.372025 5.828393 -0.597400 101
3.332451 6.205736 0.039341 94
3.952519 5.536081 -0.432729 101
3.429247 5.925012 -0.290516 100
3.001922 6.036966 -0.676521 100
3.966130 5.553181 -0.328978 101
3.460119 5.976046 -0.186857 100
3.021407 6.073603 -0.575599 101
3.562321 5.722811 -0.506856 101
3.539933 6.111539 0.134378 101
3.068425 6.165533 -0.265771 89
3.602853 5.785769 -0.407323 97
3.569567 6.160324 0.244896 75
3.151051 5.858524 -0.799112 100
3.088737 6.203744 -0.160897 51
3.776295 5.649137 -0.419176 101
3.255544 6.045530 -0.278183 101
3.798142 5.679763 -0.316246 101
3.314914 5.712035 -0.828455 89
3.279059 6.086758 -0.173800 101
3.401024 5.858160 -0.496252 101
3.365771 6.245216 0.148607 97
3.421475 5.891116 -0.394006 101
3.397584 6.301723 0.260016 66
2.986247 5.982841 -0.779592 101
3.530554 5.654902 -0.707740 100
3.498272 6.021027 -0.081433 101
3.039484 6.086952 -0.472177 101
3.553723 5.689894 -0.608159 101
3.531655 6.076145 0.025759 101
3.059449 6.124372 -0.369569 77
3.631385 5.812075 -0.304014 100
3.173625 5.879267 -0.683359 87
3.132783 6.268549 -0.055040 63
3.653476 5.845257 -0.199766 100
3.198155 5.922342 -0.584125 101
3.155304 6.310974 0.052954 73
3.711016 5.529692 -0.616612 101
3.683924 5.885483 -0.094530 101
3.217271 5.948518 -0.482392 101
3.754572 5.592571 -0.519489 101
3.717086 5.936256 0.012224 100
3.249920 6.006483 -0.381819 94
3.849566 5.731997 -0.213370 99
3.358303 5.760423 -0.694940 101
3.316773 6.127594 -0.068103 100
3.865280 5.753316 -0.107673 62
3.392350 5.816586 -0.597400 101
3.350284 6.187031 0.039296 100
3.978812 5.531973 -0.433491 38
3.447895 5.909554 -0.290347 100
3.021192 6.022893 -0.676122 100
3.985490 5.539302 -0.328978 100
3.529979 5.629068 -0.892445 12
3.470880 5.946665 -0.186316 101
3.039014 6.055894 -0.574922 101
3.578036 5.703583 -0.506256 101
3.561245 6.099145 0.134378 101
3.097102 6.169073 -0.266388 93
3.618783 5.766393 -0.406846 99
3.591048 6.147827 0.244896 70
3.160121 5.826543 -0.796250 97
3.104988 6.182204 -0.160619 51
3.782610 5.616053 -0.417699 101
3.259462 6.002518 -0.276725 101
3.811247 5.656529 -0.315691 101
3.330824 5.693578 -0.827459 89
3.306012 6.085816 -0.174101 100
3.419438 5.842809 -0.495959 100
3.387550 6.233429 0.148607 92
3.448071 5.889475 -0.394699 101
3.413833 6.279289 0.259581 75
3.008900 5.975929 -0.780056 101
3.548153 5.639176 -0.707318 100
3.511182 5.994973 -0.081246 101
3.062508 6.079869 -0.472454 101
3.573563 5.677454 -0.608159 101
3.546777 6.053426 0.025715 101
3.071821 6.095820 -0.368491 80
3.658038 5.809509 -0.304545 100
3.190323 5.861164 -0.682545 83
3.158246 6.264719 -0.055103 65
3.671726 5.829085 -0.199650 100
3.216903 5.907643 -0.583780 100
3.177314 6.299921 0.052954 73
3.734758 5.523303 -0.617350 101
3.706579 5.875970 -0.094584 100
3.232285 5.926743 -0.481538 101
3.769602 5.572824 -0.518874 101
3.729246 5.909714 0.012196 98
3.263215 5.981078 -0.380926 84
3.856107 5.698657 -0.212629 100
3.380406 5.752095 -0.695355 101
3.340059 6.119489 -0.068142 101
3.410613 5.801275 -0.597046 101
3.369943 6.171788 0.039274 97
3.466476 5.894038 -0.290177 100
3.042198 6.012311 -0.676122 100
4.016525 5.541532 -0.329941 55
3.549607 5.616712 -0.892445 18
3.505810 5.958637 -0.187073 101
3.058335 6.041693 -0.574584 101
3.597924 5.691059 -0.506256 101
3.580485 6.083230 0.134302 101
3.113199 6.147527 -0.265925 91
3.643157 5.760475 -0.407323 97
3.610458 6.131809 0.244759 68
3.182346 5.818961 -0.796727 97
3.137393 6.192731 -0.161176 52
3.804432 5.606118 -0.417945 101
3.284234 5.998116 -0.277049 101
3.833213 5.646497 -0.315876 101
3.352694 5.685335 -0.827957 89
3.325314 6.070732 -0.174001 100
3.439812 5.830837 -0.495959 101
3.407367 6.218059 0.148524 97
3.460489 5.863647 -0.393775 101
3.426123 6.249808 0.258855 67
3.018946 5.944136 -0.777276 101
3.565686 5.623397 -0.706896 100
3.542254 5.999902 -0.081480 100
3.083712 6.069142 -0.472454 101
3.597627 5.671674 -0.608882 101
3.576022 6.054785 0.025774 101
3.100320 6.099303 -0.369354 87
3.671872 5.786582 -0.304014 91
3.214592 5.856968 -0.683359 84
3.172843 6.239395 -0.054977 57
3.700622 5.829735 -0.200114 91
3.249012 5.917336 -0.585855 101
3.195658 6.281662 0.052894 73
3.722761 5.856255 -0.094475 101
3.256782 5.922425 -0.482107 101
3.224383 6.328017 0.162410 16
3.800253 5.576117 -0.520412 101
3.754136 5.903417 0.012210 98
3.287914 5.976655 -0.381373 74
3.884980 5.698378 -0.213123 100
3.406544 5.750531 -0.696599 101
3.361396 6.107795 -0.068142 100
3.424751 5.779050 -0.595986 101
3.397256 6.170497 0.039341 98
3.493151 5.892210 -0.290686 100
3.472829 6.305251 0.372212 8
3.063174 6.001650 -0.676122 94
3.596889 5.647748 -0.899368 40
3.520483 5.936037 -0.186748 101
3.079420 6.030973 -0.574584 101
3.622073 5.685181 -0.506856 101
3.599677 6.067244 0.134226 101
3.132842 6.133052 -0.265771 89
3.667561 5.754441 -0.407800 100
3.206499 5.814758 -0.797681 97
3.160837 6.185289 -0.161269 52
3.824020 5.592776 -0.417945 101
3.316786 6.007584 -0.278021 101
3.852947 5.633049 -0.315876 101
3.374595 5.676980 -0.828455 89
3.346536 6.059059 -0.174001 100
3.460199 5.818762 -0.495959 101
3.436846 6.220096 0.148859 100
3.483039 5.854928 -0.394006 101
3.453785 6.248270 0.259291 68
3.046985 5.947674 -0.779129 101
3.583216 5.607524 -0.706474 100
3.557108 5.977148 -0.081340 100
3.095848 6.040549 -0.471069 101
3.619619 5.662392 -0.609243 101
3.582888 6.018162 0.025671 101
3.116201 6.077742 -0.368707 87
3.696432 5.780413 -0.304368 100
3.231242 5.838705 -0.682545 87
3.191036 6.221120 -0.054914 62
3.705951 5.793151 -0.199303 98
3.260083 5.888480 -0.584125 101
3.212178 6.259746 0.052804 80
3.740004 5.840510 -0.094421 101
3.272536 5.904613 -0.481538 101
3.241695 6.310175 0.162227 63
3.818723 5.563484 -0.520412 101
3.765061 5.877463 0.012182 75
3.303841 5.958734 -0.380926 88
3.906119 5.688759 -0.213247 100
3.417438 5.725538 -0.694940 101
3.373871 6.082623 -0.067986 100
3.452067 5.781345 -0.597400 101
3.419640 6.162695 0.039363 85
3.506523 5.870301 -0.290177 100
3.493719 6.293699 0.372212 39
3.075776 5.977304 -0.674524 92
3.619879 5.642463 -0.900433 39
3.538097 5.920898 -0.186640 100
3.101227 6.024272 -0.574922 101
3.640906 5.673139 -0.506856 101
3.613621 6.044975 0.133998 101
3.149503 6.115523 -0.265462 83
3.680151 5.732168 -0.407084 93
3.221905 5.797150 -0.796727 97
3.168511 6.149889 -0.160619 53
3.856131 5.599793 -0.419423 101
3.330860 5.986074 -0.277535 101
3.871606 5.620242 -0.315876 101
3.389323 5.658949 -0.827459 89
3.370500 6.054916 -0.174202 100
3.481526 5.810678 -0.496252 100
3.451616 6.198184 0.148607 100
3.504488 5.846770 -0.394237 100
3.476431 6.240274 0.259436 54
3.061222 5.926947 -0.777740 101
3.608250 5.605645 -0.707740 100
3.576910 5.965320 -0.081340 100
3.130516 6.058611 -0.473285 101
3.636219 5.647009 -0.608882 101
3.604882 6.009678 0.025686 101
3.134504 6.063827 -0.368491 84
3.715580 5.768124 -0.304368 100
3.254463 5.834908 -0.683359 86
3.213486 6.214057 -0.054946 64
3.733805 5.794274 -0.199766 100
3.277650 5.874156 -0.583780 101
3.243947 6.270375 0.052984 86
3.762537 5.830780 -0.094475 100
3.295073 5.896636 -0.481823 101
3.267381 6.305923 0.162410 54
3.844925 5.559961 -0.521335 101
3.328519 5.954136 -0.381373 90
3.928227 5.678378 -0.213370 90
3.441505 5.720393 -0.695770 101
3.398987 6.077792 -0.068064 101
3.461954 5.752191 -0.595632 101
3.425508 6.122795 0.039185 91
3.531115 5.864872 -0.290516 100
3.531274 6.309352 0.373865 40
3.092955 5.959466 -0.673725 89
3.560807 5.911937 -0.186748 100
3.114890 5.999261 -0.573570 101
3.660687 5.660395 -0.506856 101
3.638828 6.039175 0.134150 101
3.165303 6.093851 -0.265000 91
3.713151 5.739401 -0.408516 94
3.249887 5.799727 -0.798635 97
3.197334 6.152986 -0.160990 51
3.866551 5.573177 -0.418438 101
3.343913 5.960468 -0.276887 101
3.891201 5.606693 -0.315876 101
3.409056 5.647084 -0.827459 89
3.387701 6.036140 -0.174001 100
3.503850 5.801904 -0.496544 100
3.473231 6.186097 0.148607 100
3.526941 5.837920 -0.394468 101
3.492320 6.217646 0.259000 61
3.080056 5.912702 -0.777276 101
3.627795 5.593015 -0.707740 100
3.608055 5.969913 -0.081573 100
3.147958 6.040569 -0.472731 101
3.658077 5.637623 -0.609243 101
3.632047 6.007327 0.025730 101
3.161191 6.063474 -0.369138 82
3.731341 5.748415 -0.304014 101
3.274811 5.823512 -0.683359 87
3.238857 6.209895 -0.055009 61
3.749653 5.774498 -0.199534 100
3.294227 5.855733 -0.583088 101
3.245461 6.220006 0.052654 71
3.780714 5.814240 -0.094421 97
3.317622 5.888559 -0.482107 101
3.287551 6.290919 0.162319 55
3.864326 5.546494 -0.521335 101
3.349300 5.942472 -0.381373 96
3.463521 5.711742 -0.696184 101
3.418224 6.062402 -0.068025 101
3.494406 5.760513 -0.597753 101
3.458646 6.131706 0.039319 100
3.555698 5.859353 -0.290856 100
3.515961 6.230895 0.369940 14
3.126644 5.973324 -0.676521 100
3.581396 5.899487 -0.186748 101
3.139484 5.995427 -0.574246 101
3.678211 5.644263 -0.506556 101
3.651546 6.012785 0.133845 101
3.192083 6.093406 -0.265462 79
3.720034 5.706365 -0.407084 96
3.262253 5.774542 -0.796727 97
3.209463 6.124103 -0.160526 52
3.888195 5.562971 -0.418684 101
3.370522 5.959240 -0.277373 101
3.910664 5.593135 -0.315876 101
3.430725 5.638592 -0.827957 89
3.416536 6.038250 -0.174403 101
3.519835 5.782882 -0.495959 100
3.484849 6.156593 0.148189 100
3.545112 5.822228 -0.394237 101
3.517826 6.212440 0.259291 52
3.095023 5.891420 -0.775887 101
3.649359 5.583722 -0.708163 82
3.622508 5.947109 -0.081433 100
3.161475 6.015480 -0.471623 101
3.679789 5.628236 -0.609604 101
3.657023 6.001525 0.025759 101
3.182202 6.052473 -0.369138 84
3.755620 5.742134 -0.304368 100
3.291054 5.805202 -0.682545 83
3.256640 6.191550 -0.054946 58
3.771827 5.764818 -0.199650 100
3.314496 5.844285 -0.583088 101
3.268855 6.212263 0.052684 77
3.800987 5.801007 -0.094421 100
3.332245 5.866535 -0.481254 101
3.300168 6.261717 0.161862 53
3.368049 5.927272 -0.381149 99
3.483438 5.699618 -0.696184 101
3.435412 6.043478 -0.067947 100
3.508258 5.738082 -0.596693 101
3.476074 6.112642 0.039274 100
3.563618 5.826450 -0.289838 100
3.143759 5.955334 -0.675722 94
3.601968 5.886949 -0.186748 101
3.158532 5.980907 -0.573908 101
3.700080 5.634723 -0.506856 101
3.687128 6.023880 0.134378 101
3.217068 6.089294 -0.265771 92
3.742123 5.696682 -0.407323 97
3.282390 5.763119 -0.796727 97
3.236426 6.123469 -0.160804 51
3.914485 5.559157 -0.419423 101
3.387344 5.940495 -0.277049 101
3.934766 5.585983 -0.316246 101
3.448312 5.623199 -0.827459 89
3.421742 5.998500 -0.173599 100
3.533742 5.760359 -0.495083 101
3.506319 6.144392 0.148189 99
3.186522 6.016924 -1.642776 44
3.565414 5.809818 -0.394237 101
3.535526 6.193179 0.259000 64
3.119289 5.887602 -0.776813 101
3.641152 5.931019 -0.081386 100
3.182453 6.004407 -0.471623 101
3.692838 5.605377 -0.608521 101
3.667484 5.971681 0.025686 100
3.199568 6.034271 -0.368707 84
3.775641 5.728989 -0.304368 91
3.315247 5.800588 -0.683359 78
3.276358 6.176611 -0.054914 65
3.796328 5.758293 -0.199882 100
3.336854 5.836139 -0.583434 101
3.290520 6.200815 0.052684 80
3.830028 5.801055 -0.094639 100
3.354686 5.858330 -0.481538 101
3.322005 6.250159 0.161862 61
3.388719 5.915479 -0.381149 96
3.353387 6.306670 0.273149 8
3.499139 5.680649 -0.695355 101
3.466430 6.048801 -0.068142 100
3.532447 5.732585 -0.597400 101
3.499379 6.103941 0.039296 98
3.594420 5.830985 -0.290686 100
3.153306 5.923244 -0.673326 89
3.624594 5.877744 -0.186857 101
3.179390 5.969845 -0.573908 101
3.715324 5.615120 -0.506256 101
3.699733 5.997358 0.134074 52
3.230786 6.063917 -0.265154 91
3.761985 5.683585 -0.407323 94
3.302487 5.751626 -0.796727 97
3.259662 6.115663 -0.160897 51
3.933867 5.545460 -0.419423 101
3.414035 5.939030 -0.277535 101
3.954240 5.572215 -0.316246 101
3.472093 5.617879 -0.828455 89
3.450634 6.000386 -0.174001 100
3.562219 5.761561 -0.496252 101
3.537716 6.149447 0.148607 100
3.176365 5.947456 -1.626827 81
3.583572 5.793941 -0.394006 101
3.557123 6.180800 0.259000 55
3.137949 5.873174 -0.776350 101
3.659729 5.914872 -0.081340 101
3.203393 5.993262 -0.471623 101
3.723397 5.609047 -0.610326 101
3.694622 5.969046 0.025730 101
3.213078 6.008976 -0.367845 97
3.797827 5.719104 -0.304545 100
3.329515 5.778636 -0.682138 88
3.299786 6.168664 -0.054946 61
3.818618 5.748337 -0.199998 100
3.355216 5.821003 -0.583088 100
3.310257 6.185764 0.052654 80
3.852426 5.791009 -0.094693 90
3.379061 5.853520 -0.482107 101
3.351312 6.252648 0.162227 67
3.409320 5.903630 -0.381149 93
3.369686 6.284374 0.272691 55
3.512642 5.658266 -0.694111 101
3.477509 6.019354 -0.067947 100
3.541931 5.703292 -0.595632 101
3.510664 6.074369 0.039185 78
3.610557 5.811599 -0.290347 101
3.179634 5.922709 -0.674524 100
3.649349 5.871823 -0.187073 101
3.200249 5.958689 -0.573908 101
3.730530 5.595444 -0.505657 101
3.259558 6.066656 -0.265771 91
3.784087 5.673694 -0.407562 100
3.322615 5.740023 -0.796727 97
3.282959 6.107729 -0.160990 54
3.948672 5.525115 -0.418930 101
3.432864 5.923547 -0.277373 101
3.973798 5.558284 -0.316246 101
3.485518 5.595537 -0.826961 89
3.463677 5.974384 -0.173599 101
3.578242 5.742226 -0.495667 101
3.557316 6.133507 0.148524 100
3.178825 5.902013 -1.617445 100
3.603944 5.781291 -0.394006 101
3.576850 6.164784 0.258855 56
3.149180 5.844604 -0.774034 101
3.678426 5.898549 -0.081293 100
3.218806 5.971402 -0.470792 101
3.734290 5.582641 -0.608882 101
3.717760 5.959377 0.025744 100
3.234243 5.997611 -0.367845 94
3.815760 5.702347 -0.304368 100
3.349883 5.766852 -0.682138 88
3.319631 6.153462 -0.054914 66
3.836668 5.731494 -0.199882 91
3.375750 5.809119 -0.583088 101
3.339679 6.188117 0.052774 85
3.392435 5.831936 -0.481254 101
3.370127 6.237982 0.162136 58
3.424861 5.885388 -0.380703 93
3.392408 6.276681 0.272844 51
3.537715 5.656706 -0.695355 101
3.501475 6.014702 -0.068025 100
3.571391 5.708404 -0.597400 101
3.540853 6.079977 0.039296 91
3.629809 5.799594 -0.290347 100
3.191680 5.898131 -0.672927 97
3.658191 5.842744 -0.186532 101
3.214299 5.937529 -0.572893 101
3.757959 5.596288 -0.506856 101
3.258720 6.017152 -0.264074 95
3.798428 5.654485 -0.407084 90
3.341631 5.728973 -0.796727 97
3.293670 6.079229 -0.160526 54
3.957644 5.499029 -0.417945 101
3.444427 5.898325 -0.276725 101
3.982870 5.532104 -0.315506 99
3.523041 5.614204 -0.831442 46
3.489521 5.973224 -0.173900 101
3.599385 5.733707 -0.495959 101
3.575618 6.118224 0.148440 95
3.198379 5.891439 -1.617445 101
3.631590 5.782835 -0.394930 101
3.603327 6.163241 0.259291 57
3.181818 5.858568 -0.777276 101
3.700094 5.889705 -0.081340 100
3.246210 5.974720 -0.471900 101
3.761685 5.583442 -0.610326 101
3.735373 5.943629 0.025730 101
3.261744 6.000890 -0.368707 90
3.830182 5.683035 -0.304014 101
3.370998 5.759147 -0.682545 94
3.338108 6.138906 -0.054883 66
3.855653 5.718740 -0.199882 100
3.392981 5.794454 -0.582742 101
3.360181 6.177008 0.052774 80
3.411768 5.816021 -0.480969 101
3.400623 6.239633 0.162502 58
3.446409 5.872796 -0.380703 100
3.419217 6.271224 0.273149 54
3.556302 5.640336 -0.694940 101
3.525522 6.005278 -0.068064 101
3.588038 5.688536 -0.596693 101
3.559062 6.060060 0.039252 97
3.651041 5.786251 -0.290347 100
3.213276 5.886393 -0.672927 100
3.685985 5.839441 -0.186857 101
3.236039 5.925708 -0.572893 101
3.782917 5.589083 -0.507456 101
3.284585 6.012183 -0.264383 87
3.819127 5.640525 -0.407084 100
3.362606 5.716687 -0.796727 94
3.317847 6.070625 -0.160619 51
3.463994 5.882217 -0.276563 101
3.556326 5.621377 -0.834429 15
3.505301 5.950058 -0.173599 101
3.622509 5.723847 -0.496252 101
3.598018 6.105078 0.148440 97
3.223686 5.886498 -1.619322 100
3.642080 5.752616 -0.393775 101
3.623862 6.146550 0.259145 43
3.197542 5.836414 -0.775887 101
3.721656 5.876104 -0.081340 100
3.262333 5.952285 -0.471069 101
3.788838 5.579504 -0.611410 100
3.750710 5.919761 0.025686 101
3.281796 5.985393 -0.368491 90
3.857722 5.678875 -0.304545 100
3.386016 5.736472 -0.681324 92
3.370204 6.144165 -0.055040 67
3.872093 5.697956 -0.199650 94
3.418249 5.788841 -0.583434 101
3.373177 6.147117 0.052624 75
3.435155 5.811511 -0.481538 101
3.415582 6.217773 0.162227 55
3.467934 5.864751 -0.380926 100
3.432333 6.245818 0.272538 58
3.585665 5.645295 -0.697013 101
3.547467 5.996988 -0.068103 100
3.606874 5.676612 -0.596693 101
3.568944 6.031017 0.039140 91
3.668035 5.770759 -0.290177 100
3.230829 5.872235 -0.672527 100
3.707421 5.830593 -0.186965 101
3.253696 5.911482 -0.572555 101
3.801358 5.576557 -0.507456 101
3.314066 6.018807 -0.265154 95
3.844465 5.637791 -0.407800 100
3.385499 5.712394 -0.797681 91
3.330141 6.045635 -0.160247 52
3.493513 5.887982 -0.277373 101
3.559838 5.586239 -0.830944 24
3.524823 5.938514 -0.173599 101
3.639121 5.708570 -0.495959 101
3.615984 6.089804 0.148356 92
3.237342 5.865679 -1.616507 101
3.663056 5.744019 -0.394006 101
3.212807 5.818949 -0.774960 101
3.732262 5.850405 -0.081152 100
3.272149 5.924111 -0.469684 101
3.770041 5.907469 0.025686 83
3.293617 5.960649 -0.367629 81
3.873986 5.662951 -0.304368 98
3.410829 5.735647 -0.682545 90
3.376701 6.108624 -0.054820 61
3.897429 5.695197 -0.199998 89
3.435071 5.774239 -0.583088 100
3.399013 6.146585 0.052714 84
3.457462 5.802912 -0.481823 101
3.439203 6.209311 0.162319 51
3.488385 5.852610 -0.380926 93
3.456051 6.237295 0.272691 61
3.598915 5.622692 -0.695770 101
3.562234 5.974262 -0.067986 101
3.628816 5.667342 -0.597046 101
3.592023 6.021958 0.039162 100
3.696778 5.771380 -0.290856 100
3.257100 5.871363 -0.673725 100
3.721279 5.807516 -0.186640 101
3.272377 5.896604 -0.572217 101
3.816285 5.556678 -0.506856 101
3.327295 5.993224 -0.264537 92
3.861861 5.621046 -0.407562 91
3.401345 5.693723 -0.796727 94
3.349282 6.030478 -0.160154 52
3.503787 5.858602 -0.276563 101
3.486182 6.269638 0.384746 60
3.585749 5.583797 -0.832438 4
3.551690 5.936469 -0.173900 101
3.663338 5.702545 -0.496544 101
3.633111 6.070282 0.148189 85
3.280486 5.895116 -1.627765 101
3.685243 5.734557 -0.394237 101
3.233099 5.807699 -0.774960 101
3.759149 5.847435 -0.081293 100
3.302515 5.930085 -0.471069 101
3.316347 5.952605 -0.367845 92
3.900533 5.659265 -0.304900 100
3.436967 5.733945 -0.683766 91
3.405793 6.110775 -0.054946 64
3.921824 5.688141 -0.200230 75
3.461354 5.772466 -0.584125 101
3.414604 6.124202 0.052624 73
3.475643 5.787387 -0.481538 101
3.455007 6.186793 0.162045 50
3.504679 5.833550 -0.380479 81
3.477802 6.225193 0.272691 63
3.616363 5.606751 -0.695355 101
3.585126 5.965219 -0.068025 101
3.650737 5.657989 -0.597400 101
3.623327 6.026523 0.039274 98
3.714734 5.755084 -0.290686 100
3.275632 5.856484 -0.673326 100
3.752374 5.811287 -0.187181 101
3.294887 5.888623 -0.572555 101
3.833388 5.540042 -0.506556 101
3.350147 5.985061 -0.264691 98
3.883731 5.610814 -0.407800 88
3.421199 5.681815 -0.796727 85
3.380081 6.036195 -0.160619 51
3.520090 5.839489 -0.276239 101
3.513906 6.267883 0.385389 86
3.578585 5.934308 -0.174202 100
3.687557 5.696420 -0.497128 101
3.660476 6.067835 0.148440 100
3.327681 5.931105 -1.640900 101
3.700897 5.714954 -0.393775 101
3.257241 5.803308 -0.775887 101
3.786062 5.844348 -0.081433 101
3.325149 5.922000 -0.471346 101
3.337106 5.940992 -0.367845 84
3.915706 5.639050 -0.304545 100
3.452846 5.715101 -0.682952 90
3.425143 6.095363 -0.054914 66
3.479422 5.756938 -0.583780 101
3.437921 6.115733 0.052654 80
3.495781 5.775246 -0.481538 101
3.476537 6.174721 0.162045 51
3.527063 5.824714 -0.380703 79
3.493598 6.202583 0.272232 61
3.646743 5.610779 -0.697428 101
3.605917 5.952675 -0.068025 100
3.668298 5.641867 -0.597046 101
3.642275 6.010414 0.039252 94
3.734823 5.742067 -0.290686 100
3.296077 5.845002 -0.673326 100
3.770494 5.794776 -0.187073 101
3.319378 5.884007 -0.573231 101
3.855036 5.529863 -0.506856 101
3.369110 5.969817 -0.264537 97
3.905645 5.600450 -0.408039 85
3.439021 5.666401 -0.796250 94
3.389409 6.003425 -0.160062 53
3.557175 5.854418 -0.277535 101
3.528031 6.241597 0.384532 22
3.599417 5.921695 -0.174202 100
3.701029 5.673392 -0.496252 101
3.677638 6.048090 0.148272 90
3.404041 6.017513 -1.668108 101
3.720989 5.701893 -0.393775 101
3.273734 5.784891 -0.774960 101
3.806625 5.830975 -0.081433 101
3.347955 5.913723 -0.471623 101
3.359997 5.932667 -0.368060 84
3.930995 5.618651 -0.304191 100
3.472988 5.702883 -0.682952 90
3.444655 6.079760 -0.054883 65
3.499727 5.744616 -0.583780 100
3.451604 6.089636 0.052534 72
3.515919 5.763008 -0.481538 101
3.490173 6.148637 0.161679 51
3.545293 5.808958 -0.380479 90
3.517201 6.193826 0.272385 60
3.657587 5.584703 -0.695770 101
3.624589 5.936638 -0.067986 101
3.687970 5.629027 -0.597046 101
3.665318 6.001077 0.039274 85
3.754843 5.728995 -0.290686 100
3.310559 5.823081 -0.672128 100
3.786314 5.774892 -0.186857 101
3.330044 5.855062 -0.571541 101
3.885778 5.532694 -0.508356 70
3.397835 5.971917 -0.265154 93
3.925170 5.586783 -0.408039 77
3.462924 5.661138 -0.797204 82
3.414300 5.998507 -0.160247 51
3.571327 5.831741 -0.277049 101
3.615888 5.902276 -0.174001 101
3.720810 5.660439 -0.496252 101
3.425025 6.005594 -1.668108 101
3.745258 5.695543 -0.394237 101
3.291938 5.769978 -0.774497 101
3.820362 5.807627 -0.081293 100
3.358687 5.884672 -0.470238 101
3.374744 5.910496 -0.367413 78
3.952886 5.608161 -0.304368 101
3.490792 5.687334 -0.682545 80
3.459905 6.057279 -0.054789 66
3.519758 5.732365 -0.583780 101
3.484747 6.098388 0.052714 76
3.536014 5.750700 -0.481538 101
3.513601 6.139887 0.161770 49
3.569734 5.803350 -0.380926 79
3.540787 6.184980 0.272538 57
3.651578 5.934169 -0.068103 101
3.705401 5.612794 -0.596693 101
3.688340 5.991652 0.039296 87
3.777021 5.719188 -0.290856 100
3.336802 5.821848 -0.673326 100
3.819673 5.781657 -0.187506 100
3.356410 5.853775 -0.572555 101
3.412694 5.949618 -0.264691 89
3.951568 5.582825 -0.408755 94
3.482664 5.649015 -0.797204 80
3.441189 5.996958 -0.160526 53
3.587464 5.812437 -0.276725 101
3.636469 5.889617 -0.174001 100
3.744952 5.654068 -0.496836 100
3.445968 5.993602 -1.668108 101
3.762910 5.679106 -0.394006 101
3.310078 5.755007 -0.774034 101
3.849450 5.807591 -0.081480 69
3.387168 5.886747 -0.471346 101
3.403325 5.912527 -0.368276 79
3.979379 5.604104 -0.304900 100
3.510623 5.675114 -0.682545 88
3.491008 6.062496 -0.054946 61
3.546038 5.730209 -0.584817 101
3.508010 6.089653 0.052744 71
3.558183 5.741704 -0.481823 101
3.537026 6.131040 0.161862 43
3.585770 5.784060 -0.380479 88
3.558369 6.165653 0.272232 63
3.668058 5.914586 -0.068025 101
3.727176 5.603145 -0.597046 101
3.709230 5.978743 0.039296 80
3.792526 5.699320 -0.290516 100
3.345149 5.789493 -0.670930 100
3.824308 5.744999 -0.186748 100
3.378803 5.845482 -0.572893 101
3.431420 5.934221 -0.264537 84
3.966371 5.562512 -0.408278 55
3.498145 5.630093 -0.796250 82
3.458070 5.978002 -0.160340 52
3.607688 5.799906 -0.276725 101
3.656955 5.876919 -0.174001 100
3.757969 5.631042 -0.495959 100
3.466812 5.981570 -1.668108 101
3.780435 5.662654 -0.393775 100
3.320122 5.726267 -0.771718 101
3.399620 5.861120 -0.470238 101
3.423870 5.900654 -0.368276 68
3.991867 5.580482 -0.304368 76
3.530335 5.662873 -0.682545 78
3.506043 6.039943 -0.054852 52
3.557501 5.704323 -0.583434 100
3.529157 6.077422 0.052744 76
3.578204 5.729249 -0.481823 101
3.570468 6.139397 0.162410 43
3.610171 5.778282 -0.380926 73
3.585899 6.163559 0.272691 54
3.686561 5.898354 -0.067986 101
3.746711 5.590101 -0.597046 101
3.732198 5.969150 0.039319 99
3.807946 5.679409 -0.290177 100
3.373351 5.791538 -0.672527 100
3.844338 5.731615 -0.186748 99
3.391161 5.819877 -0.571541 101
3.452113 5.922207 -0.264537 90
3.981105 5.542148 -0.407800 58
3.528315 5.634678 -0.798635 81
3.478916 5.965895 -0.160340 51
3.634280 5.797436 -0.277211 101
3.675323 5.860730 -0.173900 100
3.784280 5.627821 -0.496836 101
3.493555 5.979504 -1.670922 101
3.802407 5.652737 -0.394006 101
3.346105 5.724934 -0.773107 101
3.420058 5.849217 -0.470238 101
3.436379 5.874876 -0.367413 83
3.550081 5.650515 -0.682545 80
3.529125 6.031120 -0.054883 54
3.579511 5.695244 -0.583780 100
3.544288 6.054709 0.052654 75
3.596056 5.713346 -0.481538 101
3.579742 6.106197 0.161862 53
3.621807 5.752126 -0.380033 89
3.611436 6.157900 0.272997 37
3.709260 5.888834 -0.068025 100
3.763972 5.573686 -0.596693 101
3.748747 5.949317 0.039274 83
3.834459 5.676016 -0.290686 100
3.389516 5.772863 -0.671729 100
3.866561 5.721473 -0.186857 100
3.411455 5.808004 -0.571541 101
3.478839 5.920459 -0.265000 95
4.002767 5.531452 -0.408039 52
3.537364 5.605535 -0.796250 86
3.487561 5.933030 -0.159783 54
3.650226 5.777957 -0.276887 101
3.682941 5.827584 -0.173297 100
3.799427 5.607972 -0.496252 100
3.524272 5.984025 -1.675613 101
3.824356 5.642735 -0.394237 101
3.366068 5.713218 -0.773107 101
3.436403 5.830368 -0.469684 101
3.456866 5.862844 -0.367413 83
3.574040 5.644813 -0.683359 84
3.554220 6.025655 -0.054946 54
3.607899 5.696181 -0.585163 100
3.567434 6.045746 0.052684 82
3.618083 5.704148 -0.481823 101
3.601002 6.093684 0.161862 48
3.648264 5.749577 -0.380703 87
3.731929 5.879232 -0.068064 100
3.783409 5.560511 -0.596693 100
3.845269 5.649372 -0.290008 100
3.407635 5.757562 -0.671329 94
3.895538 5.721143 -0.187289 100
3.431736 5.796044 -0.571541 101
3.489340 5.891060 -0.264228 86
3.559091 5.596472 -0.796727 33
3.506264 5.917348 -0.159690 53
3.668312 5.761754 -0.276725 100
3.707655 5.821375 -0.173498 100
3.823584 5.601193 -0.496836 100
3.846400 5.632568 -0.394468 100
3.388139 5.704779 -0.773571 101
3.462983 5.828549 -0.470515 101
3.475416 5.847221 -0.367198 81
3.598156 5.638914 -0.684173 86
3.571307 6.006238 -0.054883 56
3.625782 5.680088 -0.584817 101
3.578467 6.015963 0.052534 77
3.635824 5.688122 -0.481538 101
3.622251 6.081077 0.161862 53
3.670463 5.740172 -0.380926 81
3.752429 5.866169 -0.068064 94
3.876267 5.652394 -0.290856 100
3.425673 5.742214 -0.670930 100
3.910961 5.700916 -0.187073 62
3.458075 5.794298 -0.572555 101
3.511931 5.882277 -0.264383 75
3.576461 5.580671 -0.796250 24
3.549453 5.942838 -0.160712 51
3.692718 5.755642 -0.277049 101
3.734433 5.818493 -0.173800 100
3.847634 5.594386 -0.497421 100
3.863774 5.615818 -0.394237 101
3.405991 5.689508 -0.773107 101
3.493558 5.833542 -0.471900 101
3.504016 5.848760 -0.368060 76
3.615666 5.622973 -0.683766 81
3.592251 5.993736 -0.054883 61
3.641275 5.660694 -0.584125 100
3.605615 6.013727 0.052624 79
3.655657 5.675396 -0.481538 101
