# This PCD file was generated using the MATLAB® pcwrite function
# from Computer Vision Toolbox®.
# .PCD v.7 - Point Cloud Data file format
VERSION .7
FIELDS x y z intensity
SIZE 4 4 4 1
TYPE F F F U
COUNT 1 1 1 1
WIDTH 325
HEIGHT 1
VIEWPOINT 0 0 0 1 0 0 0
POINTS 325
DATA ascii
-14.263710 22.865763 -0.573931 0
-14.204854 22.949417 -0.574783 29
-14.093266 22.947746 -0.573505 33
-13.998511 22.972895 -0.572909 25
-13.924323 23.022612 -0.572994 20
-13.726769 22.866323 -0.977947 21
-13.854594 23.087963 -0.573420 24
-13.948881 23.350431 -0.161407 27
-13.653004 22.924402 -0.978387 25
-13.767780 23.125875 -0.573165 25
-13.863210 23.392097 -0.161360 17
-13.568832 22.965038 -0.978094 28
-13.684938 23.170349 -0.573080 25
-13.679875 23.258724 -1.404699 14
-13.773304 23.426588 -0.161265 17
-13.474050 22.988350 -0.977068 24
-13.609607 23.228582 -0.573335 28
-13.568408 23.254580 -1.401579 10
-13.681370 23.457249 -0.161146 17
-13.381667 23.014509 -0.976188 23
-13.526431 23.272491 -0.573250 28
-14.281129 22.945679 -0.523662 28
-13.471202 23.264877 -1.399500 12
-13.593489 23.485178 -0.161027 21
-13.311268 23.069145 -0.976628 23
-13.443189 23.306826 -0.572994 30
-14.177764 22.958002 -0.522810 23
-13.405842 23.339460 -1.401163 13
-13.523436 23.553265 -0.161170 22
-13.231051 23.115246 -0.976628 25
-13.366158 23.360302 -0.573165 34
-14.101718 23.014172 -0.522965 17
-13.393502 23.507591 -1.408442 1
-13.449056 23.614231 -0.161265 23
-13.146336 23.154337 -0.976335 23
-13.282561 23.403337 -0.573080 31
-14.017142 23.056421 -0.522810 19
-13.352773 23.636654 -0.161099 23
-13.094854 23.252331 -0.978534 6
-13.196863 23.442591 -0.572909 28
-13.808692 22.884474 -0.928687 7
-13.930408 23.094917 -0.522578 19
-13.116710 23.492113 -0.572994 27
-13.728726 22.932535 -0.928687 25
-13.851761 23.146835 -0.522655 21
-13.962811 23.412294 -0.109428 33
-13.042377 23.551750 -0.573335 24
-13.620013 22.932198 -0.926743 18
-13.768837 23.191607 -0.522578 20
-13.860633 23.426466 -0.109268 27
-12.956235 23.590122 -0.573165 25
-13.726631 23.262072 -1.354093 10
-13.533855 22.969233 -0.926326 17
-13.685808 23.236059 -0.522500 20
-13.784675 23.485157 -0.109316 31
-12.865913 23.621290 -0.572824 25
-13.612720 23.254879 -1.350889 11
-13.461664 23.030140 -0.926882 21
-13.598563 23.273331 -0.522268 23
-13.690536 23.512392 -0.109220 33
-13.521431 23.284981 -1.349887 24
-13.393224 23.097740 -0.927715 23
-13.517241 23.320658 -0.522268 25
-13.598376 23.542719 -0.109139 32
-14.231862 22.972687 -0.471704 21
-13.416140 23.290497 -1.347484 14
-13.312455 23.144384 -0.927715 22
-13.435716 23.367722 -0.522268 26
-13.514300 23.586472 -0.109123 26
-14.130929 22.987978 -0.471006 21
-13.374738 23.406364 -1.351490 4
-13.229604 23.187241 -0.927576 23
-13.354066 23.414478 -0.522268 24
-13.431886 23.633501 -0.109123 35
-14.038105 23.016678 -0.470587 21
-13.150670 23.227505 -0.927437 21
-13.274377 23.455153 -0.522190 26
-13.869045 22.901402 -0.878815 19
-13.959630 23.059683 -0.470517 23
-13.061571 23.259388 -0.926882 13
-13.194311 23.504871 -0.522268 27
-13.768899 22.915125 -0.877503 21
-13.877506 23.104532 -0.470447 23
-13.106129 23.549578 -0.522190 27
-13.662307 22.927658 -0.876059 17
-13.805011 23.175858 -0.470866 24
-13.029897 23.596411 -0.522268 24
-13.893270 23.421265 -0.057035 11
-13.588236 22.976278 -0.876191 17
-13.728081 23.221508 -0.470866 28
-12.951400 23.648706 -0.522423 23
-13.681600 23.240559 -1.300116 5
-13.797007 23.445618 -0.056976 14
-13.511263 23.030899 -0.876453 20
-13.646132 23.269760 -0.470866 30
-13.455321 23.039766 -1.286248 56
-13.700966 23.469454 -0.056917 15
-13.436820 23.088287 -0.876847 26
-13.566833 23.320709 -0.470936 28
-13.505393 23.293577 -1.712886 11
-13.487029 23.270926 -1.296649 8
-13.627073 23.521681 -0.056934 15
-13.364182 23.139643 -0.877109 29
-13.487425 23.362108 -0.470866 27
-14.223363 22.997770 -0.420069 1
-13.426049 23.344006 -1.713140 18
-13.409799 23.324732 -1.297035 7
-13.562965 23.600235 -0.057009 18
-13.287778 23.192816 -0.877372 28
-13.406316 23.408747 -0.470866 27
-14.140906 23.043871 -0.420007 23
-13.470598 23.630060 -0.056968 19
-13.208714 23.242533 -0.877503 30
-13.326497 23.458878 -0.470936 24
-13.926106 22.863985 -0.827289 4
-14.054143 23.082842 -0.419821 17
-13.123575 23.281534 -0.877241 28
-13.244530 23.505253 -0.470936 27
-13.852441 22.922707 -0.827659 22
-13.956923 23.104382 -0.419324 14
-13.039799 23.323980 -0.877109 28
-13.157973 23.544653 -0.470796 30
-13.741503 22.919487 -0.825806 13
-13.884413 23.166683 -0.419572 15
-13.071829 23.583443 -0.470656 28
-13.665503 22.974186 -0.826053 15
-13.801417 23.211569 -0.419510 16
-12.983648 23.618414 -0.470447 29
-13.601480 23.049294 -0.827041 17
-13.722342 23.263048 -0.419572 15
-13.719190 23.320414 -1.669071 7
-13.475484 22.914972 -1.230399 92
-13.844841 23.552128 -0.004768 60
-13.508821 23.075930 -0.826300 18
-13.634995 23.300451 -0.419386 17
-13.625628 23.347471 -1.667593 7
-13.363198 22.906651 -1.227440 20
-13.750454 23.579580 -0.004764 38
-13.430196 23.126400 -0.826424 19
-13.555587 23.351362 -0.419448 15
-13.482038 23.287783 -1.659958 12
-13.301170 22.984282 -1.229104 7
-13.666059 23.623972 -0.004763 44
-13.345397 23.166210 -0.826177 20
-13.470000 23.391607 -0.419324 14
-13.404643 23.341625 -1.660451 7
-13.407853 23.356312 -1.246488 7
-13.583513 23.671532 -0.004763 34
-14.170139 23.045578 -0.368317 0
-13.270401 23.223068 -0.826547 21
-13.390250 23.441956 -0.419386 13
-13.989084 22.897623 -0.777628 12
-14.099891 23.102682 -0.368481 23
-13.189374 23.259991 -0.826300 20
-13.306523 23.475792 -0.419199 14
-13.892344 22.909698 -0.776469 26
-14.016919 23.148441 -0.368426 13
-13.110020 23.309397 -0.826424 19
-13.224522 23.522083 -0.419199 17
-13.809093 22.950644 -0.776238 27
-13.927792 23.183514 -0.368208 16
-13.024679 23.348034 -0.826177 19
-13.140386 23.564610 -0.419137 17
-13.728896 22.998707 -0.776238 28
-13.844733 23.228554 -0.368154 16
-12.954714 23.414347 -0.826918 4
-13.059985 23.613834 -0.419199 16
-13.565221 22.897173 -1.180601 1
-13.644457 23.039608 -0.776006 30
-13.763738 23.276638 -0.368154 16
-12.979377 23.662800 -0.419261 6
-13.751662 23.318850 -1.617839 6
-13.466130 22.913885 -1.179005 30
-13.565045 23.091089 -0.776122 27
-13.682404 23.324541 -0.368154 15
-13.827429 23.580856 0.047710 12
-13.641953 23.318460 -1.614498 9
-13.376000 22.943489 -1.178119 24
-13.484360 23.138300 -0.776122 27
-13.598890 23.368704 -0.368100 14
-13.732965 23.608234 0.047668 21
-13.536424 23.324497 -1.611635 10
-13.293831 22.986582 -1.177942 22
-13.401508 23.181767 -0.776006 27
-13.511175 23.405674 -0.367936 17
-13.658431 23.669909 0.047696 23
-13.431120 23.330021 -1.608771 9
-13.442503 23.431276 -1.198327 10
-13.320844 23.228212 -0.776006 27
-13.427404 23.449223 -0.367882 17
-14.063114 22.886784 -0.726869 17
-13.422864 23.505054 -1.617600 8
-13.249566 23.291946 -0.776585 22
-13.339543 23.485518 -0.367718 20
-13.981057 22.932320 -0.726761 26
-14.085681 23.182350 -0.317220 28
-13.158357 23.320642 -0.776006 27
-13.255649 23.519197 -0.367555 19
-13.898767 22.968267 -0.726436 25
-13.996544 23.208256 -0.316939 28
-13.075357 23.353535 -0.775658 31
-13.183228 23.582781 -0.367827 17
-13.818508 23.016644 -0.726436 29
-13.915446 23.256971 -0.316939 28
-12.997641 23.406025 -0.775890 29
-13.100829 23.628656 -0.367827 14
-13.703903 22.998650 -1.136118 3
-13.729897 23.050997 -0.726003 30
-13.828054 23.295086 -0.316799 29
-12.915859 23.451252 -0.775890 17
-13.529934 22.888126 -1.128317 25
-13.645183 23.091957 -0.725787 29
-13.728105 23.303835 -1.564245 8
-13.748207 23.346941 -0.316845 27
-13.435805 22.911083 -1.127129 16
-13.560450 23.132547 -0.725570 33
-13.598318 23.268867 -1.558702 8
-13.660575 23.384428 -0.316705 26
-13.792625 23.619596 0.100250 2
-13.343691 22.937119 -1.126112 16
-13.485649 23.190111 -0.725895 35
-13.478958 23.250553 -1.554314 11
-13.568837 23.414667 -0.316471 25
-13.734154 23.709131 0.100426 39
-13.279525 23.011248 -1.127469 19
-13.400622 23.230116 -0.725679 28
-14.147710 22.873793 -0.676100 3
-13.409661 23.318232 -1.555700 8
-13.498982 23.482693 -0.316752 27
-13.203091 23.064398 -1.127808 10
-13.315481 23.269810 -0.725462 30
-14.086603 22.953712 -0.677005 46
-13.405351 23.500175 -1.564707 3
-13.410986 23.519247 -0.316612 26
-13.244845 23.325809 -1.138323 5
-13.234173 23.316149 -0.725462 29
-13.971040 22.944681 -0.675296 25
-13.324869 23.558954 -0.316518 29
-14.093079 23.239342 -0.265649 17
-13.152956 23.352882 -0.725246 26
-13.895223 22.990675 -0.675296 26
-13.243239 23.595764 -0.316424 29
-13.987127 23.247267 -0.265180 31
-13.073310 23.402143 -0.725354 27
-13.801475 23.007992 -1.086984 9
-13.816942 23.042469 -0.675396 26
-13.162740 23.645342 -0.316471 20
-13.907944 23.299383 -0.265219 30
-12.997355 23.458128 -0.725679 26
-13.631144 22.904907 -1.079860 78
-13.730291 23.080248 -0.675095 30
-13.828609 23.351206 -0.265258 26
-12.915234 23.503441 -0.725679 29
-13.530312 22.918215 -1.078241 49
-13.661290 23.149019 -0.675698 30
-13.679598 23.275564 -1.509413 12
-13.742961 23.392437 -0.265180 27
-12.815892 23.516781 -0.724705 2
-13.442150 22.951509 -1.077593 41
-13.570300 23.179312 -0.675195 32
-13.562059 23.261070 -1.505394 11
-13.653166 23.426443 -0.265023 30
-13.361953 22.998291 -1.077593 52
-13.481274 23.212708 -0.674793 32
-13.446750 23.249519 -1.501598 11
-13.565289 23.463579 -0.264906 37
-13.691872 23.691725 0.152829 0
-14.197528 22.905560 -0.625670 21
-13.275778 23.034306 -1.077107 46
-13.400363 23.259510 -0.674793 28
-13.399398 23.345940 -1.504948 10
-13.489396 23.511904 -0.264945 42
-14.100537 22.918455 -0.624742 15
-13.199321 23.078203 -1.077107 50
-13.321173 23.300348 -0.674693 30
-13.407243 23.558847 -0.264945 41
-14.003782 22.940229 -0.623999 12
-13.217289 23.297951 -1.085203 12
-13.253566 23.371056 -0.675396 27
-13.322932 23.602036 -0.264906 38
-13.936233 23.009386 -0.624556 13
-13.110713 23.298491 -1.083098 7
-13.170298 23.413492 -0.675296 29
-14.045630 23.268587 -0.213469 2
-13.240464 23.648397 -0.264906 31
-13.750124 22.873360 -1.029920 10
-13.855829 23.057892 -0.624556 12
-13.080696 23.445354 -0.674894 33
-13.978707 23.341494 -0.213689 31
-13.649724 22.886890 -1.028377 25
-13.775258 23.106117 -0.624556 13
-13.002649 23.497869 -0.675095 31
-13.866499 23.338566 -0.213218 25
-13.563582 22.924112 -1.027914 29
-13.700545 23.164434 -0.624835 12
-12.912695 23.529177 -0.674693 32
-13.738556 23.299780 -1.460166 14
-13.774544 23.369743 -0.213061 18
-13.475387 22.957531 -1.027297 25
-13.601390 23.181076 -0.623999 13
-12.840042 23.591669 -0.675195 24
-13.588573 23.230373 -1.452835 11
-13.700961 23.431496 -0.213186 18
-13.403213 23.018246 -1.027914 27
-13.526425 23.238781 -0.624278 14
-13.489359 23.246572 -1.450894 19
-13.627113 23.493017 -0.213312 22
-13.330701 23.078781 -1.028531 26
-13.439122 23.275524 -0.623999 12
-13.393893 23.269453 -1.449385 18
-13.538723 23.530224 -0.213218 24
-13.244099 23.114769 -1.028069 29
-13.365744 23.336174 -0.624370 14
-13.387843 23.447872 -1.457579 5
-13.466418 23.594709 -0.213375 28
-13.165307 23.164333 -1.028223 33
-13.276302 23.368780 -0.623999 15
-13.374123 23.624166 -0.213218 31
-13.121940 23.266970 -1.030845 9
-13.206776 23.426508 -0.624370 14
-13.296279 23.668068 -0.213218 25
-13.119066 23.461994 -0.624092 14
-13.037089 23.507645 -0.624092 15
-12.958621 23.560120 -0.624278 13
-12.864813 23.584146 -0.623720 13