# This PCD file was generated using the MATLAB® pcwrite function
# from Computer Vision Toolbox®.
# .PCD v.7 - Point Cloud Data file format
VERSION .7
FIELDS x y z intensity
SIZE 4 4 4 1
TYPE F F F U
COUNT 1 1 1 1
WIDTH 430
HEIGHT 1
VIEWPOINT 0 0 0 1 0 0 0
POINTS 430
DATA ascii
-2.554510 26.613211 -0.158654 5
-2.461229 26.617983 -0.158630 3
-2.365819 26.598522 -0.158464 5
-2.187646 26.010246 -0.555876 0
-2.098768 26.041641 -0.556387 21
-2.008160 26.052795 -0.556472 35
-1.974876 26.368977 0.249225 5
-1.914982 26.039761 -0.556046 25
-1.886806 26.431564 0.249753 11
-1.817006 25.882862 -0.951417 28
-1.824913 26.058254 -0.556302 22
-1.729040 25.924944 -0.952736 36
-1.735003 26.080427 -0.556643 24
-1.704033 26.472033 0.250017 6
-1.635762 25.886938 -0.951124 31
-1.644207 26.090315 -0.556728 26
-1.604008 26.135290 -1.766714 21
-1.585951 25.912359 -1.351464 55
-3.312386 26.610577 -0.056163 17
-2.440685 26.608080 -0.107261 3
-1.546581 25.912441 -0.951857 27
-1.554312 26.115856 -0.557154 30
-1.516638 26.128513 -1.765906 17
-1.491704 25.773911 -1.343977 29
-1.519084 26.323740 -0.156470 13
-2.348914 26.576183 -0.107100 14
-1.461993 25.941374 -0.952736 31
-1.467476 26.116873 -0.557068 32
-1.421465 26.061920 -1.761059 9
-1.401755 25.778959 -1.343977 23
-1.428155 26.344854 -0.156565 17
-1.421816 26.308437 0.248320 5
-3.126756 26.630711 0.355690 5
-1.372747 25.958258 -0.953176 28
-1.377694 26.133778 -0.557324 33
-1.329059 26.038824 -1.759174 9
-1.312979 25.807631 -1.345225 29
-1.336793 26.361662 -0.156636 17
-1.330580 26.325224 0.248433 11
-1.281930 25.958899 -0.953030 30
-1.286855 26.146416 -0.557494 32
-2.072605 26.116972 -0.507622 14
-1.241001 26.103100 -1.763213 3
-1.224208 25.839989 -1.346681 8
-1.244577 26.362173 -0.156612 20
-1.192225 25.983181 -0.953762 29
-1.195944 26.158739 -0.557665 32
-1.978219 26.080173 -0.506770 26
-1.151224 26.338388 -0.156446 23
-1.958542 26.409773 0.300445 8
-1.101175 25.995201 -0.954056 27
-1.104202 26.170776 -0.557835 35
-1.880365 25.932226 -0.903407 21
-1.888036 26.098886 -0.507002 26
-1.060565 26.374220 -0.156636 8
-1.868034 26.440388 0.300717 14
-1.010583 26.002880 -0.954202 26
-1.014079 26.206440 -0.558516 30
-1.787907 25.910715 -0.902435 26
-1.798296 26.125267 -0.507390 23
-2.650068 26.569818 0.354205 4
-0.920234 26.018234 -0.954642 28
-0.922595 26.209820 -0.558516 35
-1.719537 26.002480 -1.306427 3
-1.696928 25.908819 -0.902157 26
-1.707090 26.131384 -0.507390 24
-1.673749 26.301102 0.298993 2
-0.829790 26.033274 -0.955082 28
-0.831988 26.240862 -0.559112 33
-1.642192 26.152267 -1.717486 7
-1.623767 25.928579 -1.302421 85
-1.608211 25.942514 -0.903130 26
-1.617345 26.161135 -0.507855 26
-1.580730 26.286819 0.298766 2
-0.738798 26.032017 -0.954935 28
-0.740272 26.239609 -0.559027 6
-1.548768 26.121979 -1.715132 37
-1.525233 25.798496 -1.295612 45
-1.523110 25.963669 -0.903685 24
-1.530349 26.162361 -0.507777 27
-2.376373 26.545788 -0.055820 3
-1.496047 26.335844 0.299265 13
-0.652970 26.054304 -0.955668 15
-1.462582 26.134943 -1.715655 23
-1.438784 25.787458 -1.294810 39
-1.432347 25.968834 -0.903685 28
-1.439159 26.171541 -0.507855 29
-2.286257 26.581804 -0.055878 1
-1.410891 26.378082 -0.106040 42
-1.406635 26.380825 0.299719 15
-1.368000 26.064123 -1.710684 18
-1.350680 25.816225 -1.296012 43
-1.341897 25.977667 -0.903824 28
-1.348206 26.184393 -0.508010 28
-1.317009 26.346891 -0.105896 41
-1.308172 26.257742 0.298267 7
-1.277401 26.076712 -1.711208 17
-1.261141 25.832752 -1.296613 46
-1.252363 26.006151 -0.904657 26
-1.256989 26.192934 -0.508087 29
-1.226333 26.379297 -0.106008 38
-2.920949 26.584932 0.406136 4
-2.017848 26.045973 -0.455996 2
-1.171141 25.840988 -1.296813 33
-1.162127 26.018343 -0.904935 27
-1.166916 26.225124 -0.508630 29
-1.133353 26.375448 -0.105976 33
-1.921696 25.934896 -0.853620 22
-1.930136 26.108765 -0.456974 25
-1.076666 26.042025 -0.905630 27
-1.079943 26.228849 -0.508630 24
-1.897108 26.365511 0.350650 12
-1.834836 25.929163 -0.853226 26
-1.841575 26.087095 -0.456485 27
-0.985302 26.033640 -0.905213 26
-0.988532 26.236456 -0.508707 25
-2.649487 26.600376 -0.004666 20
-2.641118 26.561939 0.405346 7
-1.743242 25.919453 -0.852701 21
-1.750235 26.089375 -0.456415 22
-0.899752 26.068737 -0.906324 24
-0.901737 26.251587 -0.508940 29
-1.701740 25.994102 -1.255816 7
-1.709298 26.242077 0.348846 7
-2.561270 26.596960 -0.004664 12
-1.660692 25.956923 -0.853751 20
-1.666228 26.110905 -0.456695 25
-0.808998 26.079710 -0.906602 24
-0.810220 26.258572 -0.509017 17
-1.625025 26.156593 -1.667175 5
-1.598886 25.804487 -1.246378 31
-1.619408 26.275827 0.349218 11
-1.570075 25.962561 -0.853751 23
-1.577722 26.160475 -0.457462 26
-0.718287 26.094362 -0.907019 27
-1.529740 26.094360 -1.662858 7
-1.507869 25.793957 -1.245608 23
-1.545171 26.506943 -0.055610 1
-1.528374 26.293299 0.349377 10
-1.479667 25.971874 -0.853882 28
-1.486622 26.169817 -0.457532 29
-0.627925 26.116688 -0.907713 26
-1.435658 26.047731 -1.659557 7
-1.416723 25.783117 -1.244837 24
-1.439003 26.350416 0.350066 4
-1.389208 26.000891 -0.854670 31
-1.393877 26.170916 -0.457462 30
-0.536839 26.122717 -0.907852 12
-1.345343 26.064545 -1.660319 8
-1.328357 25.819826 -1.246378 28
-1.353407 26.393265 -0.055351 18
-1.350893 26.431171 0.351075 5
-1.299635 26.029539 -0.855457 32
-1.303310 26.191599 -0.457742 28
-1.255312 26.089018 -1.661589 3
-1.239560 25.852242 -1.247727 26
-1.258405 26.337896 -0.055225 15
-1.209509 26.049892 -0.855982 37
-1.212985 26.219959 -0.458161 29
-1.992718 25.927120 -0.803567 1
-1.150021 25.872377 -1.248497 28
-1.167523 26.366106 -0.055275 15
-1.989711 26.530426 0.404010 1
-1.118914 26.061943 -0.856245 30
-1.122137 26.240017 -0.458440 31
-1.903081 25.945881 -0.803938 35
-1.913988 26.154898 -0.407394 13
-1.894238 26.497316 0.403403 8
-1.028721 26.085663 -0.856901 36
-1.031006 26.255762 -0.458649 28
-1.812223 25.948378 -0.803814 26
-1.821011 26.137480 -0.407022 22
-1.772701 25.947674 -1.203768 1
-0.937803 26.093090 -0.857032 40
-0.939779 26.271193 -0.458859 27
-2.615036 26.543455 0.046551 5
-1.722413 25.966515 -0.804185 22
-1.729245 26.135695 -0.406897 18
-1.673547 25.818119 -1.197480 12
-1.695844 26.298340 0.400184 8
-0.847144 26.100191 -0.857163 37
-0.848655 26.282297 -0.458998 21
-2.522366 26.552422 0.046551 8
-1.631010 25.960398 -0.803814 20
-1.639004 26.157539 -0.407146 17
-1.604548 26.097017 -1.612918 7
-1.583170 25.819815 -1.197295 21
-1.614234 26.398691 -0.004616 14
-1.601600 26.264179 0.399576 6
-0.756379 26.114979 -0.857557 41
-1.541565 25.985889 -0.804432 20
-1.548160 26.171085 -0.407270 18
-1.510438 26.050646 -1.609716 7
-1.493263 25.829174 -1.197480 26
-1.523457 26.428125 -0.004620 27
-0.665318 26.121456 -0.857688 42
-1.451772 26.007076 -0.804926 23
-1.457888 26.196299 -0.407581 19
-1.416934 26.015915 -1.607253 5
-1.402005 25.822283 -1.196925 24
-1.435666 26.525175 -0.004636 5
-0.573970 26.143618 -0.858344 44
-1.367845 26.058640 -2.012445 18
-1.361400 26.019972 -0.805173 21
-1.367062 26.213209 -0.407767 19
-1.327332 26.044626 -1.608731 8
-1.311455 25.819038 -1.196555 27
-1.346707 26.601933 -0.004649 42
-1.277461 26.075205 -2.013367 15
-1.271150 26.036545 -0.805544 24
-1.275746 26.221817 -0.407829 17
-1.240008 26.124872 -1.613410 4
-1.222643 25.851398 -1.197850 29
-1.246686 26.454641 -0.004622 50
-2.032787 25.993689 -0.755612 3
-1.181689 26.072777 -0.806532 21
-1.184578 26.234100 -0.407954 16
-1.134192 25.891426 -1.199514 26
-1.157029 26.514767 -0.004632 20
-1.939442 25.960726 -0.754453 29
-1.095054 26.072557 -0.806409 24
-1.098579 26.261862 -0.408326 20
-1.048811 25.907022 -1.200069 26
-1.853912 25.974991 -0.754685 25
-1.848851 26.136261 -0.356719 2
-1.004345 26.084211 -0.806656 23
-1.007208 26.273529 -0.408451 20
-0.959554 25.942469 -1.201548 7
-1.762538 25.906576 -1.151883 3
-1.762960 25.977316 -0.754569 24
-1.760166 26.182470 -0.357263 27
-1.773901 26.452547 0.046272 1
-0.913818 26.103540 -0.807150 26
-0.915647 26.280882 -0.408513 19
-2.573662 26.611658 0.097992 6
-1.668344 25.844738 -1.148870 33
-1.673201 25.987257 -0.754685 23
-1.669270 26.196438 -0.357372 22
-1.682060 26.466562 0.046286 3
-0.822820 26.110569 -0.807273 23
-1.646877 26.258139 -1.978239 6
-1.635984 26.154131 -1.566058 7
-1.580311 25.886303 -1.150465 32
-1.583936 26.016886 -0.755380 29
-1.577096 26.190126 -0.357209 24
-1.585109 26.396410 0.046153 5
-0.732120 26.129267 -0.807768 26
-1.553559 26.235855 -1.976139 15
-1.541149 26.099892 -1.562479 7
-1.489711 25.887671 -1.150288 36
-1.493798 26.034231 -0.755728 30
-1.486016 26.199459 -0.357263 22
-1.494391 26.425739 0.046195 2
-0.641035 26.135660 -0.807891 25
-1.448943 26.089178 -1.561525 12
-1.397205 25.864817 -1.149047 32
-1.403958 26.071264 -0.756655 31
-1.395192 26.216469 -0.357427 23
-1.406589 26.514677 0.046342 6
-0.549969 26.145733 -0.808138 15
-1.357725 26.007071 -1.958144 17
-1.358073 26.098064 -1.561763 10
-1.308927 25.909445 -1.150820 31
-1.311939 26.056040 -0.756076 32
-1.309443 26.244919 -0.357754 21
-2.104347 25.989401 -0.705554 1
-1.274007 26.063221 -1.962043 10
-1.272493 26.122364 -1.562956 9
-1.224132 25.937593 -1.151883 34
-1.227029 26.092197 -0.757003 31
-1.218070 26.257326 -0.357862 22
-1.230433 26.619537 0.046510 9
-2.012182 25.976646 -0.705013 21
-1.135083 25.961641 -1.152770 31
-1.136967 26.104280 -0.757234 32
-1.126921 26.273407 -0.358026 19
-1.923263 26.007439 -0.705662 26
-1.044453 25.965446 -1.152770 34
-1.045839 26.108091 -0.757234 30
-1.035046 26.273184 -0.357971 19
-1.831345 25.998039 -0.705229 22
-0.953957 25.972927 -1.152947 32
-0.955575 26.135557 -0.757930 29
-0.945032 26.320599 -0.358570 18
-1.734819 25.854540 -1.099655 13
-1.739404 25.988321 -0.704797 22
-1.714920 26.218178 -0.307257 27
-1.725718 26.451588 0.097157 10
-0.863926 26.146748 -0.758161 31
-1.646081 25.884369 -1.100672 29
-1.650196 26.018179 -0.705446 27
-1.631432 26.210897 -1.923925 10
-1.620745 26.110031 -1.512974 6
-1.624627 26.243963 -0.307491 30
-1.633375 26.457451 0.097157 2
-0.773006 26.161594 -0.758509 31
-1.552122 25.830118 -1.098129 18
-1.561040 26.051720 -0.706203 31
-1.541099 26.236345 -1.925386 20
-1.525158 26.039785 -1.508585 9
-1.533708 26.261454 -0.307631 35
-1.536593 26.387121 0.096878 6
-0.681472 26.156139 -0.758277 35
-1.461723 25.831388 -1.097959 24
-1.471219 26.076971 -0.706744 29
-1.421298 25.809702 -1.494959 36
-1.442248 26.270641 -0.307678 30
-0.590526 26.174347 -0.758741 19
-1.375359 25.908169 -1.101012 27
-1.381241 26.101912 -0.707285 31
-1.348417 26.063202 -1.911942 25
-1.345181 26.085691 -1.510664 8
-1.351154 26.287498 -0.307818 34
-1.285112 25.916803 -1.101181 31
-1.290120 26.106575 -0.707285 28
-2.088675 26.032093 -0.656499 26
-1.258777 26.095642 -1.913988 14
-1.255650 26.122137 -1.512512 4
-1.259768 26.300045 -0.307912 33
-1.195226 25.933105 -1.101690 31
-1.199779 26.126894 -0.707718 27
-1.995871 26.011299 -0.655795 36
-1.168257 26.304270 -0.307912 30
-1.104695 25.937120 -1.101690 31
-1.108911 26.138912 -0.707934 30
-1.906815 26.042036 -0.656398 39
-1.076921 26.320177 -0.308052 36
-1.014775 25.956791 -1.102368 32
-1.017818 26.146620 -0.708043 30
-1.809029 25.887581 -1.051361 17
-1.816455 26.056511 -0.656599 42
-0.985190 26.327772 -0.308099 31
-0.924659 25.976154 -1.103047 31
-0.926417 26.150017 -0.708043 28
-1.718266 25.893763 -1.051361 100
-1.724256 26.050753 -0.656298 39
-1.687800 26.284609 -0.257439 4
-1.696188 26.485327 0.148227 16
-0.833980 25.979223 -1.103047 23
-0.835896 26.177071 -0.708692 28
-1.625112 25.855726 -1.049580 67
-1.634312 26.072575 -0.656700 33
-2.484539 26.559219 -0.209511 7
-1.605768 26.228127 -1.874356 32
-1.592186 26.078640 -1.460737 11
-1.599413 26.270100 -0.257243 37
-0.748971 26.175701 -0.708584 26
-1.541500 25.896879 -1.051038 62
-1.548317 26.085835 -0.656901 34
-1.511482 26.189768 -1.871226 27
-1.483817 25.785007 -1.443991 44
-1.508803 26.295490 -0.257439 33
-0.657973 26.186148 -0.708800 17
-1.452303 25.914043 -1.051523 60
-1.458090 26.095039 -0.657001 32
-1.413790 26.079348 -1.862972 11
-1.393370 25.782053 -1.443544 37
-1.417650 26.312580 -0.257556 28
-1.420182 26.441475 0.147891 3
-1.361628 25.914965 -1.051361 63
-1.367411 26.107956 -0.657202 34
-1.320727 26.044277 -1.860126 26
-1.318284 26.081923 -1.460067 10
-1.326599 26.333347 -0.257713 34
-2.114734 26.043242 -0.606637 27
-1.271355 25.923552 -1.051523 73
-1.276659 26.120558 -0.657403 34
-1.232753 26.108503 -1.864395 6
-1.233951 26.321835 -0.257556 34
-2.023299 26.046494 -0.606544 12
-1.180695 25.931839 -1.051685 73
-1.185080 26.124874 -0.657403 32
-1.141889 26.321985 -0.257517 39
-1.932663 26.057384 -0.606637 12
-1.090672 25.947783 -1.052171 67
-1.094381 26.140837 -0.657705 38
-1.911834 26.378063 0.198488 10
-1.050480 26.337801 -0.257634 40
-1.835318 25.911749 -1.002463 25
-1.843103 26.083918 -0.607102 13
-1.000552 25.963413 -1.052657 60
-1.003893 26.164476 -0.658207 35
-1.742710 25.886093 -1.001229 36
-1.750970 26.074232 -0.606730 13
-0.910197 25.974735 -1.052981 58
-0.913113 26.183807 -0.658610 30
-1.732078 26.458620 0.198998 7
-1.649795 25.852129 -0.999687 31
-1.661214 26.100140 -0.607194 13
-0.820027 25.993734 -1.053628 64
-0.821458 26.178841 -0.658409 34
-1.634964 26.173906 -1.820027 10
-1.631114 26.183046 -1.416180 10
-1.562672 25.909597 -1.001692 40
-1.569617 26.097795 -0.607009 14
-0.730629 26.201534 -0.658911 29
-1.544295 26.191404 -1.820858 15
-1.518141 25.821749 -1.396343 81
-1.543577 26.329979 -0.207154 27
-1.473128 25.930857 -1.002309 36
-1.479640 26.123079 -0.607473 14
-1.447778 26.104996 -1.814488 8
-1.426674 25.802961 -1.395049 56
-1.450117 26.307251 -0.206935 28
-1.387771 25.947573 -1.002772 37
-1.392791 26.123848 -0.607380 14
-1.356633 26.021984 -1.808396 7
-1.339442 25.775640 -1.393324 45
-1.363492 26.323898 -0.207029 37
-1.357417 26.292242 0.197588 11
-1.297587 25.960243 -1.003080 38
-1.302190 26.140533 -0.607659 14
-1.268698 26.086346 -1.812550 6
-1.253327 25.859949 -1.397637 9
-1.273333 26.364454 -0.207312 32
-1.208222 25.984562 -1.003852 37
-1.211554 26.148893 -0.607751 15
-1.182634 26.368679 -0.207312 32
-1.117683 25.992615 -1.004006 36
-1.121126 26.172939 -0.608216 14
-1.090583 26.372646 -0.207312 31
-1.026788 25.992365 -1.003852 36
-1.030544 26.196672 -0.608680 14
-0.936635 26.023767 -1.004931 35
-0.938543 26.200130 -0.608680 14
-0.846179 26.038862 -1.005394 39
-0.847469 26.215237 -0.608958 14
-0.755397 26.045652 -1.005548 34
-0.756186 26.226030 -0.609144 14
-0.665190 26.076101 -1.006628 23