VERSION .7
FIELDS x y z velocity range intensity noise snr
SIZE 4 4 4 4 4 4 4 4
TYPE F F F F F F F F
COUNT 1 1 1 1 1 1 1 1
WIDTH 44
HEIGHT 1
VIEWPOINT 0 0 0 1 0 0 0
POINTS 44
DATA ascii
10.6430516516746 13.9603312109544 1.09371161051183 -0.0711587882728358 17.5886782069242 109.91217297628 102.663155595576 7.24901738070399
11.2020744633193 13.5428158509551 0.683569756569894 -0.0711587882728358 17.5886782069242 109.91217297628 102.663155595576 7.24901738070399
11.447197964102 13.8391593936366 0.838512234725736 -0.0711587882728358 17.9795377226336 113.223923562871 102.663155595576 10.5607679672951
10.4658766850353 14.5867131645122 0.978264273846692 0.0711587882728358 17.9795377226336 110.600785034572 102.436596082038 8.1641889525338
10.6976067930698 14.9096847338519 -0.8567407615676 -0.0711587882728358 18.370397238343 110.512014665246 102.700776802723 7.81123786252335
11.6914460127902 14.1344445531997 0.999530888495533 -0.0711587882728358 18.370397238343 110.512014665246 102.700776802723 7.81123786252335
-5.10259967242946 18.0487351013994 -0.437484644204733 0 18.7612567540524 126.72298867277 118.795694109663 7.92729456310684
-5.10337074307574 18.0514625052195 -0.29165642946982 0.0711587882728358 18.7612567540524 110.829916322932 102.203032606887 8.62688371604515
-5.20969096688982 18.4275346407449 -0.297732605083775 -0.0711587882728358 19.1521162697619 113.870801797088 103.548725505267 10.3220762918206
-5.20969096688982 18.4275346407449 -0.297732605083775 0 19.1521162697619 132.716105349631 118.795694109663 13.9204112399681
-5.20969096688982 18.4275346407449 -0.297732605083775 0.0711587882728358 19.1521162697619 116.178012388906 102.141913735817 14.0360986530889
-5.31649305161239 18.8053111976342 -0.151904390348865 -0.0711587882728358 19.5429757854713 111.296861937962 103.550772293064 7.74608964489775
-5.31665366221029 18.8058793037609 -0 0 19.5429757854713 127.922944127014 118.795694109663 9.12725001735089
10.9367857061741 16.1954174390454 0.151904390348865 0.0711587882728358 19.5429757854713 116.669666943135 102.141913735817 14.5277532073171
11.1555214202975 16.5193257878263 0.154942478155842 0.0711587882728358 19.9338353011807 113.873915534274 102.429063508606 11.4448520256683
-1.42486318147236 26.1487955121376 -0 -0.0711587882728358 26.1875875525315 116.148590303577 108.043573357444 8.10501694613265
-0.20333039862005 26.1583026452958 1.22131129840488 -0.0711587882728358 26.1875875525315 116.148590303577 108.043573357444 8.10501694613265
-1.44398762379038 26.4997633369507 -1.4461297961212 -0.0711587882728358 26.5784470682409 116.967345795764 108.043573357444 8.92377243832046
-0.593585942271072 25.4486420795726 -7.6438289223549 -0.0711587882728358 26.5784470682409 116.967345795764 108.043573357444 8.92377243832046
0.205532573896477 26.4416108360519 2.68566962136794 -0.0711587882728358 26.5784470682409 116.967345795764 108.043573357444 8.92377243832046
-8.16659854756054 25.6723233182074 1.2577683520886 -0.0711587882728358 26.9693065839504 117.455571925314 109.47220929037 7.98336263494417
-7.1239082546176 25.9978907996613 0.838512234725737 -0.0711587882728358 26.9693065839504 117.455571925314 109.47220929037 7.98336263494417
0.198698097949452 25.5623606528152 -8.5947504059388 -0.0711587882728358 26.9693065839504 117.455571925314 109.47220929037 7.98336263494417
0.209602726947753 26.9652329606851 0.419256117362867 0.0711587882728358 26.9693065839504 118.946344218958 111.417176906999 7.52916731195922
-8.26888687995056 25.9938744665225 2.12666146488412 -0.0711587882728358 27.3601660996598 117.475340313972 109.47220929037 8.00313102360208
-7.43971663419145 26.3155025634342 0.850664585953647 -0.0711587882728358 27.3601660996598 117.475340313972 109.47220929037 8.00313102360208
-9.18689999318621 26.5992240308348 0.218742322102365 0.142317576545672 28.1418851310786 115.525852064859 107.712629542471 7.81322252238792
-9.18689999318621 26.5992240308348 0.218742322102365 0.355793941364179 28.1418851310786 108.189238997472 101.190161151578 6.99907784589364
-26.1749953447453 13.1277693838323 -1.36713951313979 0 29.3144636782069 134.56627195457 120.177579266096 14.388692688474
-26.5239952826753 13.3028063089501 -1.38536803998165 0 29.7053231939163 131.310903360459 120.896166817222 10.4147365432375
15.8727296953073 26.0194311817118 -0.710912546832692 0 30.4870422253352 131.497023122268 123.036034212696 8.46098890957225
6.94925479197536 40.039758397162 -0.947883395776922 0 40.6493896337803 125.33870952182 117.832158549379 7.50655097244144
7.0160745495905 40.4247560740577 -0.956997659197854 0 41.0402491494897 124.658068530114 116.545866323541 8.11220220657252
14.280368096329 55.6086040188057 -2.23299453812832 0 57.4563488092856 122.937116270251 110.924335782944 12.0127804873069
14.3727278785755 55.9682585125531 -2.69782197259585 0 57.847208324995 120.209631787429 110.325328124593 9.88430366283638
27.7976636698591 51.6181493562757 -0.455713171046594 0 58.6289273564139 116.711888837955 109.158325635148 7.55356320280738
28.6382144505247 53.1789882905557 -4.70903610081483 0 60.583224934961 119.397499728645 107.442344124357 11.9551556042878
28.8045754266228 53.4879079829899 -5.21335867677306 0 60.9740844506704 119.451525535404 107.532516330643 11.9190092047612
23.2119158986773 72.9684220811718 -2.38186084067021 0 76.6084650790474 112.221544828789 103.009561195865 9.21198363292399
23.3303440410175 73.3407099489329 -2.39401319189812 0 76.9993245947569 119.671772690313 102.905351506562 16.7664211837515
22.2369088748648 69.9034133866629 24.6631968170418 0 77.3901841104663 115.166896976189 102.20795821046 12.9589387657294
23.5607858834203 74.0651213975618 3.02289736794242 0 77.7810436261757 109.485646088803 102.20795821046 7.27768787834332
41.5158187033178 78.7452832265695 -4.15610411994495 0 89.1159695817491 111.008672583454 101.978725975226 9.02994660822884
41.6979056274552 79.0906572758088 -4.17433264678682 0 89.5068290974585 113.027575273906 102.039400958204 10.9881743157022
