VERSION .7
FIELDS x y z velocity range intensity noise snr
SIZE 4 4 4 4 4 4 4 4
TYPE F F F F F F F F
COUNT 1 1 1 1 1 1 1 1
WIDTH 55
HEIGHT 1
VIEWPOINT 0 0 0 1 0 0 0
POINTS 55
DATA ascii
0.217044113024222 13.9600154553306 -1.74993857681893 0 14.0709425655393 136.52134449027 121.617282637701 14.9040618525691
0.223073116163783 14.3477936624231 -1.79854798173057 0 14.4618020812488 134.568230896206 120.622268421913 13.9459624742927
10.2965661801747 14.6434999418086 1.67702446945147 0.0711587882728358 17.9795377226336 112.625251681215 104.402953844916 8.22229783629904
10.8887980634141 14.2826730931576 0.838512234725736 0.0711587882728358 17.9795377226336 112.625251681215 104.402953844916 8.22229783629904
10.5508171334936 15.0050888205649 0.999530888495533 0.0711587882728358 18.370397238343 115.838658308554 104.319868531005 11.5187897775495
11.1292154424196 14.5980249630567 0.713950634639667 0.0711587882728358 18.370397238343 115.838658308554 104.319868531005 11.5187897775495
10.6296904070619 15.4257061199502 1.02079750314437 0.0711587882728358 18.7612567540524 113.148000542192 104.319868531005 8.82813201118758
13.8026804073021 13.1936899153007 1.48866302541888 -0.213476364818508 19.1521162697619 109.007803008901 101.151703341467 7.85609966743387
10.5538507209385 15.9478492263073 1.04206411779322 0.0711587882728358 19.1521162697619 112.731971261948 103.597112630324 9.13485863162358
11.1619367834394 15.5568401119471 0.446598907625665 0.0711587882728358 19.1521162697619 112.731971261948 103.597112630324 9.13485863162358
10.7770635080714 16.2851444912021 0.759521951744327 0.0711587882728358 19.5429757854713 112.556537272515 103.683883612196 8.8726536603191
11.3928292761649 15.8786442631503 -0 0.0711587882728358 19.5429757854713 112.556537272515 103.683883612196 8.8726536603191
-0.203551883067479 26.1867964526477 -0 -0.213476364818508 26.1875875525315 111.162528199189 102.793756220569 8.36877197861961
-0.407054571173897 26.1812588490544 0.407103766134958 -0.142317576545672 26.1875875525315 113.824035219458 104.251238967057 9.57279625240051
-0.61065564920244 26.1804667930043 -0 0.0711587882728358 26.1875875525315 116.637244244734 108.928237349663 7.70900689507077
-0.610489603665669 26.173347969708 0.61065564920244 0.142317576545672 26.1875875525315 113.186067134358 105.112179835147 8.07388729921017
-0.814109142347797 26.1717640721723 0.407103766134958 0.213476364818508 26.1875875525315 111.729957722417 104.074869674066 7.65508804835081
-0.203551883067479 26.1867964526477 -0 0.355793941364179 26.1875875525315 109.181403939827 101.679320145491 7.5020837943359
-0.406906950604755 26.1717640721723 0.814207532269919 0.426952729637015 26.1875875525315 108.996544830842 101.362320715873 7.63422411496869
0.206433892548973 26.5575648018723 1.03294985437228 -0.284635153091343 26.5784470682409 113.110047217164 101.451781947264 11.6582652698999
-2.06083848152708 26.433118631955 -1.85930973787011 -0.142317576545672 26.5784470682409 115.606169618635 104.143467577521 11.462702041114
-0.412167696305414 26.5101288878057 1.85930973787011 -0.142317576545672 26.5784470682409 115.606169618635 104.143467577521 11.462702041114
-1.03282503133676 26.5551577541853 0.413179941748912 0.0711587882728358 26.5784470682409 117.867905138086 109.304173120818 8.56373201726748
-1.23950238003306 26.5487250728375 -0.206589970874456 0.142317576545672 26.5784470682409 117.079899538416 105.112179835147 11.9677197032689
-0.206565006267351 26.574432482994 -0.413179941748912 0.355793941364179 26.5784470682409 111.211748993989 102.094412640713 9.1173363532757
0.418444765792332 26.9138624230331 1.67702446945147 -0.355793941364179 26.9693065839504 111.81498173319 101.067084739153 10.7478969940369
0.419053426742211 26.9530107608939 0.838512234725737 -0.284635153091343 26.9693065839504 113.606442693468 101.318727538429 12.287715155039
-2.08383182379348 26.728040213302 2.93479282154008 -0.142317576545672 26.9693065839504 116.029440311844 104.143467577521 11.8859727343227
-6.25665335243688 26.0915937317333 2.72516476285864 0.0711587882728358 26.9693065839504 118.773102362299 109.497139942544 9.27596241975529
-1.25639977654778 26.9106480039609 -1.2577683520886 0.0711587882728358 26.9693065839504 118.773102362299 109.497139942544 9.27596241975529
-1.46668699359774 26.9163374944314 -0.838512234725737 0.142317576545672 26.9693065839504 115.82767095466 105.149829972025 10.6778409826353
0.424869489653836 27.327092909468 1.27599687893047 -0.355793941364179 27.3601660996598 112.66633903924 101.067084739153 11.5992543000871
0.637998439465236 27.3527265001538 -0 -0.284635153091343 27.3601660996598 112.585844898938 101.125689010964 11.4601558879739
-8.71904860464432 25.9328296477835 -0.212666146488411 -0.142317576545672 27.3601660996598 115.253975934629 105.013740087635 10.2402358469938
1.0630415984228 27.3320615679139 -0.637998439465236 -0.142317576545672 27.3601660996598 115.253975934629 105.013740087635 10.2402358469938
-2.96831836716174 27.1154031149441 2.12666146488412 0.0711587882728358 27.3601660996598 118.302063335517 110.44438966956 7.85767366595663
-2.10574377333185 27.0090914294925 3.8279906367914 0.0711587882728358 27.3601660996598 118.302063335517 110.44438966956 7.85767366595663
0.850021910495773 27.326278186136 -1.06333073244206 0.0711587882728358 27.3601660996598 118.302063335517 110.44438966956 7.85767366595663
0.862582325577362 27.7300670678281 0.647112702886168 -0.142317576545672 27.7510256153692 115.981898603447 105.376675853647 10.6052227498005
-2.62101955242623 27.9776945666752 -1.53119625471656 -0.142317576545672 28.1418851310786 114.151368275437 105.376675853647 8.77469242178975
-8.9824504889051 26.7162587239561 4.43560819818687 -0.142317576545672 28.5327446467881 113.449304115781 105.376675853647 8.07262826213424
-26.1749953447453 13.1277693838323 -1.36713951313979 0 29.3144636782069 134.71775476277 120.254679597313 14.4630751654577
-26.5239952826753 13.3028063089501 -1.38536803998165 0 29.7053231939163 131.37900320844 120.254679597313 11.1243236111275
15.8693710735855 26.013925548564 -0.947883395776921 0 30.4870422253352 132.313207288396 121.838426583302 10.4747807050943
4.43308875064051 33.2546880387826 2.09020441120039 0.284635153091343 33.6139183510106 111.604125414049 103.813285014949 7.79084039910052
14.2756148523689 55.5900946036845 -2.67959344575398 0 57.4563488092856 123.211980250031 111.102227570961 12.1097526790695
14.3727278785755 55.9682585125531 -2.69782197259585 0 57.847208324995 119.931956223977 109.581393249767 10.3505629742102
28.6543698314315 51.0194771131008 -3.64570536837277 0 58.6289273564139 115.935898744533 108.2017572973 7.7341414472328
28.6382144505247 53.1789882905557 -4.70903610081483 0 60.583224934961 120.127228106975 107.027096505575 13.1001316014
28.8229771243991 53.5220785375915 -4.7394169788846 0 60.9740844506704 120.150423370159 107.839742712843 12.3106806573154
23.2119158986773 72.9684220811718 -2.38186084067021 0 76.6084650790474 112.082168084833 103.492323535503 8.58984454933006
23.3303440410175 73.3407099489329 -2.39401319189812 0 76.9993245947569 119.913167090661 103.492323535503 16.4208435551589
23.4487721833577 73.712997816694 -2.40616554312603 0 77.3901841104663 114.979915760523 103.492323535503 11.4875922250209
41.4994762467487 78.714285611411 -4.84878813993578 0 89.1159695817491 111.924449317913 102.006160423083 9.91828889483007
41.6814914934449 79.0595237061979 -4.87005475458462 0 89.5068290974585 114.096946458043 102.006160423083 12.0907860349596
