VERSION .7
FIELDS x y z velocity range intensity noise snr
SIZE 4 4 4 4 4 4 4 4
TYPE F F F F F F F F
COUNT 1 1 1 1 1 1 1 1
WIDTH 48
HEIGHT 1
VIEWPOINT 0 0 0 1 0 0 0
POINTS 48
DATA ascii
1.77593876402273 4.21038020794738 -1.0572545568281 -0.0711587882728358 4.69031418851311 111.73741386932 103.599513479957 8.13790038936259
1.77260092988201 4.20246689973644 -1.09371161051183 0 4.69031418851311 136.970204496425 125.590058784065 11.38014571236
1.77260092988201 4.20246689973644 -1.09371161051183 0.0711587882728358 4.69031418851311 111.222082525045 103.416102540059 7.80597998498585
1.92393366102462 4.56124522527633 -1.14535910323044 -0.0711587882728358 5.08117370422253 121.431567692096 103.599513479957 17.8320542121387
1.92031767403885 4.55267247471448 -1.18485424472115 0 5.08117370422253 146.806515254913 125.572594724381 21.233920530532
1.92031767403885 4.55267247471448 -1.18485424472115 0.0711587882728358 5.08117370422253 120.849977281079 103.272161728117 17.5778155529622
2.06803441819568 4.90287804969251 -1.27599687893047 -0.0711587882728358 5.47203321993196 118.931772588207 103.505869770435 15.4259028177716
2.06803441819568 4.90287804969251 -1.27599687893047 0 5.47203321993196 144.269087461053 124.385280955328 19.883806505725
2.06803441819568 4.90287804969251 -1.27599687893047 0.0711587882728358 5.47203321993196 118.457498343564 103.255344235286 15.202154108278
10.3163149869385 14.6715861645003 1.25776835208861 0.0711587882728358 17.9795377226336 111.171181591277 104.032347703428 7.13883388784969
10.5345013071312 14.9818848904189 1.42790126927933 0.0711587882728358 18.370397238343 115.086968602114 104.194518508344 10.8924500937704
11.2274156347666 15.028134604229 0.29165642946982 0.0711587882728358 18.7612567540524 116.129066256727 104.194518508344 11.9345477483834
10.8554154606555 15.7532761814763 0.893197815251328 0.0711587882728358 19.1521162697619 116.312319635424 104.194518508344 12.1178011270804
11.4457254297502 15.3203469076798 1.04206411779322 0.0711587882728358 19.1521162697619 116.312319635424 104.194518508344 12.1178011270804
10.0062878776427 16.7429181762796 1.21523512279092 0.0711587882728358 19.5429757854713 112.556107687781 104.194518508344 8.36158917943681
10.6217372413459 16.3791300913773 0.911426342093192 0.0711587882728358 19.5429757854713 112.556107687781 104.194518508344 8.36158917943681
11.0322631576786 16.0099158857196 1.97475707453525 0.0711587882728358 19.5429757854713 112.556107687781 104.194518508344 8.36158917943681
-0.601086922422012 25.7702294783188 1.00256897630251 0.355793941364179 25.7967280368221 109.039940388807 101.44116102623 7.59877936257727
-0.813592400045954 26.1551519781588 1.0177594153374 0.355793941364179 26.1875875525315 108.526744182512 101.44116102623 7.08558315628176
-1.43872801727534 26.403240121933 2.68566962136794 0.142317576545672 26.5784470682409 114.368822689488 106.558279829253 7.81054286023536
-3.55678050923483 26.6810869148372 1.67702446945147 -0.426952729637015 26.9693065839504 111.265036015486 101.613175036525 9.65186097896155
-2.7169199748409 26.7500925450879 2.09628058681434 -0.426952729637015 26.9693065839504 111.265036015486 101.613175036525 9.65186097896155
-0.419256117362867 26.9660475770396 -0 -0.142317576545672 26.9693065839504 116.417177320653 109.280420246113 7.13675707454068
0.628808180843262 26.9587151436946 0.419256117362867 -0.142317576545672 26.9693065839504 116.417177320653 109.280420246113 7.13675707454068
-8.37878740345833 25.6132938372263 1.04814029340717 -0.0711587882728358 26.9693065839504 120.474699081641 111.433192750766 9.04150633087505
-7.52377839186711 25.8135984324256 2.09628058681434 -0.0711587882728358 26.9693065839504 120.474699081641 111.433192750766 9.04150633087505
-2.92911336054633 26.7572678251917 1.67702446945147 -0.0711587882728358 26.9693065839504 120.474699081641 111.433192750766 9.04150633087505
0.209399962757962 26.9391475003793 1.2577683520886 -0.0711587882728358 26.9693065839504 120.474699081641 111.433192750766 9.04150633087505
-1.39088668564617 25.5252658616206 -8.5947504059388 0.142317576545672 26.9693065839504 114.334284242515 107.328453952484 7.00583029003065
-3.81397278662723 26.9918477861467 2.33932761137253 -0.426952729637015 27.3601660996598 109.695770552268 101.661449187385 8.03432136488325
-2.75629562665018 27.1377750457413 2.12666146488412 -0.426952729637015 27.3601660996598 109.695770552268 101.661449187385 8.03432136488325
-7.43228924009753 26.2892306477244 -1.48866302541888 -0.0711587882728358 27.3601660996598 120.645237211863 111.648726332454 8.99651087940887
0.424702242291286 27.3163357609163 1.48866302541888 -0.0711587882728358 27.3601660996598 120.645237211863 111.648726332454 8.99651087940887
-25.8345944939965 12.9570452324873 -1.1240924885816 0 28.9236041624975 127.19015115985 119.885863935199 7.30428722465153
-26.1749953447453 13.1277693838323 -1.36713951313979 0 29.3144636782069 134.780663653628 119.885863935199 14.8947997184297
-26.5239952826753 13.3028063089501 -1.38536803998165 0 29.7053231939163 131.419937834576 120.194128392866 11.2258094417098
15.8693710735855 26.013925548564 -0.947883395776921 0 30.4870422253352 132.070850347697 121.391425630889 10.6794247168078
-39.9540655858388 26.673142484429 -1.86842400129104 0 48.0757204322594 118.64167767109 111.477783497825 7.16389417326523
14.2756148523689 55.5900946036845 -2.67959344575398 0 57.4563488092856 122.759957260475 110.66639618476 12.0935610757147
14.3670701392253 55.9462269385035 -3.14745896802849 0 57.847208324995 120.183818733005 109.55043317729 10.6333855557145
28.2123632379212 51.2955907781189 -3.18999219732617 0 58.6289273564139 116.449776471072 108.150192901123 8.29958356994915
28.6382144505247 53.1789882905557 -4.70903610081483 0 60.583224934961 119.502996825833 106.653939882839 12.8490569429936
28.8045754266228 53.4879079829899 -5.21335867677306 0 60.9740844506704 119.323484554885 106.725608738472 12.5978758164131
23.2055981565346 72.948561778503 -2.97732605083776 0 76.6084650790474 112.522148051395 103.21492735049 9.30722070090551
23.3239940654965 73.3207483181893 -2.99251648987265 0 76.9993245947569 119.78154148796 103.093317806907 16.6882236810531
22.2973886148319 70.0935360466166 24.0616554312603 0 77.3901841104663 115.878815102071 102.675023804078 13.2037912979932
41.4994762467487 78.714285611411 -4.84878813993578 0 89.1159695817491 112.259314716532 102.132831969927 10.1264827466052
41.6979056274552 79.0906572758088 -4.17433264678682 0 89.5068290974585 114.437518464478 102.138798618225 12.2987198462534
