VERSION .7
FIELDS x y z velocity range intensity noise snr
SIZE 4 4 4 4 4 4 4 4
TYPE F F F F F F F F
COUNT 1 1 1 1 1 1 1 1
WIDTH 43
HEIGHT 1
VIEWPOINT 0 0 0 1 0 0 0
POINTS 43
DATA ascii
4.7159271217565 10.1979037548727 -1.49777728883981 -0.0711587882728358 11.3349259555733 114.084868564514 104.528043906461 9.55682465805283
4.72070945827683 10.2082452648873 -1.40967274243747 0 11.3349259555733 139.151662960441 124.528249139414 14.6234138210275
4.72070945827683 10.2082452648873 -1.40967274243747 0.0711587882728358 11.3349259555733 114.198518155527 104.99429554793 9.20422260759652
4.87854529836879 10.549555608489 -1.54942478155843 -0.0711587882728358 11.7257854712828 115.976539659009 104.544212990195 11.432326668814
4.883492543045 10.5602537222972 -1.45828214734911 0 11.7257854712828 141.068063146158 124.528249139414 16.5398140067445
4.883492543045 10.5602537222972 -1.45828214734911 0.0711587882728358 11.7257854712828 116.062944937778 105.273807744586 10.7891371931928
5.04116347498108 10.9012074621053 -1.60107227427704 0 12.1166449869922 130.646225912235 123.556787544782 7.0894383674527
11.3195732058901 13.9682321187636 -0.139752039120956 0.0711587882728358 17.9795377226336 112.200882736159 103.547127259912 8.65375547624662
11.8483579298496 14.0322631060552 -0.428370380783801 -0.142317576545672 18.370397238343 109.623873853029 101.536661153338 8.08721269969147
11.5660002811626 14.2723204907495 -0 0.0711587882728358 18.370397238343 111.026130675223 103.547127259912 7.47900341531035
-0.600886849653286 25.7616518151388 1.20308277156301 0.142317576545672 25.7967280368221 112.316658086766 104.380176491497 7.93648159526946
-0.813813901209514 26.162272738623 0.814207532269919 -0.0711587882728358 26.1875875525315 118.179001119303 110.349323348681 7.82967777062279
0 26.1867964526477 -0.203551883067479 -0.0711587882728358 26.1875875525315 118.179001119303 110.349323348681 7.82967777062279
-0.406796200022975 26.1646407283884 1.0177594153374 0.142317576545672 26.1875875525315 111.516431116148 104.380176491497 7.1362546246515
-3.50140411473364 26.2656824807204 2.06589970874457 -0.284635153091343 26.5784470682409 111.35340503297 101.86634635048 9.48705868248958
0 26.5495271065402 1.23953982524674 -0.213476364818508 26.5784470682409 113.200542297742 104.31948932413 8.88105297361191
-2.22188138463948 25.8913846165057 -5.57792921361033 -0.0711587882728358 26.5784470682409 120.375757826448 110.349323348681 10.0264344777672
0.206565006267351 26.574432482994 0.413179941748912 -0.0711587882728358 26.5784470682409 120.375757826448 110.349323348681 10.0264344777672
-3.30384150938787 26.3593552497605 0.826359883497828 0.142317576545672 26.5784470682409 112.486802227425 104.380176491497 8.10662573592857
0.209469685086457 26.9481172254292 1.04814029340717 -0.0711587882728358 26.9693065839504 119.857350611419 110.636051100281 9.22129951113729
-3.558398072912 26.6932210223394 1.46739641077004 0.142317576545672 26.9693065839504 114.51359445058 104.380176491497 10.1334179590831
-2.07329405031673 26.5928786181919 3.98293311494725 0.142317576545672 26.9693065839504 114.51359445058 104.380176491497 10.1334179590831
-1.25029909427608 26.7799783586283 2.93479282154008 0.142317576545672 26.9693065839504 114.51359445058 104.380176491497 10.1334179590831
-7.65019719446195 26.247333191017 -1.06333073244206 -0.0711587882728358 27.3601660996598 118.313695625219 110.636051100281 7.67764452493747
0 27.1202529086804 3.61532449030299 -0.0711587882728358 27.3601660996598 118.313695625219 110.636051100281 7.67764452493747
1.06072568902129 27.2725167876891 1.9139953183957 -0.0711587882728358 27.3601660996598 118.313695625219 110.636051100281 7.67764452493747
-25.8345944939965 12.9570452324873 -1.1240924885816 0 28.9236041624975 127.047739022269 118.91462869333 8.13311032893911
-26.1837106358073 13.1321404383317 -1.13928292761649 0 29.3144636782069 134.716961605391 119.365960631412 15.3510009739786
-26.5239952826753 13.3028063089501 -1.38536803998165 0 29.7053231939163 131.405788377441 120.84296064062 10.5628277368211
15.8727296953073 26.0194311817118 -0.710912546832692 0 30.4870422253352 132.056128581072 122.492332914938 9.56379566613376
6.94925479197536 40.039758397162 -0.947883395776922 0 40.6493896337803 125.544848141423 117.466589949042 8.07825819238101
7.0160745495905 40.4247560740577 -0.956997659197854 0 41.0402491494897 125.441124761665 117.416807445582 8.02431731608258
14.280368096329 55.6086040188057 -2.23299453812832 0 57.4563488092856 122.664072718024 111.48832318233 11.1757495356942
14.3727278785755 55.9682585125531 -2.69782197259585 0 57.847208324995 119.634441118728 110.463841639667 9.17059947906056
28.2405570195839 51.3468525839612 -1.82285268418639 0 58.6289273564139 119.517326282468 108.693353113132 10.8239731693361
28.4288273997144 51.6891649345209 -1.8350050354143 0 59.0197868721233 116.008572835508 108.563199860542 7.44537297496632
28.6547468277037 53.2096876588397 -4.23813249073335 0 60.583224934961 120.303780129599 106.757225159483 13.5465549701161
28.8229771243991 53.5220785375915 -4.7394169788846 0 60.9740844506704 120.552762170349 107.42017197992 13.1325901904299
23.216828509554 72.9838652468949 -1.78639563050266 0 76.6084650790474 112.409471846987 102.538741044134 9.87073080285292
23.3303440410175 73.3407099489329 -2.39401319189812 0 76.9993245947569 119.74311455252 102.538741044134 17.2043735083866
23.4345871364781 73.6684060435517 -3.60924831468904 0 77.3901841104663 114.904742344353 102.535561683734 12.3691806606187
42.1719550915925 78.310116361481 -5.54147215992661 0 89.1159695817491 112.380162515344 101.880385745527 10.4997767698172
41.6979056274552 79.0906572758088 -4.17433264678682 0 89.5068290974585 114.546609399139 101.896211843613 12.6503975555263
