VERSION .7
FIELDS x y z velocity range intensity noise snr
SIZE 4 4 4 4 4 4 4 4
TYPE F F F F F F F F
COUNT 1 1 1 1 1 1 1 1
WIDTH 45
HEIGHT 1
VIEWPOINT 0 0 0 1 0 0 0
POINTS 45
DATA ascii
-2.42432083153525 7.84159933277544 0.0637998439465232 0 8.20804982989794 130.134570633837 121.489492467968 8.64507816586864
-2.53976468065597 8.21500882481237 0.0668379317535005 -0.0711587882728358 8.59890934560736 121.341090726132 104.475482490312 16.8656082358209
-2.53984140663303 8.21525699921348 -0 0 8.59890934560736 142.765596261432 121.489492467968 21.2761037934634
-2.53976468065597 8.21500882481237 0.0668379317535005 0.0711587882728358 8.59890934560736 122.553703495939 103.701766134393 18.8519373615458
-2.65528874329817 8.588677771905 -0 -0.0711587882728358 8.98976886131679 121.629379842947 104.475482490312 17.1538973526351
-2.65528874329817 8.588677771905 -0 0 8.98976886131679 142.928675479514 121.489492467968 21.4391830115453
-2.6552085297767 8.58841831684929 0.0698760195604778 0.0711587882728358 8.98976886131679 122.781451734002 103.451648521629 19.3298032123724
-2.7707360799633 8.96209854459652 -0 0 9.38062837702622 130.672313101892 121.489492467968 9.18282063392367
-2.7707360799633 8.96209854459652 -0 0.0711587882728358 9.38062837702622 110.568714360886 103.069022193457 7.4996921674288
-2.84964027566424 26.0312861524688 0.203551883067479 -0.0711587882728358 26.1875875525315 117.874635046886 109.20938245648 8.66525259040623
-0.813001435243323 26.1361537989407 1.42486318147236 -0.0711587882728358 26.1875875525315 117.874635046886 109.20938245648 8.66525259040623
-0.619601388795007 26.5639949543305 -0.619769912623372 -0.142317576545672 26.5784470682409 113.453634740376 105.422436809868 8.03119793050791
0.206565006267351 26.574432482994 -0.413179941748912 -0.142317576545672 26.5784470682409 113.453634740376 105.422436809868 8.03119793050791
-2.89147314771003 26.4134268289967 0.619769912623372 -0.0711587882728358 26.5784470682409 120.801424763863 109.20938245648 11.5920423073836
-0.825135785023074 26.526245646686 1.4461297961212 -0.0711587882728358 26.5784470682409 120.801424763863 109.20938245648 11.5920423073836
-0.206533796265001 26.5704173396974 0.619769912623372 0.142317576545672 26.5784470682409 114.675005356615 106.305707251377 8.36929810523732
0.206433892548973 26.5575648018723 1.03294985437228 0.213476364818508 26.5784470682409 117.194308801829 104.103477448346 13.0908313534824
0.413067592530002 26.5680091271193 0.619769912623372 0.284635153091343 26.5784470682409 113.031304901535 102.098700867654 10.9326040338815
0.209621726035002 26.9676771789507 0.209628058681433 -0.142317576545672 26.9693065839504 115.431406587533 105.769350382121 9.66205620541199
-0.838106853484425 26.943236103955 0.838512234725737 -0.0711587882728358 26.9693065839504 120.399130572195 109.452793718892 10.946336853303
0.209526713371105 26.9554538712986 0.838512234725737 -0.0711587882728358 26.9693065839504 120.399130572195 109.452793718892 10.946336853303
-0.418228985956964 26.8999837243911 1.88665252813291 0.0711587882728358 26.9693065839504 117.896324541073 110.356957060893 7.53936748017989
0.627667148688501 26.9097959951098 1.67702446945147 0.0711587882728358 26.9693065839504 117.896324541073 110.356957060893 7.53936748017989
0.838410907791015 26.9530107608939 0.419256117362867 0.142317576545672 26.9693065839504 116.16031236102 106.656506823345 9.50380553767459
0.209571057974781 26.9611587711636 0.628884176044304 0.213476364818508 26.9693065839504 115.714272825392 104.103477448346 11.6107953770462
0.637304234480758 27.3229640463594 1.27599687893047 0.0711587882728358 27.3601660996598 120.265388068309 110.823139235697 9.44224883261255
-8.81711710898758 26.2245121388746 2.15704234295389 -0.213476364818508 27.7510256153692 116.352265389277 106.11882132214 10.2334440671365
0.431199902879666 27.7342574496154 0.862816937181556 0.0711587882728358 27.7510256153692 119.51265274763 111.251204182585 8.26144856504495
-6.25372186043586 27.0294585729524 -0.647112702886168 0.355793941364179 27.7510256153692 110.096544847013 102.546052684363 7.55049216264949
-6.33873481826847 27.3968964400628 -1.09371161051183 0.355793941364179 28.1418851310786 109.616446032063 102.546052684363 7.07039334769968
-6.79980353024166 27.3883888609693 4.21382778827753 -0.284635153091343 28.5327446467881 110.391768820086 102.926315724799 7.46545309528721
-25.8259954068154 12.9527324587145 -1.34891098629792 0 28.9236041624975 126.894026862605 118.98843229565 7.90559456695496
-26.1837106358073 13.1321404383317 -1.13928292761649 0 29.3144636782069 134.497734229348 118.98843229565 15.509301933698
-26.532826777618 13.3072356441762 -1.15447336665138 0 29.7053231939163 131.223422625075 120.361942092488 10.8614805325871
6.94925479197536 40.039758397162 -0.947883395776922 0 40.6493896337803 126.549076382172 116.081456733371 10.4676196488002
7.0160745495905 40.4247560740577 -0.956997659197854 0 41.0402491494897 125.878146036617 115.922842074359 9.95530396225824
14.280368096329 55.6086040188057 -2.23299453812832 0 57.4563488092856 122.489755207711 110.099234830426 12.3905203772854
14.3727278785755 55.9682585125531 -2.69782197259585 0 57.847208324995 119.846533436089 108.703533944409 11.1429994916797
28.6543698314315 51.0194771131008 -3.64570536837277 0 58.6289273564139 114.697623603753 107.282481785862 7.41514181789121
28.6547468277037 53.2096876588397 -4.23813249073335 0 60.583224934961 118.913435141965 107.282481785862 11.6309533561031
28.8229771243991 53.5220785375915 -4.7394169788846 0 60.9740844506704 118.694291958007 107.343859907283 11.3504320507237
23.3303440410175 73.3407099489329 -2.39401319189812 0 76.9993245947569 118.152658874582 102.925101039678 15.2275578349046
23.4345871364781 73.6684060435517 -3.60924831468904 0 77.3901841104663 114.079388087171 102.87476449139 11.204623595781
41.5158187033178 78.7452832265695 -4.15610411994495 0 89.1159695817491 111.634599272827 101.850429785623 9.78416948720334
41.6979056274552 79.0906572758088 -4.17433264678682 0 89.5068290974585 113.726230061927 102.101636792804 11.6245932691225
