VERSION .7
FIELDS x y z velocity range intensity noise snr
SIZE 4 4 4 4 4 4 4 4
TYPE F F F F F F F F
COUNT 1 1 1 1 1 1 1 1
WIDTH 77
HEIGHT 1
VIEWPOINT 0 0 0 1 0 0 0
POINTS 77
DATA ascii
-0.0361740188373703 4.65376027916396 -0.583312858939643 -0.0711587882728358 4.69031418851311 114.124497040951 103.57259037665 10.5519066643008
-0.0361373725805095 4.64904576581874 -0.61976991262337 0 4.69031418851311 149.140729368773 125.745897854981 23.3948315137919
-0.0361373725805095 4.64904576581874 -0.61976991262337 0.0711587882728358 4.69031418851311 111.917581849851 103.638762027371 8.27881982248018
-0.0391885204071511 5.04157363576095 -0.63192226385128 -0.0711587882728358 5.08117370422253 120.287949438022 103.481670973025 16.8062784649972
-0.0391488202955519 5.03646624630364 -0.671417405341985 0 5.08117370422253 155.449675349422 125.551729046609 29.8979463028138
-0.0391066700761628 5.03104365232443 -0.710912546832689 0.0711587882728358 5.08117370422253 118.041508015675 103.638762027371 14.402745988304
-0.042203021976932 5.42938699235795 -0.680531668762917 -0.0711587882728358 5.47203321993196 114.742008724702 103.203411551216 11.5385971734864
-0.0421602680105944 5.42388672678853 -0.723064898060599 0 5.47203321993196 149.759170723625 124.781426264579 24.9777444590468
-0.0421148754666368 5.41804701019554 -0.765598127358281 0.0711587882728358 5.47203321993196 112.779568869188 102.611803953953 10.1677649152354
10.3874350474457 14.1878320352854 0.410141853941937 -0.0711587882728358 17.5886782069242 115.589336691738 103.36824803135 12.2210886603882
11.3304491068426 13.4188926362897 0.956997659197851 -0.0711587882728358 17.5886782069242 115.589336691738 103.36824803135 12.2210886603882
10.6182669373889 14.5031171916251 0.419256117362869 -0.0711587882728358 17.9795377226336 117.184943409934 103.36824803135 13.816695378584
11.5769718535879 13.7108547853435 1.11801631296765 -0.0711587882728358 17.9795377226336 117.184943409934 103.36824803135 13.816695378584
10.4611191448083 14.5800823893991 1.11801631296765 0.0711587882728358 17.9795377226336 111.449409762689 102.297184543555 9.15222521913313
10.6131307110472 14.4961018007901 0.698760195604781 0.142317576545672 17.9795377226336 109.90971060006 101.445835408726 8.46387519133365
10.5664693926671 15.0273490432727 -0 -0.0711587882728358 18.370397238343 112.00291138255 103.518484593683 8.48442678886665
10.8468031907477 14.8152668187291 0.571160507711734 0.0711587882728358 18.370397238343 113.944751591965 102.088148106339 11.856603485626
10.8490988273322 14.8184023479648 0.428370380783801 0.142317576545672 18.370397238343 109.747121410785 101.445835408726 8.30128600205898
11.2287725345881 15.0299508434977 -0 0.0711587882728358 18.7612567540524 114.371939693274 102.043728127677 12.3282115655967
9.93056015555625 16.2787076654959 1.78639563050266 0.0711587882728358 19.1521162697619 113.417789335225 102.043728127677 11.3740612075486
11.0131109596602 15.6625506867941 -0.446598907625665 0.0711587882728358 19.1521162697619 113.417789335225 102.043728127677 11.3740612075486
11.4571636166548 15.3356571641113 -0.595465210167553 0.0711587882728358 19.1521162697619 113.417789335225 102.043728127677 11.3740612075486
10.8669117974957 15.7699595566981 -0.148866302541888 0.142317576545672 19.1521162697619 109.278498465465 101.37687594697 7.90162251849561
11.4613201271576 15.3412207418171 -0.297732605083775 0.142317576545672 19.1521162697619 109.278498465465 101.37687594697 7.90162251849561
10.3216946274487 16.5775043047508 0.759521951744327 0.0711587882728358 19.5429757854713 114.392649072105 102.088148106339 12.3045009657659
10.9371161051183 16.1959067006043 -0 0.0711587882728358 19.5429757854713 114.392649072105 102.088148106339 12.3045009657659
11.086005240695 16.0879058879811 -0.455713171046597 0.142317576545672 19.5429757854713 109.79094735279 101.37687594697 8.41407140582063
10.5332236095151 16.9172375304811 0.464827434467529 0.0711587882728358 19.9338353011807 112.771571547314 102.175361892645 10.5962096546687
11.3022556170563 16.4017263875755 -0.774712390779213 0.0711587882728358 19.9338353011807 112.771571547314 102.175361892645 10.5962096546687
-0.400833712536028 25.7811407278115 0.80205518104201 0.426952729637015 25.7967280368221 108.995792115766 101.755222596564 7.24056951920193
-0.610194300034467 26.1606875007176 1.0177594153374 -0.0711587882728358 26.1875875525315 118.61059780246 110.178545813049 8.43205198941082
-0.4066607972401 26.1559317847765 1.22131129840488 0.142317576545672 26.1875875525315 115.793752567957 106.190714644953 9.60303792300371
-0.406906950604755 26.1717640721723 0.814207532269919 0.426952729637015 26.1875875525315 111.671201027593 101.755222596564 9.91597843102848
-0.412730361378012 26.5463188263403 1.23953982524674 -0.0711587882728358 26.5784470682409 120.621606446277 110.178545813049 10.4430606332279
-2.06083848152708 26.433118631955 1.85930973787011 0.0711587882728358 26.5784470682409 117.429206382397 107.939305765938 9.48990061645905
-1.23319544337886 26.41363769424 2.68566962136794 0.0711587882728358 26.5784470682409 117.429206382397 107.939305765938 9.48990061645905
0.412980188673483 26.5623874165331 0.826359883497828 0.284635153091343 26.5784470682409 115.177881689076 103.419420647289 11.7584610417875
0.206533796265001 26.5704173396974 0.619769912623372 0.355793941364179 26.5784470682409 114.245711184607 102.763372372221 11.4823388123862
-0.413130012534701 26.572023906503 0.413179941748912 0.426952729637015 26.5784470682409 110.521363449198 103.178791729564 7.34257171963442
-0.209571057974781 26.9611587711636 0.628884176044304 -0.0711587882728358 26.9693065839504 118.835897596023 110.341510488597 8.49438710742678
-3.35364363116406 26.7566962893836 -0.419256117362867 0.0711587882728358 26.9693065839504 116.299250504286 108.274590934141 8.02465957014469
-0.402507609767385 25.8888037779389 -7.54661011253163 0.0711587882728358 26.9693065839504 116.299250504286 108.274590934141 8.02465957014469
-1.88203043680634 26.837324778974 -1.88665252813291 0.142317576545672 26.9693065839504 114.072093117948 106.570136197474 7.50195692047465
0.626142537983597 26.8444317919224 2.51553670417721 0.213476364818508 26.9693065839504 113.870641584787 105.334681595647 8.53595998914038
0.209621726035002 26.9676771789507 -0.209628058681433 0.284635153091343 26.9693065839504 115.419917789309 104.120987235526 11.2989305537822
0.209469685086457 26.9481172254292 1.04814029340717 0.355793941364179 26.9693065839504 115.657701129809 102.784426802029 12.8732743277803
-3.76188919593355 26.623247266214 2.09628058681434 0.426952729637015 26.9693065839504 111.641831488499 103.462301144589 8.17953034391019
-0.202659313607566 26.0719680638637 -8.29397971304805 0.0711587882728358 27.3601660996598 116.840423053043 109.401764301143 7.43865875189981
0.637824959053684 27.3452889235755 0.637998439465236 0.284635153091343 27.3601660996598 115.69124010963 105.054494461405 10.6367456482258
1.0630415984228 27.3320615679139 0.637998439465236 0.355793941364179 27.3601660996598 115.420261893603 103.404341207006 12.0159206865965
0 27.6973213585092 1.72563387436311 0.0711587882728358 27.7510256153692 116.429253423174 109.425244001694 7.00400942148001
-2.35656403853699 27.4608295100719 3.23556351443083 0.213476364818508 27.7510256153692 114.181188417392 105.654052940317 8.52713547707481
0.214029611454441 27.5347483183867 3.45126774872622 0.213476364818508 27.7510256153692 114.181188417392 105.654052940317 8.52713547707481
1.07734763447937 27.699886739451 1.29422540577233 0.213476364818508 27.7510256153692 114.181188417392 105.654052940317 8.52713547707481
0.431082540322855 27.7267088315758 1.07852117147694 0.284635153091343 27.7510256153692 115.05640334526 105.171549744538 9.88485360072295
1.07852117147694 27.7300597689142 -0 0.355793941364179 27.7510256153692 113.001639186729 104.491373598513 8.5102655882161
0.861878107583499 27.7074280551552 1.29422540577233 0.711587882728358 27.7510256153692 108.303832046325 101.104057586482 7.19977445984298
0.218319008239477 28.0865759842461 1.74993857681893 0.142317576545672 28.1418851310786 117.045731205952 109.129930706848 7.91580049910399
-25.8259954068154 12.9527324587145 -1.34891098629792 0 28.9236041624975 127.352869830946 119.529400217113 7.8234696138321
-26.1749953447453 13.1277693838323 -1.36713951313979 0 29.3144636782069 134.959188379017 119.529400217113 15.4297881619032
-26.5135542687561 13.2975697378998 -1.61626271331193 0 29.7053231939163 131.569950135789 120.987583186382 10.5823669494069
15.8693710735855 26.013925548564 -0.947883395776921 0 30.4870422253352 132.451003615952 121.524542463642 10.9264611523104
1.28868859030248 33.1337136235062 2.06589970874457 -0.355793941364179 33.2230588353012 114.654964397504 106.898788375468 7.75617602203549
3.07479160117648 32.8214187468619 4.13179941748914 -0.355793941364179 33.2230588353012 114.654964397504 106.898788375468 7.75617602203549
1.3031772750833 33.5062349105894 2.35147996260044 -0.355793941364179 33.6139183510106 114.574590982987 106.362926730312 8.21166425267509
2.85696363088207 33.2919411062705 3.65785771960068 -0.355793941364179 33.6139183510106 114.574590982987 106.362926730312 8.21166425267509
14.2756148523689 55.5900946036845 -2.67959344575398 0 57.4563488092856 123.67139001505 110.606799899531 13.064590115519
14.3670701392253 55.9462269385035 -3.14745896802849 0 57.847208324995 120.899326092869 109.715098299482 11.1842277933868
28.2328705986096 51.3328771682358 -2.27856585523298 0 58.6289273564139 119.570985552615 108.318219462153 11.2527660904623
27.9702979255255 51.9387180522219 -1.8350050354143 0 59.0197868721233 115.681829755962 108.161468720838 7.52036103512377
28.6382144505247 53.1789882905557 -4.70903610081483 0 60.583224934961 120.309923116641 106.692096554736 13.6178265619048
28.8045754266228 53.4879079829899 -5.21335867677306 0 60.9740844506704 120.152698237317 107.529822284915 12.6228759524019
23.2119158986773 72.9684220811718 -2.38186084067021 0 76.6084650790474 113.045484301923 102.951565298856 10.0939190030667
23.3303440410175 73.3407099489329 -2.39401319189812 0 76.9993245947569 120.220135022123 102.951565298856 17.2685697232666
22.8523571043805 73.917208436713 -1.80462415734452 0 77.3901841104663 115.416562737251 102.951565298856 12.4649974383954
41.4994762467487 78.714285611411 -4.84878813993578 0 89.1159695817491 112.584610399802 102.146796583151 10.4378138166514
42.3569198069065 78.653581784119 -5.56577686238243 0 89.5068290974585 114.99381585273 102.796620240995 12.1971956117349
