VERSION .7
FIELDS x y z velocity range intensity noise snr
SIZE 4 4 4 4 4 4 4 4
TYPE F F F F F F F F
COUNT 1 1 1 1 1 1 1 1
WIDTH 53
HEIGHT 1
VIEWPOINT 0 0 0 1 0 0 0
POINTS 53
DATA ascii
0.218715888988961 9.37694439780681 -0.14582821473491 0 9.38062837702622 142.095302494609 122.371239263384 19.724063231225
0.227829051030167 9.76765041438209 -0.151904390348865 0 9.77148789273564 147.077465671029 122.371239263384 24.7062264076452
0.236942213071374 10.1583564309574 -0.157980565962819 0 10.1623474084451 140.119960376485 122.371239263384 17.748721113101
10.4730936551661 14.0184585921232 1.77728136708172 -0.0711587882728358 17.5886782069242 110.925560515934 103.227468497063 7.69809201887021
11.3472579590602 13.4387997186234 -0 -0.0711587882728358 17.5886782069242 110.925560515934 103.227468497063 7.69809201887021
11.3304491068426 13.4188926362897 0.956997659197851 0.0711587882728358 17.5886782069242 111.666623480115 103.198045692217 8.46857778789838
11.1830794071102 13.5198516625665 1.23042556182581 0.213476364818508 17.5886782069242 108.447707797056 101.007851532626 7.43985626443052
10.6211549731927 14.50706185811 -0 -0.142317576545672 17.9795377226336 113.255812439069 101.786703736487 11.469108702582
10.7605819364635 14.4032677707464 0.139752039120956 -0.0711587882728358 17.9795377226336 114.646484229252 103.227468497063 11.4190157321886
11.4541269976205 13.8475362907259 0.559008156483825 0.0711587882728358 17.9795377226336 112.815008362758 103.139267005539 9.67574135721976
10.8517218173483 14.8219849977343 0.142790126927933 -0.142317576545672 18.370397238343 111.905549188352 101.57336392631 10.3321852620421
11.4228650708929 14.3864262152331 0.142790126927933 -0.142317576545672 18.370397238343 111.905549188352 101.57336392631 10.3321852620421
10.9935111423757 14.7150484666409 -0.285580253855866 -0.0711587882728358 18.370397238343 115.262996759365 103.674194756511 11.5888020028543
11.6659135870328 14.1035769722537 1.57069139620727 0.142317576545672 18.370397238343 109.668167214387 101.456289103886 8.21187811050105
10.7063475269725 14.9218670461533 0.428370380783801 0.355793941364179 18.370397238343 107.762341074451 100.631780081283 7.13056099316827
11.0799307172754 15.1336875043044 0.437484644204733 -0.142317576545672 18.7612567540524 109.271105831448 101.57336392631 7.69774190513781
12.2462392138307 14.2064417534863 0.437484644204733 -0.0711587882728358 18.7612567540524 111.241713235388 103.678242823627 7.56347041176119
10.935794449448 15.2416564479734 -0.29165642946982 0.142317576545672 18.7612567540524 108.754954346603 101.456289103886 7.29866524271658
12.9771427466783 13.5459756994822 -0.29165642946982 0.142317576545672 18.7612567540524 108.754954346603 101.456289103886 7.29866524271658
10.4181174251627 15.4273627702382 2.33325143575857 0.213476364818508 18.7612567540524 108.238669619529 101.029947894893 7.20872172463604
10.8659268737988 15.7685302447503 0.297732605083775 -0.142317576545672 19.1521162697619 114.572997564167 101.57336392631 12.9996336378563
10.9367857061741 16.1954174390454 0.151904390348865 -0.142317576545672 19.5429757854713 117.355263508949 101.797212705436 15.5580508035131
10.935794449448 16.1939495656776 0.30380878069773 -0.0711587882728358 19.5429757854713 114.670389425142 104.524625229154 10.1457641959872
11.154510338437 16.5178285569912 -0.309884956311684 -0.142317576545672 19.9338353011807 115.392128435981 102.540043786596 12.8520846493848
0 26.5784470682409 -0 -0.498111517909851 26.5784470682409 108.484661462986 100.815319340868 7.66934212211811
-2.47300617783249 26.3977471823326 1.85930973787011 -0.142317576545672 26.5784470682409 115.715198752633 107.07399784447 8.64120090816269
-7.00685083719205 25.5707031034207 1.85930973787011 -0.0711587882728358 26.5784470682409 118.482563525558 110.468920555878 8.01364296967954
0.209602726947753 26.9652329606851 -0.419256117362867 -0.498111517909851 26.9693065839504 108.458192805409 100.815319340868 7.64287346454134
-3.34176663209243 26.6619368897755 2.30590864549578 -0.0711587882728358 26.9693065839504 120.182377259006 110.698672740571 9.48370451843433
0.424869489653836 27.327092909468 1.27599687893047 -0.142317576545672 27.3601660996598 116.055953559413 107.07399784447 8.9819557149422
-3.18034110767329 27.0913534260213 2.12666146488412 -0.0711587882728358 27.3601660996598 118.32585865006 110.903745857069 7.42211279299139
-8.28495504824983 26.044385974993 -1.27599687893047 0.142317576545672 27.3601660996598 116.088581120445 109.069185039733 7.01939608071225
-8.52682624849371 26.8047264787978 -0.874969288409465 -0.213476364818508 28.1418851310786 110.999088325464 103.924784393673 7.0743039317908
-4.15409483900976 27.8198422630984 0.874969288409465 -0.213476364818508 28.1418851310786 110.999088325464 103.924784393673 7.0743039317908
-3.06091198663877 27.961240052709 0.874969288409465 -0.213476364818508 28.1418851310786 110.999088325464 103.924784393673 7.0743039317908
-1.96147171883686 27.9701393419143 2.40616554312603 -0.213476364818508 28.1418851310786 110.999088325464 103.924784393673 7.0743039317908
-6.33413058503006 27.3769963014965 -1.53119625471656 0.213476364818508 28.1418851310786 113.874029838995 106.285545881495 7.58848395750041
0.21873571412348 28.1401848823833 -0.218742322102365 0.213476364818508 28.1418851310786 113.874029838995 106.285545881495 7.58848395750041
-25.8259954068154 12.9527324587145 -1.34891098629792 0 28.9236041624975 127.145825158238 120.088776567652 7.0570485905857
-26.1749953447453 13.1277693838323 -1.36713951313979 0 29.3144636782069 134.708118404252 120.008790624996 14.6993277792564
-26.5239952826753 13.3028063089501 -1.38536803998165 0 29.7053231939163 131.346883081098 120.088776567652 11.2581065134454
15.8727296953073 26.0194311817118 -0.710912546832692 0 30.4870422253352 131.771830076332 121.092875435545 10.6789546407867
6.94925479197536 40.039758397162 -0.947883395776922 0 40.6493896337803 126.104472898231 117.45208845748 8.65238444075112
7.0160745495905 40.4247560740577 -0.956997659197854 0 41.0402491494897 125.452771027846 115.751619993825 9.70115103402105
14.280368096329 55.6086040188057 -2.23299453812832 0 57.4563488092856 122.874008425604 110.728021011792 12.1459874138125
14.3727278785755 55.9682585125531 -2.69782197259585 0 57.847208324995 120.047618657193 109.625797472532 10.4218211846608
28.6547468277037 53.2096876588397 -4.23813249073335 0 60.583224934961 119.267910398734 106.709621497922 12.5582889008114
28.8229771243991 53.5220785375915 -4.7394169788846 0 60.9740844506704 119.062419656248 106.709621497922 12.3527981583256
23.216828509554 72.9838652468949 -1.78639563050266 0 76.6084650790474 112.421570589674 103.680228361015 8.74134222865837
23.3303440410175 73.3407099489329 -2.39401319189812 0 76.9993245947569 118.972045613844 103.474794323159 15.4972512906851
23.4487721833577 73.712997816694 -2.40616554312603 0 77.3901841104663 115.002163585982 103.134678273362 11.8674853126198
41.4994762467487 78.714285611411 -4.84878813993578 0 89.1159695817491 111.7029213124 101.418321147381 10.2846001650185
41.6814914934449 79.0595237061979 -4.87005475458462 0 89.5068290974585 113.951606044473 101.418321147381 12.5332848970914
