VERSION .7
FIELDS x y z velocity range intensity noise snr
SIZE 4 4 4 4 4 4 4 4
TYPE F F F F F F F F
COUNT 1 1 1 1 1 1 1 1
WIDTH 97
HEIGHT 1
VIEWPOINT 0 0 0 1 0 0 0
POINTS 97
DATA ascii
3.81261813844582 8.43300478523553 -1.53119625471656 0 9.38062837702622 132.52167464345 122.223052977754 10.2986216656961
3.96617365973896 8.77264919724901 -1.67094829383752 -0.0711587882728358 9.77148789273564 112.077768237443 103.698271333145 8.37949690429764
3.97147722754773 8.78437998462035 -1.59499609866309 0 9.77148789273564 141.342813135108 122.223052977754 19.1197601573541
3.96617365973896 8.77264919724901 -1.67094829383752 0.0711587882728358 9.77148789273564 113.038338997946 105.495607030207 7.54273196773977
4.13033631664964 9.13575518400516 -1.65879594260961 0 10.1623474084451 138.532184253758 122.223052977754 16.3091312760043
10.3037804489517 14.6537598811483 1.53727243033052 0.0711587882728358 17.9795377226336 113.5867383944 104.055393180101 9.53134521429958
10.8359254837261 14.2133209234436 1.95652854769339 0.0711587882728358 17.9795377226336 113.5867383944 104.055393180101 9.53134521429958
10.7089360039621 14.9254747106153 0.142790126927933 0.0711587882728358 18.370397238343 114.949856461431 104.279855545834 10.6700009155962
11.0775862373593 15.1304852616808 -0.583312858939643 -0.0711587882728358 18.7612567540524 111.98756520675 104.775657736035 7.21190747071498
10.8642851358811 15.7661477702214 0.446598907625665 0.0711587882728358 19.1521162697619 114.008928025768 104.861733836032 9.1471941897359
10.9252154482415 16.1782839628917 0.911426342093192 0.0711587882728358 19.5429757854713 113.915264179421 105.304114677561 8.6111495018605
11.5443849120726 15.7680691465258 0.151904390348865 0.0711587882728358 19.5429757854713 113.915264179421 105.304114677561 8.6111495018605
-1.62442562661546 26.0728763336149 1.83196694760732 -0.569270306182687 26.1875875525315 108.174904767268 101.064751597414 7.11015316985494
-0.203453475302378 26.1741363677827 -0.814207532269919 -0.498111517909851 26.1875875525315 109.119178667507 101.348240753508 7.77093791399853
-0.610194300034467 26.1606875007176 1.0177594153374 -0.426952729637015 26.1875875525315 110.17542982779 102.101398559098 8.07403126869137
-1.62526372800501 26.0863282968975 1.62841506453984 -0.355793941364179 26.1875875525315 109.409386506737 102.072220512451 7.33716599428653
-0.206490094336741 26.5647951195407 0.826359883497828 -0.711587882728358 26.5784470682409 108.463446377823 100.728249891304 7.7351964865187
-1.23319544337886 26.41363769424 2.68566962136794 -0.498111517909851 26.5784470682409 111.32966872554 101.348240753508 9.98142797203202
-1.85655551630192 26.4740582228518 1.4461297961212 -0.426952729637015 26.5784470682409 112.383248268085 102.101398559098 10.2818497089871
-0.826334920022041 26.5647951195407 0.206589970874456 -0.426952729637015 26.5784470682409 112.383248268085 102.101398559098 10.2818497089871
-2.05964947925509 26.4178680247915 2.06589970874457 -0.355793941364179 26.5784470682409 112.925543730724 102.072220512451 10.8533232182738
-1.03282503133676 26.5551577541853 0.413179941748912 -0.355793941364179 26.5784470682409 112.925543730724 102.072220512451 10.8533232182738
-1.44398762379038 26.4997633369507 -1.4461297961212 -0.284635153091343 26.5784470682409 112.388969659222 103.568203973539 8.82076568568285
-8.36457971913931 25.5698620641442 1.88665252813291 -0.711587882728358 26.9693065839504 109.265808698829 100.728249891304 8.53755880752535
-6.47467284967908 26.078820802087 2.30590864549578 -0.711587882728358 26.9693065839504 109.265808698829 100.728249891304 8.53755880752535
-1.449556827979 26.6019682246812 4.19256117362868 -0.711587882728358 26.9693065839504 109.265808698829 100.728249891304 8.53755880752535
-8.58825708854479 25.5438199908609 1.04814029340717 -0.640429094455523 26.9693065839504 110.344843098798 101.073067234655 9.27177586414256
-8.3353272951739 25.4804397057051 2.93479282154008 -0.569270306182687 26.9693065839504 111.301200309584 101.064751597414 10.2364487121705
-2.50632497406932 26.7534038593614 2.30590864549578 -0.569270306182687 26.9693065839504 111.301200309584 101.064751597414 10.2364487121705
-7.8794841620194 24.0869631140507 -9.2236345819831 -0.498111517909851 26.9693065839504 113.645962065467 101.348240753508 12.2977213119585
-8.34220446991584 25.5014626877852 2.72516476285864 -0.426952729637015 26.9693065839504 113.074642796037 102.101398559098 10.9732442369385
-3.558398072912 26.6932210223394 1.46739641077004 -0.426952729637015 26.9693065839504 113.074642796037 102.101398559098 10.9732442369385
-3.74757046845448 26.5219122713862 -3.14442088022151 -0.355793941364179 26.9693065839504 115.63090896648 101.663784133042 13.967124833438
-1.25590520220424 26.9000547864841 1.46739641077004 -0.355793941364179 26.9693065839504 115.63090896648 101.663784133042 13.967124833438
-3.33942686924584 26.6432693356879 2.51553670417721 -0.284635153091343 26.9693065839504 113.487595190825 103.568203973539 9.91939121728653
-1.66231913870344 26.6810869148372 -3.56367699758438 -0.284635153091343 26.9693065839504 113.487595190825 103.568203973539 9.91939121728653
-0.835441658023108 26.8575561094783 2.30590864549578 -0.284635153091343 26.9693065839504 113.487595190825 103.568203973539 9.91939121728653
0.209571057974781 26.9611587711636 0.628884176044304 -0.284635153091343 26.9693065839504 113.487595190825 103.568203973539 9.91939121728653
-3.33942686924584 26.6432693356879 2.51553670417721 -0.142317576545672 26.9693065839504 115.954264016029 107.292856896705 8.6614071193242
-3.34583188765572 26.6943711077213 1.88665252813291 -0.0711587882728358 26.9693065839504 116.876390789971 109.792919750837 7.08347103913398
0.209571057974781 26.9611587711636 0.628884176044304 0.213476364818508 26.9693065839504 112.483646130503 103.552011862686 8.93163426781715
0.62795260110212 26.9220341156373 1.46739641077004 0.355793941364179 26.9693065839504 109.1787054252 101.345596872577 7.83310855262288
-1.26841937100472 27.1680939870142 2.97732605083776 -0.711587882728358 27.3601660996598 109.836073784041 100.815439255825 9.02063452821615
-2.754535901453 27.1204492458228 2.33932761137253 -0.640429094455523 27.3601660996598 111.035656700772 101.14949002848 9.8861666722925
-7.60376616787865 26.0880313332799 3.18999219732617 -0.569270306182687 27.3601660996598 112.713169047614 101.117728936902 11.5954401107116
-2.75260729258489 27.1014606608873 2.55199375786094 -0.569270306182687 27.3601660996598 112.713169047614 101.117728936902 11.5954401107116
1.06320223814078 27.336191805779 -0.425332292976821 -0.498111517909851 27.3601660996598 112.825858045781 102.521803875365 10.3040541704164
-8.48090962046212 25.9254734194827 2.12666146488412 -0.426952729637015 27.3601660996598 114.700677161112 102.438496010136 12.262181150976
-3.82509859723097 27.0705862048807 1.06333073244206 -0.426952729637015 27.3601660996598 114.700677161112 102.438496010136 12.262181150976
0.850561790512624 27.3436341052546 0.425332292976821 -0.426952729637015 27.3601660996598 114.700677161112 102.438496010136 12.262181150976
-3.82232018062159 27.0509230865517 1.48866302541888 -0.355793941364179 27.3601660996598 115.09184309258 102.998506035376 12.0933370572046
0.212563332405469 27.3461126230566 0.850664585953647 -0.284635153091343 27.3601660996598 114.961589220093 105.462750680308 9.49883853978461
0 27.3303955508502 1.27599687893047 -0.142317576545672 27.3601660996598 114.785770577968 107.311113938292 7.47465663967609
0.637921342884469 27.3494211602699 0.425332292976821 -0.142317576545672 27.3601660996598 114.785770577968 107.311113938292 7.47465663967609
-1.50440037694741 27.6084457347905 2.37274657724928 -0.782746671001194 27.7510256153692 109.024129825465 101.281333941596 7.74279588386911
1.07848859046994 27.7292220725431 -0.215704234295388 -0.782746671001194 27.7510256153692 109.024129825465 101.281333941596 7.74279588386911
-1.28653964773336 27.5562096154001 3.01985928013544 -0.711587882728358 27.7510256153692 109.693873140035 100.851154523783 8.84271861625143
1.07799975719917 27.7166535887951 0.862816937181556 -0.640429094455523 27.7510256153692 109.018952483504 101.158696738491 7.86025574501263
-8.84387360611094 26.3040932621524 -0 -0.569270306182687 27.7510256153692 111.542237761451 102.352071059765 9.1901667016857
-7.97888651159059 26.5713762889655 -0.647112702886168 -0.569270306182687 27.7510256153692 111.542237761451 102.352071059765 9.1901667016857
-5.57960487371907 27.0393074363405 -2.80415504584005 -0.569270306182687 27.7510256153692 111.542237761451 102.352071059765 9.1901667016857
-4.09230946322105 27.4060675479748 1.50992964006772 -0.569270306182687 27.7510256153692 111.542237761451 102.352071059765 9.1901667016857
-2.7850302273619 27.4206885048797 3.23556351443083 -0.569270306182687 27.7510256153692 111.542237761451 102.352071059765 9.1901667016857
0.646936744183022 27.735935908198 0.647112702886168 -0.569270306182687 27.7510256153692 111.542237761451 102.352071059765 9.1901667016857
1.50992964006772 27.7099176322652 -0 -0.569270306182687 27.7510256153692 111.542237761451 102.352071059765 9.1901667016857
1.07848859046994 27.7292220725431 0.215704234295388 -0.498111517909851 27.7510256153692 111.846123442011 102.844128333444 9.00199510856649
-8.60703130520131 26.3110174862933 1.9413381086585 -0.426952729637015 27.7510256153692 111.969413635205 104.512211799467 7.45720183573774
-4.09528413306713 27.4259888182177 1.07852117147694 -0.426952729637015 27.7510256153692 111.969413635205 104.512211799467 7.45720183573774
0.862790872375954 27.7367713748145 0.215704234295388 -0.426952729637015 27.7510256153692 111.969413635205 104.512211799467 7.45720183573774
-8.19651328757155 26.5120739346217 -0.215704234295388 -0.355793941364179 27.7510256153692 112.85557968249 105.727403406538 7.12817627595196
-3.8797428629057 27.4573088649505 1.07852117147694 -0.355793941364179 27.7510256153692 112.85557968249 105.727403406538 7.12817627595196
0.422506860236279 27.1751314361769 5.60831009168011 -0.355793941364179 27.7510256153692 112.85557968249 105.727403406538 7.12817627595196
0.215678168308557 27.7468339160673 0.431408468590776 -0.284635153091343 27.7510256153692 113.868924525569 106.39031919559 7.47860532997862
0 27.7099176322652 1.50992964006772 -0.142317576545672 27.7510256153692 114.580175410697 107.428843108598 7.15133230209949
-9.40336225347714 26.5162562068894 -0.6562269663071 -0.996223035819702 28.1418851310786 107.928728994418 100.738634697074 7.19009429734453
-8.8798045052955 25.7100773450843 7.21849662937808 -0.711587882728358 28.1418851310786 108.260301599731 101.095304504153 7.16499709557798
-6.12459999545747 27.4664727517566 0.218742322102365 -0.711587882728358 28.1418851310786 108.260301599731 101.095304504153 7.16499709557798
-1.52075323357573 27.9085499901138 3.28113483153549 -0.711587882728358 28.1418851310786 108.260301599731 101.095304504153 7.16499709557798
0.874546281896791 28.1146811519531 0.874969288409465 -0.640429094455523 28.1418851310786 108.765972413089 101.670555224506 7.09541718858314
-8.95867666755806 26.6455488922961 1.3124539326142 -0.569270306182687 28.1418851310786 109.372958860637 102.352071059765 7.02088780087136
-25.8345944939965 12.9570452324873 -1.1240924885816 0 28.9236041624975 127.215872116934 119.831776918516 7.38409519841823
-26.1749953447453 13.1277693838323 -1.36713951313979 0 29.3144636782069 134.684744946029 119.831776918516 14.8529680275128
-26.5239952826753 13.3028063089501 -1.38536803998165 0 29.7053231939163 131.234890408339 119.992744170928 11.2421462374107
15.6692331607521 25.6858487306642 -0.70179828341176 0 30.0961827096258 127.947274618123 120.132948001333 7.81432661678969
15.8727296953073 26.0194311817118 -0.710912546832692 0 30.4870422253352 131.85281242136 120.132948001333 11.719864420027
14.280368096329 55.6086040188057 -2.23299453812832 0 57.4563488092856 123.248167454509 109.801402320017 13.446765134492
14.3727278785755 55.9682585125531 -2.69782197259585 0 57.847208324995 119.969470164503 108.250811596069 11.7186585684339
28.2405570195839 51.3468525839612 -1.82285268418639 0 58.6289273564139 119.777011069466 107.970954126659 11.8060569428071
28.4288273997144 51.6891649345209 -1.8350050354143 0 59.0197868721233 115.556860640547 107.100847432083 8.45601320846406
28.6382144505247 53.1789882905557 -4.70903610081483 0 60.583224934961 119.197020987096 106.159013775099 13.0380072119967
28.8045754266228 53.4879079829899 -5.21335867677306 0 60.9740844506704 118.597014371284 106.507824229968 12.0891901413154
23.2055981565346 72.948561778503 -2.97732605083776 0 76.6084650790474 109.36962181623 102.233207682579 7.1364141336508
23.3162306357888 73.2963433867661 -3.59101978784718 0 76.9993245947569 116.237926541733 102.125729570815 14.1121969709183
23.4423899744584 73.6929348578755 -3.00770692890753 0 77.3901841104663 114.653370362966 102.061300472553 12.5920698904124
23.5778871848936 74.1188806386982 0.604579473588482 0 77.7810436261757 109.376826353659 102.061300472553 7.31552588110502
42.1502082368802 78.2697341046158 -6.23415617991744 0 89.1159695817491 110.575603845347 101.839654538409 8.73594930693824
41.6814914934449 79.0595237061979 -4.87005475458462 0 89.5068290974585 112.33912613411 101.864258421134 10.4748677129762
