VERSION .7
FIELDS x y z velocity range intensity noise snr
SIZE 4 4 4 4 4 4 4 4
TYPE F F F F F F F F
COUNT 1 1 1 1 1 1 1 1
WIDTH 61
HEIGHT 1
VIEWPOINT 0 0 0 1 0 0 0
POINTS 61
DATA ascii
1.56746387108755 4.42004386095313 -0.0729141073674551 -0.0711587882728358 4.69031418851311 116.168761482015 105.650166783438 10.5185946985775
1.56746387108755 4.42004386095313 -0.0729141073674551 0 4.69031418851311 138.662185319449 126.77531807189 11.8868672475591
1.56746387108755 4.42004386095313 -0.0729141073674551 0.0711587882728358 4.69031418851311 115.383129203365 105.279306539695 10.1038226636704
1.69782929576671 4.78765737068836 -0.118485424472115 -0.711587882728358 5.08117370422253 108.85656205092 100.782519350743 8.07404270017724
1.6974700402094 4.78664431683117 -0.15798056596282 -0.640429094455523 5.08117370422253 109.476457061777 101.075608099616 8.40084896216162
1.69782929576671 4.78765737068836 -0.118485424472115 -0.569270306182687 5.08117370422253 110.637934675547 100.911207584731 9.72672709081577
1.69808586034484 4.78838084936589 -0.0789902829814097 -0.498111517909851 5.08117370422253 111.76975328419 100.946097593781 10.8236556904089
1.69823978048647 4.78881488410801 -0.0394951414907049 -0.0711587882728358 5.08117370422253 128.63619003788 105.260143438596 23.3760465992836
1.69823978048647 4.78881488410801 -0.0394951414907049 0 5.08117370422253 151.344498487572 125.448788524418 25.895709963154
1.69823978048647 4.78881488410801 -0.0394951414907049 0.0711587882728358 5.08117370422253 127.838093141349 104.912129035836 22.9259641055123
1.69829108410031 4.7889595536137 -0 0.498111517909851 5.08117370422253 111.468829766307 101.013719231793 10.4551105345147
1.69829108410031 4.7889595536137 -0 0.569270306182687 5.08117370422253 110.020532736982 101.01120880183 9.00932393515189
1.69829108410031 4.7889595536137 -0 0.640429094455523 5.08117370422253 109.394921617351 100.970842134726 8.42407948262501
1.65874583210307 4.80263767223407 0.0394951414907049 0.711587882728358 5.08117370422253 108.527467007758 100.724870781574 7.80259622618455
1.69823978048647 4.78881488410801 0.0394951414907049 0.782746671001194 5.08117370422253 107.8831847205 100.867725159762 7.01545956073807
1.82870784960214 5.15671783777865 -0.0850664585953643 -0.711587882728358 5.47203321993196 108.480530921783 100.698503908528 7.7820270132555
1.82804465868704 5.15484772581818 -0.170132917190729 -0.640429094455523 5.47203321993196 109.12954957737 101.002438078364 8.12711149900575
1.82804465868704 5.15484772581818 -0.170132917190729 -0.569270306182687 5.47203321993196 110.078357599114 100.911207584731 9.1671500143832
1.82843154928722 5.15593870689515 -0.127599687893047 -0.498111517909851 5.47203321993196 111.289539007815 100.927943358111 10.3615956497037
1.82887360975466 5.15718525980863 -0.0425332292976821 -0.0711587882728358 5.47203321993196 128.086439476656 105.047437547272 23.0390019293841
1.82887360975466 5.15718525980863 -0.0425332292976821 0 5.47203321993196 150.785078896211 124.634617886278 26.1504610099336
1.82887360975466 5.15718525980863 -0.0425332292976821 0.0711587882728358 5.47203321993196 127.404866231628 104.476702330463 22.9281639011655
1.82892885980034 5.15734105773783 -0 0.498111517909851 5.47203321993196 111.008979209318 100.952320053505 10.056659155813
1.82887360975466 5.15718525980863 0.0425332292976821 0.569270306182687 5.47203321993196 109.752432317522 100.982052506248 8.77037981127437
1.82892885980034 5.15734105773783 -0 0.640429094455523 5.47203321993196 109.332138519309 100.969760486681 8.36237803262833
1.82892885980034 5.15734105773783 -0 0.711587882728358 5.47203321993196 108.565031970689 100.724870781574 7.84016118911543
1.95932983885943 5.52505482619141 0.0911426342093189 -0.0711587882728358 5.86289273564138 114.525738964201 104.538674130491 9.98706483370966
1.95932983885943 5.52505482619141 0.0911426342093189 0 5.86289273564138 136.969712655191 123.750858671105 13.2188539840861
1.95950743902285 5.52555563550925 0.0455713171046594 0.0711587882728358 5.86289273564138 114.288604948456 104.048160086269 10.2404448621877
-8.04141680348744 25.2788049900239 1.65271976699566 -0.284635153091343 26.5784470682409 112.572722500262 102.117773094072 10.45494940619
0 26.5752352933144 0.413179941748912 -0.0711587882728358 26.5784470682409 119.975555282755 110.632094313525 9.34346096923049
0 26.9660475770396 0.419256117362867 -0.0711587882728358 26.9693065839504 118.586463765437 110.761917099008 7.82454666642869
-8.49018365375748 25.9538234095722 1.70132917190729 -0.142317576545672 27.3601660996598 115.846808990697 107.279423710269 8.56738528042719
-2.02659313607567 25.9938744665225 -8.29397971304805 -0.142317576545672 27.3601660996598 115.846808990697 107.279423710269 8.56738528042719
-5.82331054433106 27.1297320986107 -0.431408468590776 -0.355793941364179 27.7510256153692 111.064584531673 101.754478896724 9.31010563494942
-6.90065860461889 26.8715756642059 -0.647112702886168 -0.142317576545672 27.7510256153692 114.938623225811 107.279423710269 7.65919951554117
-5.8240143259755 27.1330108877675 -0 -0.142317576545672 27.7510256153692 114.938623225811 107.279423710269 7.65919951554117
-6.33413058503006 27.3769963014965 1.53119625471656 -0.213476364818508 28.1418851310786 114.189576938554 105.669369692392 8.52020724616235
-9.14712577228209 26.4840640298263 -2.62490786522839 -0.142317576545672 28.1418851310786 114.470982456422 106.659223790361 7.81175866606067
-6.99637025517432 27.2442825328119 -0.874969288409465 -0.142317576545672 28.1418851310786 114.470982456422 106.659223790361 7.81175866606067
-11.3053326649366 26.1824365865826 -0.887121639637374 -0.284635153091343 28.5327446467881 110.345543611161 102.582814762332 7.76272884882974
-9.07071996354491 26.9787962269256 1.99602368918409 -0.284635153091343 28.5327446467881 110.345543611161 102.582814762332 7.76272884882974
-8.19967564374672 27.3066507038244 1.10890204954672 -0.284635153091343 28.5327446467881 110.345543611161 102.582814762332 7.76272884882974
-25.8259954068154 12.9527324587145 -1.34891098629792 0 28.9236041624975 127.216263276259 119.80598243593 7.41028084032896
-26.1749953447453 13.1277693838323 -1.36713951313979 0 29.3144636782069 134.795144847616 119.80598243593 14.9891624116858
-26.5135542687561 13.2975697378998 -1.61626271331193 0 29.7053231939163 131.531196965929 121.37715668371 10.1540402822192
15.8693710735855 26.013925548564 -0.947883395776921 0 30.4870422253352 132.04619209556 123.064071177411 8.98212091814922
6.94925479197536 40.039758397162 -0.947883395776922 0 40.6493896337803 123.691763192392 116.115892474103 7.57587071828862
-39.9649431112627 26.6804042682114 -1.49473920103284 0 48.0757204322594 118.542050814292 111.267422506997 7.27462830729541
14.2756148523689 55.5900946036845 -2.67959344575398 0 57.4563488092856 123.827391037864 110.165759843667 13.6616311941977
14.3670701392253 55.9462269385035 -3.14745896802849 0 57.847208324995 120.85791767487 108.764672365125 12.0932453097455
28.2405570195839 51.3468525839612 -1.82285268418639 0 58.6289273564139 120.832385321257 107.482643958926 13.3497413623311
28.4288273997144 51.6891649345209 -1.8350050354143 0 59.0197868721233 117.217396542629 107.240289739766 9.97710680286285
28.6199307123496 53.1450367779708 -5.17993971089631 0 60.583224934961 119.651027829948 107.091678319645 12.5593495103033
28.7844076881734 53.450458025043 -5.68730037466151 0 60.9740844506704 119.388160340289 107.230062472775 12.158097867514
23.1978741350995 72.9242807299804 -3.57279126100531 0 76.6084650790474 112.969883229318 102.730199298491 10.239683930827
23.3239940654965 73.3207483181893 -2.99251648987265 0 76.9993245947569 120.305349574525 102.730199298491 17.5751502760337
23.4423899744584 73.6929348578755 -3.00770692890753 0 77.3901841104663 116.78074911184 102.552150036365 14.2285990754746
23.5607858834203 74.0651213975618 3.02289736794242 0 77.7810436261757 109.645588946494 102.552150036365 7.09343891012842
41.5158187033178 78.7452832265695 -4.15610411994495 0 89.1159695817491 112.589032435769 102.552150036365 10.036882399404
41.6979056274552 79.0906572758088 -4.17433264678682 0 89.5068290974585 114.718859553498 102.570004964053 12.148854589445
