VERSION .7
FIELDS x y z velocity range intensity noise snr
SIZE 4 4 4 4 4 4 4 4
TYPE F F F F F F F F
COUNT 1 1 1 1 1 1 1 1
WIDTH 55
HEIGHT 1
VIEWPOINT 0 0 0 1 0 0 0
POINTS 55
DATA ascii
-1.69413045760829 4.77722712907555 -0.355456273416345 -0.0711587882728358 5.08117370422253 115.382429963841 107.094105605932 8.28832435790923
-1.69500452230373 4.77969187761771 -0.31596113192564 0 5.08117370422253 141.402984812715 126.770798554309 14.6321862584062
-1.69413045760829 4.77722712907555 -0.355456273416345 0.0711587882728358 5.08117370422253 116.108146509671 104.53077624635 11.5773702633208
-1.82223144249968 5.13845521368741 -0.467865522274505 -0.85390545927403 5.47203321993196 108.078334875382 100.887241469841 7.19109340554066
-1.82339556839935 5.14173789702777 -0.425332292976823 -0.782746671001194 5.47203321993196 109.002750115932 101.084472456853 7.91827765907843
-1.82223144249968 5.13845521368741 -0.467865522274505 -0.711587882728358 5.47203321993196 109.107429313781 101.077891346967 8.02953796681337
-1.82339556839935 5.14173789702777 -0.425332292976823 -0.640429094455523 5.47203321993196 110.236754879685 101.095344078757 9.14141080092804
-1.82339556839935 5.14173789702777 -0.425332292976823 -0.569270306182687 5.47203321993196 111.053102406814 101.01847458789 10.0346278189235
-1.82339556839935 5.14173789702777 -0.425332292976823 -0.498111517909851 5.47203321993196 112.193258223482 101.018661239645 11.1745969838366
-1.82444818511662 5.14470613900444 -0.382799063679141 -0.0711587882728358 5.47203321993196 126.857473741479 105.239824885538 21.6176488559407
-1.82538948555786 5.14736048358831 -0.340265834381459 0 5.47203321993196 153.045179114207 124.696397989275 28.348781124932
-1.82538948555786 5.14736048358831 -0.340265834381459 0.0711587882728358 5.47203321993196 127.766710322697 104.33276814686 23.4339421758365
-1.82621964185254 5.149701416162 -0.297732605083776 0.498111517909851 5.47203321993196 112.367932995198 100.935035009512 11.4328979856854
-1.82621964185254 5.149701416162 -0.297732605083776 0.569270306182687 5.47203321993196 111.600346318737 101.069330644442 10.5310156742946
-1.8269388055115 5.15172936396639 -0.255199375786094 0.640429094455523 5.47203321993196 110.566538161863 100.734060506338 9.83247765552487
-1.8269388055115 5.15172936396639 -0.255199375786094 0.711587882728358 5.47203321993196 109.530568033404 101.060933230015 8.46963480338895
-1.82621964185254 5.149701416162 -0.297732605083776 0.782746671001194 5.47203321993196 109.087651426375 101.140540636784 7.94711078959078
-1.82754710756591 5.15344469649226 -0.212666146488412 0.85390545927403 5.47203321993196 108.470598693506 101.020673921847 7.44992477165895
-1.95239083124965 5.50548772895079 -0.501284488151255 -0.711587882728358 5.86289273564138 107.957545856399 100.763986273047 7.19355958335138
-1.95363810899931 5.50900488967262 -0.455713171046596 -0.640429094455523 5.86289273564138 109.121634432714 100.93151858075 8.19011585196463
-1.95239083124965 5.50548772895079 -0.501284488151255 -0.569270306182687 5.86289273564138 110.135533053004 101.01847458789 9.11705846511348
-1.95363810899931 5.50900488967262 -0.455713171046596 -0.498111517909851 5.86289273564138 110.930672182943 100.983583225273 9.94708895766959
-1.95577444881199 5.5150290895589 -0.364570536837277 -0.0711587882728358 5.86289273564138 125.562292877554 105.141246722884 20.4210461546701
-1.95577444881199 5.5150290895589 -0.364570536837277 0 5.86289273564138 151.747477378828 123.75585229192 27.9916250869083
-1.95577444881199 5.5150290895589 -0.364570536837277 0.0711587882728358 5.86289273564138 126.478646801132 104.33276814686 22.1458786542719
-1.95666390198486 5.51753723160215 -0.318999219732617 0.498111517909851 5.86289273564138 111.268097143236 100.890847691516 10.37724945172
-1.95577444881199 5.5150290895589 -0.364570536837277 0.569270306182687 5.86289273564138 110.570156674871 100.979509179362 9.59064749550861
-1.95743443447661 5.51971003282113 -0.273427902627958 0.640429094455523 5.86289273564138 109.503662930916 100.610170503057 8.8934924278585
-1.95666390198486 5.51753723160215 -0.318999219732617 0.711587882728358 5.86289273564138 108.462895526433 100.936403512466 7.52649201396707
-1.95743443447661 5.51971003282113 -0.273427902627958 0.782746671001194 5.86289273564138 108.052258247904 101.004854522065 7.04740372583956
-2.08508364013328 5.87966415886222 -0.437484644204732 0 6.25375225135081 135.850325466613 123.587544054911 12.2627814117018
11.2354904271463 15.9788127942005 -0.607617561395462 -0.142317576545672 19.5429757854713 109.737082343852 102.212805445803 7.52427689804851
11.0725941740229 16.0684438749481 1.06333073244206 -0.0711587882728358 19.5429757854713 114.026777344564 104.979713041247 9.04706430331728
0 26.5712200287208 -0.619769912623372 -0.0711587882728358 26.5784470682409 118.5426260701 110.994302751202 7.54832331889806
0.419053426742211 26.9530107608939 0.838512234725737 0.142317576545672 26.9693065839504 115.625121877011 104.986334229956 10.6387876470549
0.21260831968456 27.3519002026297 0.637998439465236 0.142317576545672 27.3601660996598 114.703832365697 105.072891735825 9.63094062987268
-8.70982453790367 25.905394756399 1.27599687893047 0.284635153091343 27.3601660996598 112.238413070916 104.375490932935 7.86292213798116
-25.8345944939965 12.9570452324873 -1.1240924885816 0 28.9236041624975 127.247227543193 117.386614666968 9.86061287622494
-26.1749953447453 13.1277693838323 -1.36713951313979 0 29.3144636782069 134.818979961115 117.386614666968 17.432365294147
-26.5239952826753 13.3028063089501 -1.38536803998165 0 29.7053231939163 131.477096275581 120.700612472725 10.7764838028562
15.8727296953073 26.0194311817118 -0.710912546832692 0 30.4870422253352 132.014250123262 121.268069774901 10.7461803483606
6.9477843506245 40.0312861050691 -1.26384452770256 0 40.6493896337803 125.551763572983 115.953617464519 9.59814610846388
7.0160745495905 40.4247560740577 -0.956997659197854 0 41.0402491494897 125.374843058082 115.442969553591 9.93187350449138
-39.9734013624072 26.6860509560925 -1.12105440077463 0 48.0757204322594 118.62181719409 111.26316040497 7.35865678911922
14.2756148523689 55.5900946036845 -2.67959344575398 0 57.4563488092856 121.863257724557 109.961729954324 11.9015277702339
14.3670701392253 55.9462269385035 -3.14745896802849 0 57.847208324995 118.337688954018 109.734684644932 8.6030043090862
28.2328705986096 51.3328771682358 -2.27856585523298 0 58.6289273564139 118.47857995358 107.520999542167 10.9575804114126
28.4210897359336 51.6750963493574 -2.29375629426787 0 59.0197868721233 114.716289588667 107.012691818715 7.70359776995161
28.6547468277037 53.2096876588397 -4.23813249073335 0 60.583224934961 119.937370893937 105.591016467355 14.3463544265819
28.8229771243991 53.5220785375915 -4.7394169788846 0 60.9740844506704 120.011327221757 105.717202032174 14.2941251895822
23.2055981565346 72.948561778503 -2.97732605083776 0 76.6084650790474 112.967006628847 104.417325827905 8.54968080094235
23.3303440410175 73.3407099489329 -2.39401319189812 0 76.9993245947569 119.772263976189 103.648387737755 16.1238762384336
23.4423899744584 73.6929348578755 -3.00770692890753 0 77.3901841104663 114.673093926473 102.410894481778 12.2621994446951
42.1719550915925 78.310116361481 -5.54147215992661 0 89.1159695817491 110.929005568725 101.43389814934 9.49510741938504
41.6814914934449 79.0595237061979 -4.87005475458462 0 89.5068290974585 112.831861916048 101.825774017124 11.0060878989242
