VERSION .7
FIELDS x y z doppler snr
SIZE 4 4 4 4 4
TYPE F F F F F
COUNT 1 1 1 1 1
WIDTH 995
HEIGHT 1
VIEWPOINT 0 0 0 1 0 0 0
POINTS 995
DATA ascii
-2.1087728 0.0 109.42828 -12.6096 0.0
-37.2962 0.5970263 103.81243 -11.8992 0.0
-37.44189 0.59935844 104.21795 -11.8992 6.35
-35.49936 0.0 105.80665 -11.988 5.91
-35.63642 0.0 106.21517 -11.988 6.07
41.067986 -3.3046668 131.58876 -11.988 10.76
41.196323 -3.3149939 131.99997 -11.988 6.78
41.32466 -3.325321 132.41118 -11.988 6.28
41.453 -3.335648 132.8224 -11.988 10.92
-32.71059 -1.2240285 140.1487 -12.2544 4.94
-31.724152 -1.2276932 140.817 -12.2544 11.29
-32.906464 -1.2313579 140.98792 -12.2544 11.79
36.56418 -3.1031938 144.06032 -12.1656 7.75
36.674194 -2.190139 144.49377 -12.1656 6.1
36.781685 -1.7340778 144.91728 -12.1656 3.32
-83.31026 -4.4810724 127.70022 -10.656 5.67
-82.556114 -4.493731 128.70107 -10.656 3.96
-82.788666 -4.506389 129.0636 -10.656 5.02
-100.77839 -0.35581845 115.65151 -9.6792 5.44
-83.03896 -3.211131 129.45381 -10.656 5.39
-101.06175 0.0 115.976685 -9.6792 5.19
85.70346 -5.5160265 129.18182 -10.3896 4.36
85.9588 -4.569681 129.5667 -10.3896 5.85
86.20433 -4.100106 129.9368 -10.3896 5.84
86.44247 -4.111432 130.29575 -10.3896 7.3
-84.34605 -2.3230665 133.74866 -10.7448 17.3
-84.57587 -2.3293962 134.1131 -10.7448 10.93
-84.80144 -2.8274107 134.47078 -10.7448 7.74
8.51388 -2.405355 163.50282 -12.5208 9.67
8.536284 -2.4116848 163.93309 -12.5208 10.61
-86.94662 -3.5799162 147.7806 -10.9224 5.38
-87.16508 -3.588911 148.1519 -10.9224 8.68
-87.388756 -3.0649438 148.53209 -10.9224 6.03
-87.60723 -3.0726063 148.90341 -10.9224 7.98
-87.82045 -3.6158955 149.26582 -10.9224 4.73
-88.03891 -3.62489 149.63713 -10.9224 5.89
-89.96295 -6.833744 169.68694 -11.1888 7.33
-90.154305 -7.4443526 170.04788 -11.1888 10.54
-89.10504 -1.044796 171.24507 -11.1888 14.78
-89.30202 -1.6454754 171.62363 -11.2776 14.55
-89.50091 -1.6491401 172.00586 -11.2776 17.59
-89.6998 -1.6528049 172.38809 -11.2776 7.36
-88.96168 -1.6894524 177.60281 -11.2776 15.52
-89.154655 -1.6931171 177.98807 -11.2776 16.43
-89.34763 -1.6967819 178.37334 -11.2776 8.49
-89.54061 -1.7004467 178.75859 -11.2776 9.31
3.8555622 0.037314143 5.7154174 -10.5672 6.39
4.0496097 0.03964628 6.104024 -10.5672 4.31
4.1372986 0.01799082 6.56057 -10.7448 7.08
4.736022 -0.1858875 6.1395583 -10.0344 6.81
3.61258 0.6576221 7.3174725 -11.2776 4.24
5.3277235 -0.20654167 6.770718 -10.0344 7.26
4.2916474 0.8515073 7.4247303 -11.1 9.6
3.6400871 0.32176822 8.2782135 -11.6328 7.79
6.7101297 -0.02298827 7.2935314 -9.4128 8.44
3.7464705 0.33709052 8.701548 -11.6328 2.9
6.9282284 -0.02398776 7.677745 -9.5016 8.15
3.986762 0.35241282 9.066615 -11.6328 7.05
7.1395197 -0.02498725 8.066808 -9.5016 7.62
3.3475108 -0.44429132 9.317658 -11.988 8.32
3.560432 -0.48292536 10.155632 -11.988 5.87
4.3664985 -0.5022424 10.3052225 -11.7216 1.56
4.4518256 -0.5215594 10.736208 -11.7216 6.82
4.229875 -0.39173156 11.292642 -11.8992 4.9
4.290668 -0.405722 11.729368 -11.988 1.05
4.438622 -0.4197124 12.133829 -11.988 9.37
6.4686913 -0.14992027 11.191108 -11.1888 11.13
4.514022 -0.43370283 12.564593 -11.988 11.63
6.415164 -0.15491761 11.715595 -11.1888 9.44
4.514022 -0.43370283 12.564593 -12.0768 19.37
6.458391 -0.15991496 12.181733 -11.2776 19.92
3.3117704 0.1649123 13.827684 -12.432 15.93
3.5216863 0.21521597 14.219405 -12.3432 8.16
3.6198828 0.8507812 14.6158905 -12.3432 6.77
3.1997643 0.8750892 15.153557 -12.432 6.76
3.2874343 0.9978388 15.5687475 -12.432 6.94
3.5986378 0.088621095 15.973615 -12.432 9.23
3.32728 1.025538 16.880674 -12.432 8.49
3.549624 -0.25952512 17.304686 -12.432 5.02
3.8084474 -0.4983554 18.56647 -12.5208 7.7
3.7357824 -1.6770469 18.953176 -12.2544 5.71
4.450947 0.1096103 19.75684 -12.432 5.05
4.5456476 0.11194243 20.177198 -12.432 15.13
3.0002844 0.17957303 20.899073 -12.6096 4.91
3.4120417 1.0530599 21.683847 -12.6096 9.96
3.7791736 0.7275015 22.073814 -12.6096 5.74
2.8091588 0.05297297 22.66421 -12.6096 5.4
2.6840692 -0.12593524 23.112932 -12.6096 5.64
3.4290206 0.0 23.885519 -12.6096 6.06
2.833184 0.13293163 24.396984 -12.6984 7.06
2.595563 0.28984585 24.855364 -12.6984 6.58
15.275744 -0.6402792 21.908346 -10.4784 8.94
5.68206 0.13992804 25.221497 -12.432 8.86
15.349194 -0.7135543 22.379375 -10.4784 6.44
3.2661104 -0.7538771 31.276592 -12.6984 8.48
3.4940674 -0.7642042 31.685371 -12.6984 6.68
3.5415301 -0.67460734 32.11578 -12.6984 4.81
23.81359 -1.241106 25.48696 -9.324 11.35
27.170074 -1.0759637 24.538334 -8.6136 7.05
23.791412 -0.65130055 27.83963 -9.6792 12.05
27.49209 -0.9740583 24.829159 -8.6136 6.38
24.07131 -0.6589629 28.167156 -9.6792 9.24
24.820808 -0.77354974 27.505999 -9.5016 11.43
27.811766 -0.9853845 25.11787 -8.6136 6.14
24.348064 -0.8984563 28.491001 -9.6792 8.07
25.109423 -0.78254455 27.825836 -9.4128 9.82
13.011861 -1.8170446 35.57043 -11.988 10.33
-5.957425 1.3636844 37.86 -12.6096 6.78
-6.0243626 1.3790066 38.285393 -12.6096 18.1
-6.386194 1.0420158 39.111153 -12.6096 8.65
-30.333649 -2.2058291 28.038958 -8.7912 14.88
-8.804791 0.96041876 39.082664 -12.5208 7.63
-8.899467 0.97074586 39.502907 -12.5208 6.55
-9.301032 1.0759946 39.850323 -12.432 7.4
14.507785 -0.7355865 38.731926 -11.988 26.31
-6.9754004 1.5987871 40.74269 -12.6096 12.38
-9.63156 1.0873208 40.214798 -12.432 9.89
14.658908 -0.7432489 39.135384 -11.988 14.94
-6.7305646 1.6154412 41.220192 -12.6096 9.49
14.810031 -0.75091124 39.53884 -11.988 10.54
-6.8035536 0.88148695 41.6672 -12.6096 12.96
-11.834283 1.4130317 41.85716 -12.3432 7.13
-13.084398 1.6987113 41.924618 -12.1656 7.52
-12.97603 -0.6519778 42.438446 -12.2544 10.6
-13.102951 0.3811346 42.853542 -12.2544 11.43
-11.684915 0.8198725 44.593513 -12.432 10.99
-3.7153711 0.8581843 48.10992 -12.6984 19.27
-4.122541 0.86584663 48.50914 -12.6984 20.14
-4.1592326 0.7216065 48.94088 -12.6984 8.93
-4.195717 0.7279363 49.370186 -12.6984 9.72
-3.5597544 1.0433927 49.84656 -12.6984 14.64
-3.5906568 0.89649606 50.279278 -12.6984 17.19
-3.9148865 -0.43244117 50.69342 -12.6984 15.09
-3.6525595 -0.27752396 51.14609 -12.6984 8.85
-14.177706 -1.69284 50.145706 -12.3432 10.21
-14.689557 -0.9348079 50.467087 -12.3432 8.89
-14.812265 0.12293727 50.88866 -12.3432 7.63
-14.530609 -1.5696412 51.393906 -12.3432 11.76
-14.346696 -1.7488017 51.887215 -12.432 10.89
-14.464099 -1.4271086 52.31182 -12.432 11.4
-0.31631246 0.6346625 54.719704 -12.6984 12.92
-14.579743 -1.3115396 52.73007 -12.3432 10.31
-14.692422 -1.6202748 53.137592 -12.3432 6.24
-0.32129374 0.6446572 55.581432 -12.6984 6.4
-14.807207 -1.6329331 53.552727 -12.3432 7.74
-3.2361598 0.47641826 55.921413 -12.6984 6.26
-14.193965 -1.4724137 54.16888 -12.3432 6.8
-3.2609518 0.6546519 56.349827 -12.6984 9.92
-14.303983 -1.3528479 54.588745 -12.432 16.92
-3.2859468 0.48374775 56.781742 -12.6984 19.06
-14.414173 -1.1873089 55.00927 -12.432 6.08
-1.10416 0.4874125 57.29699 -12.6984 16.43
-14.521518 -1.5063925 55.41893 -12.432 12.24
-11.924082 -1.6962252 56.47049 -12.5208 14.85
-14.305896 -1.529045 56.364235 -12.432 13.21
-14.4106245 -1.721542 56.776855 -12.432 5.97
-14.515196 -1.9166867 57.18886 -12.432 12.82
1.489307 0.5057363 59.443394 -12.6984 10.95
-14.621146 -1.930677 57.6063 -12.432 8.77
1.4999162 1.065068 59.866844 -12.6984 7.21
-14.3949 -1.4354646 58.12185 -12.432 9.35
3.5101156 0.0 60.65542 -12.6984 10.73
3.888056 0.0 61.064144 -12.6984 5.36
-0.36104363 -1.6423075 62.45787 -12.6984 7.87
-0.3635336 -1.6536338 62.88861 -12.6984 11.21
-0.36604488 -1.5180813 63.323048 -12.6984 10.68
-0.36853498 -1.5284084 63.75382 -12.6984 12.0
-0.3710251 -1.5387355 64.184586 -12.7872 11.69
-27.05678 0.5717019 61.53199 -11.7216 6.08
-27.23022 0.5753667 61.926426 -11.7216 10.18
-27.233624 0.3778057 64.27314 -11.8104 6.42
-27.401733 0.38013786 64.66989 -11.8104 9.09
-27.569841 0.38246998 65.066635 -11.8104 6.71
-24.27691 0.38246998 66.365616 -11.544 9.92
-24.42494 0.3848021 66.77029 -11.544 6.34
-25.451244 0.3848021 66.385864 -11.2776 8.95
-24.572971 0.38713425 67.17495 -11.544 8.86
-27.562078 0.61201423 66.46986 -11.8104 9.0
-27.727121 0.61567897 66.86788 -11.8104 16.2
-28.222248 0.6266732 68.06195 -11.8104 8.18
-27.858807 0.630338 68.67673 -11.8104 9.06
-28.020777 0.63400275 69.07601 -11.8104 7.71
-28.717377 0.6376675 69.25602 -11.8104 14.95
-36.52011 -2.050053 68.88375 -11.3664 20.87
-36.726566 -1.6370472 69.27317 -11.3664 21.7
-36.932423 -1.1583682 69.66145 -11.3664 6.58
8.574759 -0.23488015 100.89752 -12.6984 8.76
8.611247 -0.23587964 101.32687 -12.6984 6.69
7.924576 -3.6620288 102.61443 -12.6984 9.49
-30.681015 0.55738 98.30715 -12.2544 7.86
-30.809387 0.5597122 98.718475 -12.2544 5.21
-30.93776 0.5620443 99.1298 -12.2544 8.27
-31.064499 1.2093569 99.5359 -12.2544 6.7
-38.828087 -1.2393409 99.55193 -11.988 6.14
-38.986706 -0.58070135 99.95861 -11.988 7.79
6.196039 -3.1519408 107.068665 -12.6984 8.4
-40.493324 -0.5830335 99.822975 -11.8992 8.25
6.220923 -3.1645992 107.49866 -12.6984 11.43
6.2458067 -3.1772575 107.92865 -12.6984 9.18
7.7644114 -1.9385769 108.72357 -12.6984 10.75
7.7951007 -1.9462394 109.153305 -12.6984 7.04
7.8267446 -0.93451273 109.59641 -12.6984 7.24
-2.1253715 -0.25586945 110.28963 -12.6984 5.01
-2.7736576 -0.25686893 110.70626 -12.6984 6.38
41.646255 -1.3292931 106.77747 -11.8992 5.77
22.160852 -2.3926075 112.43122 -12.5208 6.74
42.625908 -1.6900783 106.84918 -11.8992 7.26
22.244164 -2.4016023 112.85389 -12.5208 6.6
42.785553 -1.6964082 107.24937 -11.8992 9.51
22.324625 -3.0354373 113.26211 -12.5208 5.59
43.8256 -2.2220843 117.00269 -11.988 8.67
43.971043 -3.0051813 117.39099 -11.988 5.55
43.21044 -3.3072677 118.12408 -11.988 6.49
44.695957 -2.716419 122.18501 -11.988 6.16
44.846638 -2.321695 122.59693 -11.988 4.92
44.994648 -2.3293574 123.00154 -11.988 6.3
40.68978 -2.4749422 133.07698 -12.1656 9.32
40.815754 -2.4826045 133.48898 -12.1656 9.09
40.936443 -3.3563023 133.8837 -12.1656 12.39
39.367744 -3.3769565 135.25087 -12.2544 4.73
39.485832 -3.7150128 135.65657 -12.2544 9.14
2.7448895 -6.8345656 142.4376 -12.6984 9.79
1.6519748 -6.855214 142.8849 -12.6984 7.0
60.8265 -4.2911963 132.73906 -11.6328 6.0
-88.71548 -0.8022541 118.74736 -10.3008 9.89
-88.97146 -1.2643408 119.08999 -10.3008 5.4
-82.42147 -0.8069184 124.23484 -10.656 8.06
-89.22935 -1.2680055 119.43518 -10.3008 4.68
-82.6579 -1.2716702 124.591225 -10.656 7.35
-89.48445 -1.7340778 119.77664 -10.3008 8.13
-83.85066 -2.2027986 124.29874 -10.7448 8.65
-95.64805 -1.275335 115.480675 -9.9456 7.43
-82.16016 -2.2091286 125.93731 -10.7448 5.9
-94.802704 -1.2789998 116.73127 -10.0344 5.06
-95.07434 -1.2826645 117.06574 -10.0344 4.33
76.44425 -4.430439 129.93002 -11.0112 6.62
-95.345985 -1.2863293 117.400215 -10.0344 4.09
75.66704 -3.6248064 130.90715 -11.0112 5.65
-83.04869 5.8788733 127.29928 -10.7448 8.95
-83.28396 5.8955274 127.6599 -10.7448 4.84
36.45327 -3.6351335 147.18626 -12.432 7.54
-84.54233 -3.6661148 127.43164 -10.7448 5.03
-83.05585 -0.83257186 129.48012 -10.8336 9.86
-83.2885 -0.834904 129.8428 -10.8336 9.15
-83.51935 -1.3156474 130.2027 -10.8336 9.21
-83.51935 -1.3156474 130.2027 -10.8336 10.13
-83.984634 -1.3229768 130.92805 -10.8336 8.44
-84.21728 -1.3266416 131.29074 -10.8336 5.03
-84.57931 -1.839022 134.11855 -10.8336 6.97
8.5551 -5.344338 164.29443 -12.6984 15.61
8.577496 -5.3583283 164.72452 -12.6984 4.83
8.599892 -5.3723187 165.1546 -12.6984 10.48
31.455011 -4.0172358 164.59326 -12.5208 13.91
35.977802 -3.5079582 164.11713 -12.432 10.96
36.070053 -3.516953 164.53793 -12.432 8.37
36.162304 -3.5259478 164.95876 -12.432 7.04
-87.21549 -0.9188608 145.65723 -11.0112 5.12
36.254555 -3.5349426 165.37956 -12.432 10.06
-87.43685 -0.92119294 146.02692 -11.0112 6.25
-87.65633 -1.4512433 146.39345 -11.0112 5.9
-87.87768 -1.454908 146.76314 -11.0112 8.39
-88.09903 -1.4585727 147.13281 -11.0112 5.09
-89.4576 -0.3987965 146.82233 -11.0112 6.64
-89.68181 0.399796 147.19029 -11.0112 5.48
-88.76607 -0.4007955 148.24683 -11.0112 6.38
-88.98743 -0.40179497 148.61652 -11.0112 6.31
3.5178502 -0.10760798 6.42442 -11.1 5.24
4.436103 -0.04197841 6.362222 -10.4784 8.04
4.733732 0.12026775 6.6787667 -10.3896 7.27
3.8034165 0.6723067 7.704022 -11.2776 5.3
3.4357657 1.192908 8.285836 -11.7216 3.98
3.716123 1.2497132 8.631063 -11.6328 6.16
7.060324 0.02398776 7.55645 -9.324 3.44
3.4762475 -0.08428938 9.280656 -11.8992 6.41
3.6273887 -0.08795414 9.684163 -11.8992 9.43
4.3058887 -0.33576992 9.396556 -11.544 8.31
4.257801 -0.34976032 9.889164 -11.7216 11.3
4.4265876 -0.46762586 10.281188 -11.7216 11.39
4.5344405 -0.5215594 10.701577 -11.7216 7.63
4.230644 -0.31713524 11.294695 -11.8992 13.92
4.291448 -0.3284615 11.731501 -11.8992 17.06
4.439429 -0.33978775 12.136035 -11.8992 15.86
6.1284566 -0.888845 11.347216 -11.1 7.0
3.458697 -0.43370283 12.895069 -12.3432 5.14
4.417852 -0.35111403 12.601301 -11.988 9.79
3.493264 -0.44769323 13.331454 -12.3432 8.29
3.2314906 -0.25285786 13.845339 -12.3432 7.75
3.3292155 -0.305822 14.264041 -12.3432 6.83
3.5104985 -0.5362804 14.657436 -12.2544 3.77
3.3982697 1.2460208 15.084222 -12.3432 5.78
3.4029913 1.2806325 15.523158 -12.432 6.49
3.5736737 4.5720434 15.311424 -12.3432 4.59
5.949778 0.088621095 15.254727 -11.8104 4.52
3.6921167 -0.4417241 16.38855 -12.432 4.64
3.785265 -0.6661613 16.802015 -12.3432 2.78
3.6499348 -0.095617495 17.28549 -12.432 6.75
3.7390125 0.0 17.707348 -12.432 8.34
3.8280263 -0.04297807 18.128902 -12.432 14.49
4.059772 -0.16124925 18.519144 -12.432 15.62
3.1180158 -1.2734337 19.095755 -12.5208 13.18
3.9743364 -1.3017323 19.37519 -12.5208 8.31
3.5272996 -1.1424776 19.910011 -12.5208 4.82
3.3328547 -0.23987244 20.411499 -12.5208 6.48
2.936439 0.76611483 21.3302 -12.5208 6.89
3.1212115 0.7135111 21.741415 -12.6096 3.52
3.1105409 1.1649007 22.594868 -12.6096 4.4
6.084882 -0.47672254 22.006987 -12.2544 5.09
2.236031 1.0431188 23.137411 -12.6096 4.93
6.199691 -0.4857173 22.422213 -12.2544 9.23
3.367779 0.05497195 23.45893 -12.6096 5.43
3.566981 0.1305995 23.864948 -12.6096 9.4
2.6919684 0.2848485 24.41167 -12.6096 8.82
2.881108 0.88869315 24.809666 -12.6096 8.81
2.9307823 0.9040155 25.23742 -12.6096 9.34
15.029362 -0.62995213 21.554987 -10.4784 10.81
15.275744 -0.6402792 21.908346 -10.4784 9.03
15.519886 -0.797479 22.258492 -10.4784 9.07
2.517665 0.16091725 29.624876 -12.6096 5.81
2.554153 0.16324939 30.054222 -12.6096 6.02
2.355618 0.16558151 30.502628 -12.6096 4.56
2.38867 -0.35980865 30.930616 -12.6096 7.73
24.668337 -0.7195812 24.068115 -8.88 6.22
24.11012 -1.1472139 25.804329 -9.324 6.03
23.776669 -0.53171 27.285688 -9.5904 10.19
24.246248 -0.53171 26.86928 -9.4128 10.92
24.269142 -0.764555 27.421246 -9.5016 9.09
27.008596 -0.9740583 25.354246 -8.7024 11.35
24.820808 -0.77354974 27.505999 -9.5016 12.16
27.32265 -0.9853845 25.649063 -8.7024 7.42
24.62142 -0.8984563 28.255108 -9.5904 13.04
-5.9586225 1.1265973 37.867607 -12.6096 7.97
-6.0255733 1.1392556 38.293087 -12.6096 13.35
-6.316235 1.1519141 38.6827 -12.6096 12.85
-29.521025 -1.0646683 27.71278 -8.88 8.62
-7.21409 0.9500917 38.96929 -12.5208 10.61
-29.835077 -1.0759946 28.007597 -8.88 4.73
-8.804791 0.96041876 39.082664 -12.432 6.52
-30.143652 -1.3430797 28.29727 -8.88 6.98
-8.901894 0.2192206 39.51368 -12.432 9.12
-8.996121 0.47474754 39.93194 -12.432 7.19
-9.090447 0.6076686 40.35063 -12.432 12.29
14.805873 -0.7355865 38.61896 -11.8992 10.3
-6.4905014 1.8737504 41.24775 -12.5208 10.48
14.959206 -0.8724922 39.01891 -11.8992 13.39
-6.8014483 1.3710605 41.65431 -12.5208 11.43
15.111495 -1.1099733 39.416134 -11.8992 16.98
-12.161637 0.639318 41.782227 -12.3432 10.19
-12.28205 0.6456479 42.195915 -12.3432 10.54
-12.0736885 0.6519778 42.703922 -12.2544 9.19
-13.3480215 0.9354555 42.76931 -12.2544 13.73
-13.4746475 1.1892571 43.17504 -12.1656 15.35
-11.831956 0.5297183 44.11311 -12.3432 10.71
-11.792597 1.1153251 45.004463 -12.3432 9.09
-3.7151492 1.0074136 48.107044 -12.6984 8.4
-3.467692 1.0164084 48.557426 -12.6984 7.86
-3.4981368 1.1772876 48.98374 -12.6984 7.73
-3.1480918 1.034398 49.44258 -12.6984 9.61
-4.3786 -0.1199388 51.522137 -12.6096 6.87
-13.10665 0.0 50.019325 -12.3432 8.59
-13.507197 0.0 50.358917 -12.3432 8.27
-14.00882 -0.60967577 50.665226 -12.3432 6.45
-14.41868 -0.61467314 50.99802 -12.3432 5.39
-14.578893 -1.4384348 52.726994 -12.3432 18.9
-0.318813 0.46908873 55.152283 -12.6984 8.0
-14.693687 -1.4497612 53.142166 -12.3432 13.11
0.0 0.3008453 55.585285 -12.6984 14.62
-14.39526 -1.4610873 53.669884 -12.3432 17.19
-14.507696 -1.3425208 54.08908 -12.3432 8.19
-14.619294 -1.3528479 54.50515 -12.3432 11.69
-5.907454 0.3078417 56.570354 -12.6984 5.39
-14.414173 -1.1873089 55.00927 -12.3432 12.22
-2.9801714 0.13293217 57.232006 -12.6984 9.32
-14.523372 -1.1963037 55.426006 -12.3432 9.98
1.1125021 0.0 57.72988 -12.6984 11.95
-14.630702 -1.5177187 55.835617 -12.3432 9.7
1.4569836 0.0 58.15325 -12.6984 10.86
-14.739886 -1.529045 56.2523 -12.3432 5.9
1.4677229 0.4984068 58.581898 -12.6984 10.76
-14.849071 -1.5403712 56.668983 -12.3432 8.41
1.1373677 0.50207156 59.020206 -12.6984 10.97
-14.958255 -1.5516975 57.085667 -12.3432 9.35
1.489307 0.5057363 59.443394 -12.6984 9.74
-14.624657 -1.4251375 57.620132 -12.3432 12.15
1.8460441 -0.8798535 59.86018 -12.6984 10.78
-14.730633 -1.4354646 58.037666 -12.3432 14.06
-14.836609 -1.4457917 58.455204 -12.432 9.55
-14.941713 -1.5970025 58.86931 -12.432 8.67
-11.908602 -2.1910884 60.417286 -12.5208 8.96
47.862553 -2.0426004 40.778034 -8.2584 9.51
0.35867664 0.14392656 62.048397 -12.6984 5.29
48.19038 -2.0565908 41.057335 -8.3472 8.8
48.19038 -2.0565908 41.057335 -8.2584 9.61
-0.36108974 -1.304241 62.465843 -12.6984 8.93
-0.3635336 -1.6536338 62.88861 -12.6984 11.31
-0.36602354 -1.66496 63.319355 -12.6984 10.11
-0.36848179 -1.8734426 63.74461 -12.6984 9.01
-0.37093604 -2.0845716 64.16918 -12.6984 8.45
-27.80951 0.5607076 59.772724 -11.544 7.68
-27.823128 0.36148077 60.717216 -11.6328 7.14
-27.232191 0.8095695 64.26976 -11.8104 8.54
-27.401142 0.5973552 64.668495 -11.8104 8.12
-24.12836 0.5973552 65.959526 -11.4552 8.12
-24.78769 0.38246998 66.17654 -11.2776 7.31
-27.569248 0.6010199 65.06524 -11.8104 19.27
-24.787155 0.6010199 66.17511 -11.544 7.34
-24.937521 0.8245615 66.576546 -11.4552 22.6
-24.571678 0.82955885 67.17142 -11.4552 21.47
-27.561222 0.83455616 66.46779 -11.8992 15.5
-27.727121 0.61567897 66.86788 -11.8992 6.04
4.6273346 0.0 72.674934 -12.6984 11.42
-27.696836 0.6266732 68.27744 -11.8992 7.13
-27.85794 0.8595429 68.67459 -11.8992 12.2
-29.081291 0.8645402 68.63376 -11.8104 8.97
-35.99667 -1.1457086 69.17962 -11.3664 7.67
-36.730606 -1.1520385 69.28079 -11.2776 9.23
-36.932423 -1.1583682 69.66145 -11.2776 6.32
-36.43803 -1.6730262 71.36579 -11.4552 6.78
-36.633934 -1.682021 71.74948 -11.4552 6.31
-36.829838 -1.6910157 72.13317 -11.4552 10.07
46.09757 -1.6167579 78.35068 -10.9224 6.6
46.313274 -1.9068902 78.7173 -10.9224 6.49
46.53173 -1.9158849 79.08861 -10.9224 6.65
44.821125 -5.85219 81.85389 -11.1 9.1
6.5137887 -3.0126984 102.30278 -12.6984 10.45
6.541721 -2.706976 102.74147 -12.6984 7.58
6.569475 -2.4785001 103.17736 -12.6984 5.62
-30.238232 0.5597122 98.89492 -12.1656 4.95
-30.364223 0.5620443 99.306984 -12.2544 6.0
6.07104 -3.4136608 104.90865 -12.6984 5.13
6.0959215 -3.4276512 105.3386 -12.6984 8.85
6.1213884 -3.1139655 105.77868 -12.6984 7.7
6.196573 -2.8202384 107.07788 -12.6984 5.83
6.842804 -2.8315647 107.47015 -12.6984 7.59
7.795492 -1.6077899 109.15879 -12.6984 9.46
-2.1168466 -1.6141198 109.84725 -12.6984 7.52
-35.77296 0.608687 106.62213 -12.0768 9.36
-35.910023 0.61101913 107.03065 -12.0768 6.63
-36.047085 0.6133512 107.439156 -12.0768 8.04
41.64247 -2.0381877 106.76777 -11.8104 8.37
41.80112 -1.6900783 107.17454 -11.8104 10.71
41.959385 -1.3392878 107.580315 -11.8104 8.61
42.395798 -0.2908516 118.00695 -11.988 7.48
41.32466 -3.325321 132.41118 -12.1656 9.39
41.45058 -3.6583817 132.81465 -12.1656 10.13
41.57891 -3.6697078 133.22585 -12.1656 6.57
41.70724 -3.681034 133.63704 -12.1656 7.87
38.20473 -3.6923604 135.12787 -12.2544 8.11
38.318623 -4.1392956 135.5307 -12.2544 10.15
40.26587 -4.151954 135.4144 -12.3432 12.34
60.61226 -6.529151 132.27153 -11.544 8.84
60.791584 -6.548468 132.66287 -11.544 8.71
60.97908 -6.115107 133.07204 -11.544 3.93
-86.389244 -1.2570112 119.915695 -10.3896 5.63
-86.641106 -1.260676 120.265305 -10.3896 6.39
-90.53338 -1.260676 117.36325 -10.212 4.55
-88.05285 -0.80458623 119.77476 -10.3896 5.09
-82.41969 -1.2680055 124.23217 -10.7448 4.75
-89.23126 -0.8069184 119.43775 -10.3008 10.94
-82.6579 -1.2716702 124.591225 -10.7448 11.74
-82.897896 -0.8115826 124.952965 -10.7448 7.25
-95.65125 -0.34782252 115.48454 -9.9456 7.05
36.776146 -3.1211834 144.89545 -12.3432 6.66
-95.92611 -0.348822 115.81639 -9.9456 3.93
36.04153 -3.1301782 145.52379 -12.3432 7.82
-82.386505 3.1481676 126.28427 -10.7448 10.91
-96.20097 -0.3498215 116.14825 -9.9456 10.31
36.145096 -3.1391728 145.94196 -12.3432 6.34
-82.60424 4.443097 126.61801 -10.7448 4.98
36.25083 -2.6818259 146.36888 -12.3432 6.06
76.88107 -4.4557557 130.67249 -10.9224 8.16
77.09949 -4.468414 131.04372 -10.9224 5.68
-82.586205 -1.7740566 128.74797 -10.8336 12.37
-82.81884 -1.7790539 129.11064 -10.8336 7.01
-83.05585 0.83257186 129.48012 -10.8336 12.87
-82.283516 -1.3119825 130.47807 -10.8336 9.33
-82.51336 -1.3156474 130.84254 -10.8336 7.54
-82.7432 -1.3193121 131.207 -10.8336 10.27
-82.97304 -1.3229768 131.57147 -10.8336 11.29
35.337498 -5.050539 151.4037 -12.432 10.87
36.319008 -4.100106 151.6433 -12.3432 8.13
35.539734 -4.111432 152.27017 -12.3432 9.41
-83.77453 -0.86055744 135.13976 -10.9224 10.95
-84.001564 -0.8628896 135.506 -10.9224 9.32
7.309415 -3.9552732 164.8253 -12.6984 6.27
8.601956 -3.9656003 165.19426 -12.6984 11.33
34.715656 -2.4686537 164.40762 -12.432 11.02
34.806084 -1.9539609 164.83589 -12.432 12.27
4.2611556 -0.22384661 5.415274 -9.9456 4.67
4.172874 0.6561182 5.9847016 -10.3896 4.87
4.6156287 -0.23783703 5.683258 -9.8568 7.1
4.0461397 -0.30575538 6.098794 -10.5672 5.24
4.435201 -0.16190577 6.360929 -10.3896 7.5
4.8410754 -0.22785114 6.0556345 -9.9456 7.36
4.2342505 -0.32374096 6.4903736 -10.656 7.79
4.629713 -0.17090052 6.750197 -10.3896 6.88
4.150966 -0.14558484 7.055274 -10.8336 7.47
3.9935873 0.70592207 8.089223 -11.3664 3.81
3.391927 0.6780183 8.361681 -11.6328 6.11
3.5534475 0.71030486 8.759856 -11.6328 5.23
3.5941741 0.6202782 9.215158 -11.7216 3.95
3.6978006 0.49555764 9.645174 -11.8104 7.0
3.3192968 1.1758968 10.635587 -12.0768 8.54
4.076284 0.46631292 11.346168 -11.8992 7.66
4.1208987 -1.003739 11.754285 -11.8992 7.66
4.264796 -0.96859753 12.16473 -11.8992 10.76
3.285249 -0.3201396 12.943652 -12.2544 5.22
3.3916628 -0.24519551 13.362915 -12.2544 10.25
3.4124198 0.8460688 13.778223 -12.1656 10.83
3.3240416 0.8717072 14.241874 -12.3432 10.02
3.5071263 0.8507812 14.643356 -12.3432 7.01
5.636632 -0.08395682 14.451847 -11.7216 9.0
3.3734694 5.701695 14.974138 -12.3432 6.1
5.7932053 -0.08628896 14.853288 -11.7216 8.57
2.854902 -0.5316357 16.114632 -12.432 4.23
4.6932645 5.85174 15.038012 -12.1656 9.28
5.861373 -0.13926072 15.288536 -11.7216 6.55
2.925248 -1.1036426 16.511702 -12.432 4.59
6.436653 -0.14292547 15.522901 -11.6328 3.52
3.2311661 0.8791703 16.907581 -12.432 5.4
3.7826982 -0.25952512 17.255238 -12.432 7.63
3.7379384 -0.43373752 17.702261 -12.432 3.76
3.8256156 -0.6588587 18.117485 -12.432 8.61
3.8069172 -0.7327774 18.55901 -12.432 15.7
3.524623 1.0339824 19.039417 -12.432 6.1
2.81221 1.1181695 19.589005 -12.5208 9.5
3.6792905 1.267525 19.874905 -12.432 5.0
3.0502212 1.422152 20.407557 -12.5208 6.89
3.4019802 0.37545562 20.834845 -12.432 4.78
3.3472204 0.69952065 21.271902 -12.432 5.99
2.994824 0.84935564 21.754305 -12.5208 7.8
2.881756 1.0044848 22.198 -12.5208 9.12
5.8016853 -0.7275015 21.630438 -12.2544 8.67
2.9359472 1.2178016 22.61543 -12.5208 3.96
2.9913425 1.2407789 23.042137 -12.5208 6.35
3.0502024 -0.5679896 23.495531 -12.5208 8.74
3.1045883 0.8580486 23.914461 -12.432 4.79
2.8314338 0.8733709 24.381912 -12.5208 7.28
3.2158048 0.811444 24.771156 -12.5208 7.14
3.6126652 0.1375959 25.164732 -12.5208 8.51
2.8301525 1.3187555 25.66477 -12.5208 6.4
15.089278 -1.424598 22.000414 -10.3896 6.29
3.7343693 0.54868066 26.012486 -12.5208 6.82
15.332654 -1.4475754 22.355259 -10.3896 5.41
2.8194666 -0.14692445 26.999487 -12.6096 4.51
2.6527388 -0.14925657 27.449312 -12.6096 5.2
4.2228155 0.9653385 29.414856 -12.5208 6.04
2.553088 0.8860878 30.04169 -12.6096 5.51
2.5895607 0.89874613 30.470858 -12.6096 3.81
2.388453 -0.5516899 30.927805 -12.6096 4.75
3.2665324 -0.5593523 31.280632 -12.6096 7.38
24.048557 -0.8834482 23.463417 -8.88 7.17
23.037952 -1.0000134 25.04095 -9.2352 6.67
24.356873 -0.89477444 23.764229 -8.88 13.14
23.316181 -1.5453612 25.343369 -9.2352 7.54
25.611332 -1.3489766 23.673876 -8.6136 15.44
26.119331 -0.8364938 23.136404 -8.2584 9.25
25.92752 -1.3656306 23.966146 -8.6136 6.86
24.107584 -1.2564282 25.801613 -9.2352 6.17
23.960123 -0.08295767 26.552202 -9.4128 8.11
23.084644 -0.6436382 27.871246 -9.768 6.8
24.50498 -0.41977677 26.635527 -9.324 7.94
24.53589 -0.4247741 27.190258 -9.324 6.06
22.179134 -0.08595614 29.687195 -10.1232 9.44
24.824549 -0.42977145 27.510143 -9.4128 14.28
24.628428 0.08695563 28.26315 -9.5016 15.89
24.911512 0.08795512 28.588015 -9.5016 17.88
15.603471 -1.564748 34.050785 -11.8104 14.25
14.803871 -1.9990327 34.383453 -11.544 9.48
-5.8929315 0.7915393 37.450134 -12.5208 10.18
15.782821 -1.5827336 34.442173 -11.8104 16.87
15.241635 -2.02201 34.662224 -11.544 7.78
-6.0277696 0.44976082 38.307045 -12.5208 9.86
-6.318945 0.09095359 38.6993 -12.5208 18.47
-6.682072 1.8996376 39.029385 -12.5208 13.94
-8.806729 0.46475285 39.091263 -12.3432 9.61
-9.205975 0.34448704 39.443047 -12.432 8.71
14.650769 -0.8545026 38.214394 -11.8104 5.38
-8.312189 -0.09595104 40.522552 -12.432 12.61
14.804987 -0.86349744 38.61665 -11.8104 12.08
-10.046659 0.7432489 40.56509 -12.2544 8.05
14.959206 -0.8724922 39.01891 -11.8104 13.85
-13.738179 0.75091124 39.92392 -12.2544 14.6
15.113424 -0.88148695 39.421165 -11.8104 13.72
-12.400732 1.0430355 41.70375 -12.2544 18.06
-12.52438 0.917466 42.11958 -12.2544 8.19
-12.647168 0.92646074 42.532516 -12.1656 6.38
-13.095139 1.5935189 42.82799 -12.1656 8.24
-13.475432 1.0843438 43.17756 -12.1656 5.75
-11.57571 0.81221014 44.17675 -12.2544 11.5
-3.4375222 0.55970234 48.134968 -12.6096 9.94
-3.4682143 0.5646997 48.564743 -12.6096 6.63
-3.4989066 0.569697 48.99452 -12.6096 8.43
-3.5295987 0.5746944 49.424297 -12.6096 12.65
-2.8875604 0.5796917 49.897556 -12.6096 5.8
-3.2030327 0.89649606 50.30546 -12.6096 11.13
-3.621528 0.746926 50.711563 -12.6096 5.35
-12.614707 -0.11893931 49.701065 -12.3432 6.41
-12.720713 -0.1199388 50.11872 -12.3432 10.21
-12.825891 -0.60467845 50.533115 -12.3432 8.54
-11.551864 -0.9348079 51.276352 -12.432 14.5
-14.3014555 -0.60967577 50.5834 -12.2544 7.74
-12.042389 -1.3931298 51.59568 -12.3432 11.32
-14.535906 -0.61967045 51.41264 -12.2544 6.4
-14.651799 -0.95779496 51.822548 -12.2544 17.44
-14.766245 -1.4271086 52.227337 -12.2544 18.46
-0.31631246 0.6346625 54.719704 -12.6096 14.88
-14.577638 -1.6076164 52.722454 -12.2544 12.2
-0.31881988 0.29851314 55.15347 -12.6096 15.6
-14.282438 -1.6202748 53.249252 -12.2544 17.06
-14.085602 -1.3321939 53.75533 -12.2544 10.04
-6.139768 0.47641826 55.677467 -12.6096 6.91
-14.505602 -1.6455916 54.081272 -12.2544 8.8
-6.186997 0.48008302 56.10576 -12.6096 12.91
-14.301918 -1.65825 54.580864 -12.3432 7.65
-3.2858446 0.6596492 56.77998 -12.6096 7.74
-13.986782 -1.6709083 55.10695 -12.3432 9.23
-3.3104365 1.0190939 57.204933 -12.6096 9.8
-14.092743 -1.6835668 55.524426 -12.3432 8.3
1.4458759 1.2052984 57.709908 -12.6096 10.51
1.456666 1.2142932 58.14058 -12.6096 6.46
-14.306729 -1.3941563 56.36752 -12.3432 10.57
1.4677545 -0.31717023 58.583157 -12.6096 8.88
-14.8499365 -1.4044834 56.672287 -12.3432 8.24
1.1373923 -0.31950235 59.021477 -12.6096 11.31
0.6874539 0.0 59.460228 -12.6096 10.49
-14.287909 -1.930677 57.689854 -12.3432 9.22
2.6534874 -0.32416663 59.835415 -12.6984 6.28
-14.391444 -1.9446675 58.107895 -12.3432 11.89
0.0 -0.32649878 60.325115 -12.6096 10.03
3.158531 -1.4561188 60.65727 -12.6096 14.43
47.082554 -1.3132356 41.705547 -8.5248 8.25
-0.36599204 -1.8607843 63.313904 -12.6096 13.07
-0.36844653 -2.0705812 63.738514 -12.6096 7.87
-0.3708544 -2.4814508 64.15506 -12.6096 11.5
-27.264223 0.5497134 58.600708 -11.6328 9.24
-27.445133 0.75459874 58.989548 -11.6328 11.03
-27.626888 0.75959605 59.380207 -11.6328 9.24
-28.638012 0.7745881 60.333256 -11.544 8.35
-28.340862 -2.6313372 61.84705 -11.6328 6.0
-27.6047 0.3778057 64.11465 -11.7216 8.39
-27.774502 0.5973552 64.509026 -11.7216 8.73
-24.2772 0.16391636 66.36641 -11.3664 10.79
-25.451244 0.3848021 66.385864 -11.1888 8.39
-24.425232 0.16491584 66.77108 -11.3664 10.71
-25.605495 0.38713425 66.7882 -11.1888 9.25
-25.759745 0.38946638 67.19054 -11.1888 6.55
-27.561222 0.83455616 66.46779 -11.8104 10.71
4.5999413 0.16791432 72.24471 -12.6096 11.04
-28.05781 0.3964628 67.66538 -11.8104 22.21
-28.222248 0.6266732 68.06195 -11.8104 10.67
-28.387901 0.40112704 68.46145 -11.8104 9.9
-29.479094 0.4034592 68.46811 -11.7216 7.44
-36.726566 -1.6370472 69.27317 -11.1888 6.41
-36.92836 -1.646042 69.65379 -11.1888 5.14
-37.668827 -1.6550367 69.74616 -11.1888 6.53
-37.17789 -2.3671203 71.44973 -11.3664 6.12
-37.376705 -2.3797786 71.83181 -11.3664 10.0
47.445107 -1.3229452 76.53544 -10.7448 8.98
47.674053 -1.0494419 76.90476 -10.7448 5.44
45.49788 -0.77326345 78.713234 -10.9224 8.18
47.90256 -0.77326345 77.27338 -10.7448 8.3
43.872807 -0.77692825 80.12204 -10.9224 8.26
44.34722 -5.85219 82.11161 -11.1 10.63
44.53345 -6.4589405 82.456436 -11.1 10.52
6.4869785 -2.6843233 101.88171 -12.6096 6.14
6.5143495 -2.6956496 102.311584 -12.6096 5.13
7.3333855 -2.706976 102.687996 -12.6096 6.05
7.514467 -4.080238 105.22364 -12.6096 10.19
7.546005 -3.769285 105.66526 -12.6096 8.86
6.9539413 -1.6077899 109.21563 -12.6096 10.6
-35.773388 0.26086688 106.623405 -12.0768 5.5
-35.910023 0.61101913 107.03065 -12.0768 5.86
45.639072 -2.3140326 121.844185 -11.8104 7.64
35.38236 -2.4826045 135.03082 -12.1656 6.13
39.132015 -2.4902668 134.44101 -12.1656 6.61
40.031296 -2.4979293 134.62552 -12.1656 10.16
40.15409 -2.5055916 135.03848 -12.1656 9.0
-18.577421 -3.7942967 143.1008 -12.432 9.46
36.69466 -2.12684 140.039 -12.2544 9.62
35.72024 -2.13317 140.73528 -12.2544 9.62
-89.36858 -0.34282506 117.718285 -10.212 8.32
-89.629135 -0.34382457 118.061485 -10.212 5.75
-82.184456 0.0 123.877594 -10.656 4.85
-89.88969 -0.34482405 118.404686 -10.212 5.05
-82.422676 0.0 124.236664 -10.656 4.93
-89.23233 -0.34582353 119.43918 -10.3008 7.16
-82.66067 -0.34682304 124.59539 -10.656 4.22
-84.81409 -0.8115826 123.66032 -10.5672 8.06
33.98132 -2.1964688 145.59314 -12.3432 13.37
-84.09945 -0.8139148 124.66755 -10.656 16.08
-95.92637 0.0 115.8167 -9.9456 14.1
34.922707 -2.2027986 145.8133 -12.2544 6.49
-96.201225 0.0 116.14856 -9.9456 9.71
35.0213 -2.6741636 146.22495 -12.2544 8.64
35.11711 -3.6144793 146.62498 -12.2544 5.61
36.349712 -3.6248064 146.76813 -12.2544 10.04
34.464783 -3.6351335 147.66454 -12.2544 5.67
-83.05684 0.35681793 129.48167 -10.8336 5.41
-83.2885 -0.834904 129.8428 -10.8336 7.04
-83.52115 -0.8372361 130.2055 -10.8336 11.62
-83.75199 -1.3193121 130.56538 -10.8336 9.26
-83.982025 -1.8040407 130.924 -10.8336 8.98
32.04522 -2.2787573 151.76088 -12.3432 8.04
-84.21466 -1.8090379 131.28667 -10.8336 6.45
33.306194 -2.285087 151.93025 -12.3432 10.21
87.4366 -4.594998 129.61447 -10.4784 9.73
33.399815 -1.8090379 152.35732 -12.3432 11.31
86.673134 -4.6076565 130.64343 -10.5672 10.6
33.492077 -1.8140353 152.77818 -12.3432 6.12
86.91873 -4.1340847 131.01363 -10.5672 11.75
-84.80914 -1.8440194 134.483 -10.8336 9.6
-85.03898 -1.8490167 134.84746 -10.8336 5.41
-84.22416 -1.854014 135.86508 -10.8336 6.08
-84.45118 -1.8590114 136.2313 -10.8336 4.41
7.2903304 -3.944946 164.39494 -12.6096 5.41
7.309415 -3.9552732 164.8253 -12.6096 8.27
7.3290076 -3.4539897 165.26712 -12.6096 8.59
3.8957517 0.7727992 3.9503093 -8.88 0.0
3.8556085 -0.01599184 5.715486 -10.4784 1.39
3.8595877 0.0 6.2260423 -10.7448 3.89
4.5200872 0.48107496 5.744336 -9.9456 8.41
4.035692 0.0 6.623581 -10.656 5.8
4.332588 -0.37166822 6.4225526 -10.3896 10.84
4.7326202 -0.34770626 6.1351485 -9.9456 7.53
4.256185 -0.34172657 6.985465 -10.656 6.57
4.6772423 -0.39231646 6.708062 -10.3008 9.14
4.9955435 -0.3670233 6.47599 -9.9456 6.07
3.8243713 1.1625179 7.634963 -11.1888 3.59
4.077258 1.2206438 7.9855237 -11.1888 6.48
3.596344 1.307814 8.673093 -11.6328 4.47
3.7114806 0.8571573 9.149435 -11.6328 5.41
3.2753673 0.9581352 9.762307 -11.8104 5.64
3.974452 0.9980575 9.962648 -11.8104 6.09
4.324974 -0.7739381 9.835771 -11.544 6.32
4.607408 -0.7739381 9.7066765 -11.2776 8.64
4.465981 -3.664715 9.599013 -11.544 4.53
4.600541 -0.13492824 10.685212 -11.544 6.56
4.143996 -0.2518534 11.328412 -11.8104 9.94
4.291996 -0.26084816 11.732998 -11.8104 12.11
4.439996 -0.26984295 12.137585 -11.8104 16.66
6.4155955 0.0 11.716383 -11.0112 17.07
4.5879955 -0.2788377 12.542171 -11.8104 7.31
6.71555 -0.03198368 12.042897 -10.9224 13.06
3.6734219 -0.3624403 13.285542 -12.1656 7.16
6.9254107 -0.03298317 12.419238 -10.9224 7.06
3.0433338 -0.46168363 13.882537 -12.2544 4.46
3.4211602 -0.9439016 14.657979 -12.2544 6.58
3.3988957 -1.2101521 15.087001 -12.2544 6.19
3.4933095 -1.2437675 15.506084 -12.2544 5.39
5.9075823 -0.03698113 14.808373 -11.6328 7.35
6.0671744 -0.088621095 15.208418 -11.6328 5.75
3.692588 0.35079584 16.390642 -12.2544 8.96
6.2268367 -0.09095323 15.608639 -11.6328 7.21
3.5597339 0.45305035 16.858315 -12.2544 7.06
6.7243514 -0.09328536 15.869911 -11.544 9.28
3.64768 -0.6282141 17.274813 -12.3432 3.62
3.7366478 -0.64353645 17.69615 -12.3432 11.08
3.9655561 -0.6015878 18.089367 -12.3432 16.83
4.0581665 -0.55696946 18.51182 -12.3432 19.3
4.150755 -0.50968164 18.934174 -12.3432 17.65
5.1648107 -0.6295686 18.679398 -12.0768 10.64
5.3898716 -0.64355904 19.063658 -12.0768 4.92
2.9937162 0.1096103 20.02951 -12.3432 7.31
4.817374 0.11194243 20.114054 -12.2544 6.46
2.9950771 1.256284 20.8628 -12.3432 8.02
3.3430529 1.2819223 21.245417 -12.432 7.93
3.5351222 1.3075608 21.650251 -12.3432 7.11
3.050963 1.2640178 22.162098 -12.432 4.84
3.2407057 1.2178016 22.573774 -12.432 4.28
3.4347456 1.2407789 22.980225 -12.432 8.66
2.8783405 1.409866 24.785833 -12.5208 7.77
2.7834096 1.2182459 25.24089 -12.5208 7.53
2.550123 -1.7015624 30.006802 -12.5208 7.38
2.5880742 -1.371508 30.453367 -12.5208 7.35
2.8043387 -1.0073098 30.881374 -12.5208 5.14
3.066606 -0.6656126 31.731815 -12.5208 10.36
3.1076498 -0.8494694 32.15652 -12.5208 12.25
22.94364 -0.49373075 24.55588 -9.2352 14.63
23.23779 -0.5000606 24.870697 -9.2352 6.85
24.12472 -1.0000134 23.995716 -8.88 10.79
25.311325 -0.5063905 23.396564 -8.5248 10.96
14.781864 0.0799592 31.141754 -11.3664 5.07
25.627716 -0.5127204 23.689022 -8.5248 11.27
14.966638 0.08095869 31.531027 -11.3664 15.42
21.658678 0.7555602 28.990555 -10.0344 9.11
24.247234 -0.41977677 26.870373 -9.324 13.53
24.534893 -0.5380399 27.189152 -9.324 12.28
14.351637 -1.217166 34.611004 -11.6328 11.49
14.516598 -1.2311563 35.00883 -11.6328 10.26
-5.9591355 1.0080371 37.87087 -12.432 11.21
14.68156 -1.2451468 35.406662 -11.6328 7.23
-6.026092 1.0193633 38.296383 -12.432 7.62
-7.1352596 1.0306896 38.54347 -12.432 11.22
-7.2136693 1.0420158 38.967022 -12.432 16.29
-8.804278 1.0533421 39.080387 -12.3432 13.86
-8.894266 1.6906472 39.479824 -12.3432 15.88
-8.988886 1.708633 39.899822 -12.3432 11.81
-9.091295 0.22388487 40.354397 -12.3432 9.3
-10.280363 0.8724922 40.503914 -12.3432 10.82
-6.5617447 1.1099733 41.70051 -12.432 10.58
-9.373493 0.8904817 41.607014 -12.3432 15.22
-9.225078 0.89947647 42.081314 -12.3432 6.96
-12.157701 1.278498 41.768703 -12.1656 6.13
-12.278073 1.2911564 42.182255 -12.1656 8.85
-12.398447 1.3038149 42.595806 -12.1656 9.71
-12.518821 1.3164732 43.009357 -12.1656 11.13
-13.805821 1.3291316 43.0662 -12.0768 8.68
-11.832323 0.38846412 44.11448 -12.1656 17.21
-11.943949 0.39212885 44.530655 -12.2544 7.28
-12.053384 0.9714346 44.93866 -12.2544 6.77
-12.164145 1.1256521 45.351612 -12.2544 18.09
-4.122541 0.86584663 48.50914 -12.5208 14.1
-4.159024 0.873509 48.938423 -12.5208 7.72
-4.195506 0.88117135 49.36771 -12.5208 6.18
-3.590442 1.0523875 50.27627 -12.5208 8.5
22.770395 -0.5896864 45.458744 -11.2776 8.54
-9.830754 1.0613823 49.875504 -12.432 8.48
-10.3014345 1.070377 50.220272 -12.3432 12.88
-11.255834 0.7722455 51.344852 -12.2544 16.08
-14.348068 -1.5822996 51.892178 -12.1656 9.37
-0.3162996 0.80389494 54.71748 -12.6096 9.1
-14.578893 -1.4384348 52.726994 -12.1656 8.74
-0.31879014 0.81022483 55.148327 -12.6096 8.01
-14.694544 -1.3218668 53.145264 -12.1656 7.86
-1.0709188 0.6446572 55.572044 -12.6096 6.95
-14.809345 -1.3321939 53.560463 -12.2544 10.85
-1.4029704 0.47641826 55.997402 -12.5208 7.12
-14.506851 -1.4724137 54.085926 -12.2544 5.77
-6.186997 0.48008302 56.10576 -12.5208 11.82
-14.617184 -1.65825 54.49728 -12.2544 10.45
-6.2342257 0.48374775 56.534046 -12.5208 6.47
-14.728765 -1.6709083 54.913292 -12.2544 11.59
19.211802 -2.549846 53.475254 -11.8104 10.51
-3.3108404 0.4874125 57.21191 -12.6096 11.88
-14.841624 -1.5063925 55.334064 -12.2544 9.63
18.938778 -2.7462153 54.020206 -11.8104 8.43
-1.1124619 0.49107727 57.727795 -12.6096 14.13
-14.630702 -1.5177187 55.835617 -12.2544 11.07
1.4568856 0.67464125 58.14934 -12.6096 15.54
-14.739886 -1.529045 56.2523 -12.2544 10.63
1.4676772 0.67963856 58.580074 -12.6096 13.27
-14.849071 -1.5403712 56.668983 -12.2544 7.68
1.1373324 0.68463594 59.01837 -12.6096 7.99
-14.958255 -1.5516975 57.085667 -12.2544 5.1
0.6874077 0.68963325 59.456226 -12.5208 10.62
-14.623804 -1.5630237 57.61677 -12.2544 8.16
2.3074431 0.6946306 59.846607 -12.6096 6.4
-14.727097 -1.9446675 58.023735 -12.2544 5.82
1.8595206 0.1399286 60.297173 -12.6096 10.38
1.4915617 12.039607 59.533386 -12.5208 8.14
3.8869393 -1.4664459 61.046604 -12.5208 9.68
0.0 0.71462 61.614555 -12.6096 9.2
46.812305 -2.2064106 40.66808 -8.1696 11.97
-0.3635336 -1.6536338 62.88861 -12.6096 7.87
-0.36602354 -1.66496 63.319355 -12.6096 9.74
-0.3685135 -1.6762863 63.7501 -12.6096 9.9
-0.37100345 -1.6876125 64.18085 -12.6096 8.35
0.0 -1.6989388 64.61267 -12.6096 8.24
-27.444017 0.9558121 58.98715 -11.544 8.01
-27.625765 0.962142 59.377792 -11.544 7.37
-27.461557 0.9684718 59.928177 -11.544 9.62
-27.641045 0.9748017 60.319866 -11.544 7.44
-27.351784 0.9811316 60.92417 -11.544 11.86
-27.996939 1.4031833 61.09652 -11.544 18.39
-27.882307 0.7895801 62.105873 -11.544 6.65
-28.54053 -0.58269614 62.282772 -11.544 21.04
-28.717968 -1.012781 62.66999 -11.544 6.5
-28.897455 -1.0191109 63.061676 -11.544 15.53
-27.401142 0.5973552 64.668495 -11.6328 5.12
-24.787155 0.6010199 66.17511 -11.1888 8.49
-25.451244 0.3848021 66.385864 -11.2776 11.5
-25.834007 0.6046847 66.236206 -11.1 11.3
-25.990578 0.60834944 66.63764 -11.1 10.23
-27.72626 0.83955353 66.8658 -11.7216 9.57
-27.695976 0.85454553 68.27532 -11.7216 12.67
8.5469265 -1.7762583 73.5989 -12.5208 8.69
-28.386408 0.8595429 68.45785 -11.7216 10.78
9.167545 -1.5560943 73.96348 -12.5208 6.93
6.3487577 -0.6376675 74.7046 -12.5208 5.06
-36.726566 -1.6370472 69.27317 -11.1888 6.42
-36.92836 -1.646042 69.65379 -11.1888 10.14
-36.992558 -0.9295057 71.093544 -11.2776 11.31
-36.639454 -0.934503 71.76029 -11.2776 8.7
-36.835384 -0.9395004 72.144035 -11.2776 6.63
-37.58921 -0.9444977 72.24022 -11.2776 7.85
47.798492 -1.870911 75.794716 -10.656 9.9
48.028294 -1.8799058 76.15911 -10.656 7.4
48.258095 -1.8889006 76.523506 -10.656 7.0
48.48453 -2.1790147 76.882576 -10.656 7.34
8.610959 -0.86488235 101.32348 -12.5208 6.08
7.86295 -0.86854714 101.816444 -12.5208 7.21
7.3049617 -0.8722119 102.289986 -12.5208 5.92
7.484655 -3.7386403 104.80619 -12.5208 10.08
7.513532 -4.4064746 105.21055 -12.5208 10.18
6.7297764 -4.42446 105.69499 -12.5208 5.1
6.7571335 -4.4424458 106.12464 -12.6096 7.08
6.9820538 -0.25486994 109.65715 -12.5208 6.47
-2.1336737 -0.25686893 110.72044 -12.6096 6.05
-2.7844498 -0.2578684 111.137024 -12.6096 5.71
-37.733265 0.60402274 105.028984 -11.8992 4.86
-37.878956 0.60635483 105.4345 -11.8992 7.42
-35.773388 0.26086688 106.623405 -11.988 13.73
-35.91045 0.2618664 107.03192 -11.988 14.44
-36.047085 0.6133512 107.439156 -11.988 10.79
-30.949493 0.0 109.46653 -12.1656 9.93
-31.066643 0.26486486 109.880875 -12.1656 10.59
44.72832 -1.8356656 116.667305 -11.7216 6.01
39.252422 -2.4979293 134.85468 -12.0768 9.9
39.376408 -1.634131 135.28064 -12.0768 11.16
39.496826 -1.6391283 135.69434 -12.0768 8.14
39.61724 -1.6441257 136.10803 -12.0768 10.36
39.7266 -3.7376654 136.48375 -12.0768 10.15
4.394931 -3.7489917 142.51086 -12.5208 5.39
4.4082084 -3.760318 142.94142 -12.6096 7.83
35.822296 -3.0402305 141.13736 -12.1656 9.6
35.930428 -2.59754 141.56339 -12.1656 10.07
-90.27214 -0.799922 117.0246 -10.1232 5.74
-88.71548 -0.8022541 118.74736 -10.3008 8.54
-91.661835 -0.8022541 116.488106 -10.1232 6.87
-81.227036 -0.34482405 124.507 -10.5672 7.46
-88.97337 -0.80458623 119.09255 -10.3008 7.91
-91.92829 -0.80458623 116.82674 -10.1232 8.57
-82.422455 -0.34582353 124.23633 -10.5672 4.43
-89.23126 -0.8069184 119.43775 -10.212 5.5
-82.66067 -0.34682304 124.59539 -10.5672 6.07
-82.89888 -0.34782252 124.95446 -10.656 5.18
-83.85948 -0.34782252 124.31182 -10.4784 5.64
-95.651505 0.0 115.484856 -9.8568 10.28
-95.92637 0.0 115.8167 -9.8568 13.51
35.011723 -4.4177804 146.18495 -12.1656 10.89
-97.09356 0.0 115.403656 -9.8568 6.91
36.240917 -4.430439 146.32884 -12.1656 4.98
37.192127 -4.443097 146.5344 -12.1656 9.14
37.294518 -4.9246254 146.9378 -12.1656 6.83
34.554398 -4.938616 148.0485 -12.2544 4.64
-82.357895 -0.8255755 128.39206 -10.656 4.53
34.652283 -4.952606 148.4679 -12.2544 6.63
-82.590546 -0.82790756 128.75475 -10.7448 6.99
-82.81884 -1.7790539 129.11064 -10.7448 11.4
-82.051125 -1.7840513 130.10957 -10.7448 11.09
-82.28096 -1.7890486 130.47401 -10.7448 6.14
-82.51079 -1.7940459 130.83847 -10.7448 7.72
60.325893 -4.5443645 142.37306 -11.544 5.75
-82.74062 -1.7990433 131.20293 -10.7448 8.85
60.49393 -4.5570226 142.76965 -11.544 6.04
-82.97304 -1.3229768 131.57147 -10.7448 7.25
83.9434 -5.050539 130.86377 -10.5672 8.44
84.16707 -5.5466714 131.21246 -10.5672 7.24
84.38988 -6.045414 131.55981 -10.4784 11.63
36.427994 -2.297747 152.09834 -12.2544 6.69
36.528347 -2.304077 152.51735 -12.2544 5.12
36.6287 -2.3104067 152.93636 -12.1656 11.18
-83.766716 -2.3357263 135.12717 -10.8336 6.58
-83.99373 -2.342056 135.49336 -10.8336 7.12
7.3089886 -4.337957 164.81569 -12.5208 5.24
7.328072 -4.349283 165.24602 -12.6096 7.9
8.623855 -4.3606095 165.6148 -12.5208 7.36
-87.87495 -1.9839449 146.75858 -10.9224 6.45
-2.1253004 -0.93817747 110.285934 -12.6096 9.6
-2.1336482 -0.59935844 110.719124 -12.6096 6.68
-36.780098 0.6016906 104.91006 -11.8992 5.3
-37.733265 0.60402274 105.028984 -11.988 6.82
-37.879406 0.2598674 105.43576 -11.8992 3.82
-35.77296 0.608687 106.62213 -11.988 5.97
-35.910023 0.61101913 107.03065 -11.988 7.58
40.55271 -4.0760036 132.6287 -11.988 7.02
40.67865 -4.088662 133.04059 -11.988 6.36
40.804592 -4.1013207 133.45247 -11.988 8.25
40.157738 -1.634131 135.05077 -12.0768 12.81
40.276886 -2.513254 135.45145 -12.0768 12.56
40.394463 -3.3976104 135.84686 -12.0768 7.8
-83.13656 -0.34482405 123.240166 -10.5672 11.43
-82.422455 -0.34582353 124.23633 -10.656 5.2
-82.66067 -0.34682304 124.59539 -10.656 4.76
36.78019 -2.1964688 144.91139 -12.1656 6.58
-83.134315 -1.2789998 125.309326 -10.656 5.6
-83.37252 -1.2826645 125.66838 -10.656 9.26
35.217445 -3.6248064 147.04391 -12.2544 4.51
35.31778 -3.6351335 147.46284 -12.2544 6.89
-82.806366 -3.2021363 129.09119 -10.7448 8.74
60.950706 -6.438848 141.56404 -11.544 11.03
-83.51935 -1.3156474 130.2027 -10.7448 8.14
61.12096 -6.456834 141.95947 -11.544 9.23
-83.75199 -1.3193121 130.56538 -10.7448 4.49
61.291214 -6.4748197 142.3549 -11.544 8.41
84.92025 -6.492805 130.16806 -10.5672 5.11
85.17586 -5.5466714 130.55986 -10.5672 6.2
85.41115 -5.5619936 130.92052 -10.5672 11.13
85.64645 -5.577316 131.28119 -10.5672 6.53
86.12609 -5.1204915 132.0164 -10.5672 10.38
-84.55577 -4.168063 134.08122 -10.8336 4.34
-83.74681 -4.1793895 135.09505 -10.8336 9.61
-83.97377 -4.190716 135.46117 -10.8336 7.77
8.5795555 -3.9552732 164.76407 -12.6096 7.63
8.602553 -3.4539897 165.20572 -12.6096 7.29
