VERSION .7
FIELDS x y z doppler snr intensity noise
SIZE 4 4 4 4 4 4
TYPE F F F F F F
COUNT 1 1 1 1 1 1
WIDTH 7
HEIGHT 1
VIEWPOINT 0 0 0 1 0 0 0
POINTS 7
DATA ascii
-0.84222895 0.61528707 -0.25604033 0.0 7.926243 2634925700000.0 424760500000.0
-1.5869007 0.83755374 0.47078386 0.0 7.1482434 338049830000.0 65186310000.0
-1.2339387 1.458139 -0.40545976 0.0 8.139877 424760500000.0 65186310000.0
3.689238 5.0205054 0.48054492 0.29837173 9.148166 154269190000.0 18769926000.0
3.965339 4.782296 0.6727629 0.29837173 9.148166 154269190000.0 18769926000.0
3.7772858 4.9384947 0.6247084 0.37296465 10.795662 199458240000.0 16606796000.0
4.005904 4.733756 0.76887184 0.37296465 10.795662 199458240000.0 16606796000.0
3.649561 5.1690555 0.48805344 0.07459293 9.241163 160086460000.0 19065065000.0
3.9849608 4.9044585 0.5856641 0.07459293 9.241163 160086460000.0 19065065000.0
3.6933782 5.1276293 0.5856641 0.29837173 10.369923 206965960000.0 19006697000.0
3.9716275 4.8880486 0.7808855 0.29837173 10.369923 206965960000.0 19006697000.0
3.8500316 5.0336037 0.3416374 0.37296465 9.921091 163077850000.0 16606796000.0
4.0722814 4.812194 0.73208016 0.37296465 9.921091 163077850000.0 16606796000.0
3.9977756 4.9202304 0.29283205 0.7459293 7.268373 79185280000.0 14852761000.0
4.2308455 4.6998253 0.5368588 0.7459293 7.268373 79185280000.0 14852761000.0
3.5934527 5.297167 0.74334294 0.0 7.298823 93075690000.0 17336203000.0
3.960273 5.0747676 0.29733717 0.0 7.298823 93075690000.0 17336203000.0
4.0432496 4.9761972 0.64423054 0.07459293 10.13925 190116180000.0 18411708000.0
3.6392925 5.2585454 0.79289913 0.14918587 7.081365 100065510000.0 19595120000.0
3.9414515 5.0506496 0.69378674 0.14918587 7.081365 100065510000.0 19595120000.0
3.7033925 5.2453 0.54511815 0.2237788 9.12789 158169120000.0 19334490000.0
4.0327296 4.963249 0.79289913 0.2237788 9.12789 158169120000.0 19334490000.0
3.7474022 5.2026324 0.64423054 0.29837173 7.522552 130212790000.0 23035544000.0
4.028732 4.958329 0.8424553 0.29837173 7.522552 130212790000.0 23035544000.0
3.7010827 5.3478284 0.7042986 0.0 11.513232 243159920000.0 17162035000.0
4.054456 5.0918565 0.6539916 0.0 11.513232 243159920000.0 17162035000.0
3.6330006 5.3554654 0.95583385 0.07459293 9.565841 154065340000.0 17026323000.0
4.0439067 5.0786076 0.80491275 0.07459293 9.565841 154065340000.0 17026323000.0
3.8442075 5.2313957 0.80491275 0.14918587 9.025933 156581800000.0 19595120000.0
3.7595043 5.3247743 0.5533775 0.2237788 10.136527 199519520000.0 19334490000.0
4.1011996 5.0475187 0.7042986 0.2237788 10.136527 199519520000.0 19334490000.0
3.7621617 5.436084 0.61269474 0.0 10.641409 196399370000.0 16943346000.0
4.1042633 5.1544075 0.81692636 0.0 10.641409 196399370000.0 16943346000.0
3.911762 5.3233275 0.6637527 0.14918587 8.286338 119419750000.0 17719130000.0
4.205603 5.0720606 0.81692636 0.14918587 8.286338 119419750000.0 17719130000.0
3.8730497 5.3770723 0.40846318 0.2237788 8.997533 149605780000.0 18844953000.0
3.8201053 5.519809 0.5698962 0.0 7.367674 92420130000.0 16943346000.0
4.219958 5.193679 0.77713126 0.0 7.367674 92420130000.0 16943346000.0
3.7254627 6.0723834 0.21924862 -0.7459293 7.0853043 136559540000.0 26717241000.0
4.048416 5.8497033 0.43849725 -0.7459293 7.0853043 136559540000.0 26717241000.0
3.888785 5.9668436 0.2740608 -0.67133635 7.713677 157785180000.0 26711513000.0
4.0987377 5.805247 0.5481216 -0.67133635 7.713677 157785180000.0 26711513000.0
3.7819269 6.0411096 0.054812156 -0.59674346 12.67962 378034200000.0 20397132000.0
4.0961766 5.8016195 0.6029337 -0.59674346 12.67962 378034200000.0 20397132000.0
3.836851 6.006626 0.0 -0.5221505 13.175186 472686170000.0 22753820000.0
4.1031246 5.8114605 0.43849725 -0.5221505 13.175186 472686170000.0 22753820000.0
3.836397 6.0059156 -0.10962431 -0.4475576 9.49994 161259910000.0 18093908000.0
4.101053 5.808527 0.49330938 -0.4475576 9.49994 161259910000.0 18093908000.0
3.7217305 6.190578 0.16668902 -0.7459293 11.168312 335698530000.0 25651823000.0
3.833734 6.1238647 0.055563007 -0.59674346 12.816917 390176240000.0 20397132000.0
3.8894105 6.0889087 0.0 -0.5221505 12.6544285 419273300000.0 22753820000.0
4.1572323 5.888096 0.50006706 -0.5221505 12.6544285 419273300000.0 22753820000.0
3.527151 6.368702 0.78839403 -1.044301 9.097528 268953370000.0 33107331000.0
3.9377716 6.164618 0.33788314 -1.044301 9.097528 268953370000.0 33107331000.0
3.7157254 6.307739 0.16894157 -0.82052225 9.387323 221730400000.0 25532475000.0
3.7720242 6.274235 0.16894157 -0.7459293 10.607054 273715920000.0 23800971000.0
4.0469174 6.0862327 0.45051086 -0.7459293 10.607054 273715920000.0 23800971000.0
4.0870166 6.0247374 0.78839403 -0.59674346 8.771085 154272550000.0 20472936000.0
3.5844302 6.4721265 0.57064706 -1.044301 9.668676 306755140000.0 33107331000.0
3.5864556 6.4757833 0.5135824 -0.9697081 9.355732 297892300000.0 34553025000.0
3.5759687 6.592604 0.52034 -0.9697081 9.8796425 313906300000.0 32272732000.0
3.9722507 6.3451257 0.69378674 -0.9697081 9.8796425 313906300000.0 32272732000.0
3.7489996 6.4957666 0.52034 -0.82052225 7.760295 152448240000.0 25532475000.0
3.4183335 6.713799 1.1127619 -1.1934869 7.553216 241934600000.0 42498773000.0
3.9072053 6.4990897 0.70279694 -1.1934869 7.553216 241934600000.0 42498773000.0
4.029115 6.4359593 0.5856641 -0.9697081 7.7492166 177906020000.0 29872323000.0
3.8653831 6.561795 0.0 -0.82052225 8.585209 182588000000.0 25290146000.0
3.4034777 6.8294334 1.127028 -1.2680799 9.623432 404068530000.0 44066824000.0
3.735219 6.7443943 0.23726906 -1.044301 7.1140695 194513700000.0 37804480000.0
4.506912 6.257083 0.17795178 -0.59674346 7.5323253 122205600000.0 21570419000.0
3.4664965 6.9558873 0.7808855 -1.3426727 8.2086525 255994760000.0 38669255000.0
4.5639615 6.3362865 0.18020435 -0.59674346 7.870105 132089730000.0 21570419000.0
4.2989817 6.867034 -0.18696201 -0.7459293 7.213179 106217370000.0 20177980000.0
4.7341294 6.572536 -0.24928267 -0.7459293 7.213179 106217370000.0 20177980000.0
3.4617665 7.755891 -0.13064815 -1.7902304 8.319354 264012580000.0 38876690000.0
3.7195065 7.6266894 0.39194444 -1.7902304 8.319354 264012580000.0 38876690000.0
3.5003138 7.842254 -0.2642997 -1.7902304 7.338103 204794890000.0 37801484000.0
2.545069 8.095175 1.8711218 -1.7156374 8.836 222969140000.0 29150410000.0
2.974886 8.065251 1.2696898 -1.7156374 8.836 222969140000.0 29150410000.0
5.4122477 6.7970614 0.13365155 -1.7156374 8.836 222969140000.0 29150410000.0
2.5160575 8.234024 1.7569923 -1.7156374 7.28562 147805680000.0 27613985000.0
3.8569307 8.082921 -0.6907833 -2.088602 8.800717 216992320000.0 28600435000.0
3.4462147 8.082801 -1.8651149 -2.0140092 7.5408964 195048640000.0 34360013000.0
3.835186 8.037351 -1.1743317 -2.0140092 7.5408964 195048640000.0 34360013000.0
3.867929 8.10597 -0.13815667 -1.9394162 7.5215187 144719330000.0 25607942000.0
3.8350363 8.216074 -0.48880428 -2.088602 11.433382 409166050000.0 29414492000.0
3.6662529 8.403108 -0.4234802 -2.088602 9.314908 244266240000.0 28600435000.0
3.2090354 8.700057 -0.21399266 -2.237788 7.9474726 430429040000.0 69048510000.0
3.7090964 8.501306 0.07133088 -2.237788 7.9474726 430429040000.0 69048510000.0
4.9178567 9.258396 1.1352874 -11.934869 8.76001 615073300000.0 81832510000.0
4.8480773 9.321617 0.8920115 -11.860276 11.573877 1265943400000.0 88110270000.0
4.8480773 9.321617 0.8920115 -11.785683 10.695001 1569761800000.0 133762300000.0
4.8480773 9.321617 0.8920115 -11.71109 9.039206 834544340000.0 104118740000.0
4.7151947 9.461531 1.227642 -11.934869 13.450033 1811044900000.0 81832510000.0
5.0403805 9.292373 1.227642 -11.934869 13.450033 1811044900000.0 81832510000.0
4.8929667 9.407928 0.9002709 -11.785683 19.321333 11441080000000.0 133762300000.0
4.8929667 9.407928 0.9002709 -11.71109 14.917006 3230200200000.0 104118740000.0
3.8986032 9.815644 1.3094848 -12.233241 7.655816 204156450000.0 35025270000.0
4.8724494 9.569764 -0.16518731 -11.934869 16.711666 3837890100000.0 81832510000.0
4.858595 9.542554 0.82593656 -11.860276 22.081314 14228459000000.0 88110270000.0
4.86134 9.547945 0.74334294 -11.785683 21.65064 19561305000000.0 133762300000.0
4.934473 9.487734 0.9911239 -11.71109 13.194278 2172484600000.0 104118740000.0
3.9653654 9.747453 2.1474352 -12.233241 8.886659 237073500000.0 30634945000.0
4.87072 9.566367 0.33037463 -12.233241 8.886659 237073500000.0 30634945000.0
4.87072 9.566367 0.33037463 -12.009461 12.0110235 2176380600000.0 136972210000.0
4.750637 9.740979 0.0 -11.860276 21.618586 12790429000000.0 88110270000.0
4.9055343 9.634745 0.75010055 -11.785683 21.748652 10927004000000.0 73052650000.0
4.8752227 9.782643 0.33638144 -11.934869 30.326542 95529110000000.0 88609740000.0
4.8773866 9.786985 -0.08409536 -11.860276 21.371029 12081739000000.0 88110270000.0
3.922448 10.118548 1.3455257 -12.307834 7.936977 196288700000.0 31564403000.0
4.9187512 9.869988 0.33938485 -11.934869 29.124187 73224444000000.0 89585410000.0
4.9209347 9.87437 0.08484621 -11.860276 23.275127 12674625000000.0 59624165000.0
5.406986 9.56315 1.0181545 -21.035206 7.475972 197529220000.0 35321094000.0
4.9197702 9.872033 -0.25453863 -11.412719 7.053612 172833650000.0 34061760000.0
5.5109253 9.548597 -0.42423105 -1.7902304 8.734679 191188840000.0 25585545000.0
4.917441 9.867359 0.42423105 -12.009461 19.954506 24005042000000.0 242578230000.0
4.9622803 9.957334 0.34238824 -11.934869 23.638075 20703548000000.0 89585410000.0
4.878888 10.003953 0.08559706 -11.860276 20.864588 7117319000000.0 58325390000.0
4.9622803 9.957334 -0.34238824 -11.412719 7.8013535 189087000000.0 31370854000.0
4.5615673 9.992542 -1.7975383 7.7576647 11.002074 314388700000.0 24960860000.0
4.872013 9.776203 -2.1399267 7.7576647 11.002074 314388700000.0 24960860000.0
4.959342 9.951438 0.5135824 -12.084055 13.977853 3817348800000.0 152748380000.0
4.960958 9.95468 0.4279853 -12.009461 17.953001 15140908000000.0 242578230000.0
4.9205213 10.089319 0.25904375 -11.860276 11.272138 740661200000.0 55259357000.0
5.0075865 10.048245 0.17269583 -11.785683 8.827534 423154020000.0 55430030000.0
4.631661 10.146089 1.2952187 -11.561904 9.110615 217403690000.0 26681203000.0
5.2633276 9.908783 -0.43173957 -11.561904 9.110615 217403690000.0 26681203000.0
4.653955 10.194926 0.6907833 -12.084055 7.1642036 795054640000.0 152748380000.0
4.998692 10.030398 0.6907833 -12.084055 7.1642036 795054640000.0 152748380000.0
-6.8463306 8.951021 1.1322839 -1.044301 12.498415 641994000000.0 36115153000.0
-6.8997793 9.020902 1.2298946 -1.044301 19.817387 3197659800000.0 33349822000.0
-8.3284445 7.960749 0.0 3.7296464 17.899069 1992340000000.0 32318900000.0
-6.701562 9.303982 1.8763777 -1.118894 9.443213 295274870000.0 33566431000.0
-8.829752 7.70075 0.09010217 8.578187 9.496239 377515200000.0 42394608000.0
-6.8226705 9.472121 1.8170605 -1.118894 8.601271 243015320000.0 33535638000.0
-7.8086066 8.674173 2.3817008 -0.9697081 8.970315 223685970000.0 28353540000.0
-7.9881577 8.873628 1.2929661 -0.8951152 8.5506115 152138290000.0 21241120000.0
-8.00329 9.076727 -0.3724223 8.279816 7.1913514 155672850000.0 29721979000.0
-7.4464636 9.542038 0.27931672 8.279816 7.1913514 155672850000.0 29721979000.0
-6.8470573 10.093358 1.6083238 -1.118894 7.308088 180432730000.0 33535638000.0
-7.185776 9.976232 3.8653831 3.5804608 9.988018 522537370000.0 52398096000.0
4.012152 15.292092 0.48655173 -12.904577 7.530749 314823770000.0 55589482000.0
3.041777 18.587831 -3.3848383 -3.282089 7.2162066 112130830000.0 21286506000.0
3.6475952 18.618616 -2.501837 -3.282089 7.2162066 112130830000.0 21286506000.0
16.234415 15.517677 2.08136 -9.174931 7.5808177 64728977000.0 11298401000.0
15.726208 20.151855 0.9836154 -10.44301 9.918778 123663580000.0 12599811000.0
15.781088 20.222181 1.1848435 -10.44301 9.909869 123221040000.0 12580502000.0
-18.564833 19.77575 2.5138507 -18.126081 7.4384427 72059420000.0 12997102000.0
-18.617477 19.831827 2.7330992 -18.126081 7.007329 62652625000.0 12479764000.0
-16.702526 26.679996 -1.9402001 -2.6107526 8.701762 92008310000.0 12406544000.0
-16.761696 26.77451 -1.702931 -2.6107526 7.635953 68122923000.0 11740807000.0
-16.051933 27.249432 -0.7298276 -2.6107526 7.635953 68122923000.0 11740807000.0
-0.26696065 34.71311 -4.852002 -3.7296464 9.829546 625900850000.0 65095490000.0
1.6034532 34.713737 -4.582446 -3.7296464 9.829546 625900850000.0 65095490000.0
-0.26634827 34.633488 -5.3911133 -3.6550536 9.138427 650597000000.0 79335830000.0
1.5999762 34.638462 -5.1215577 -3.6550536 9.138427 650597000000.0 79335830000.0
-0.2670902 34.729958 -5.4061303 -3.6550536 9.451741 661503900000.0 75051300000.0
1.604433 34.73495 -5.1358237 -3.6550536 9.451741 661503900000.0 75051300000.0
3.5236416 35.069237 0.27105737 -13.352135 18.077219 892017440000.0 13888374000.0
-3.4083867 33.922157 -8.944893 -3.6550536 9.185371 622150400000.0 75051300000.0
1.3449883 34.953156 -4.336918 -3.6550536 9.185371 622150400000.0 75051300000.0
-3.2608304 35.184303 -0.8154247 -8.429001 11.817453 1096620800000.0 72162430000.0
-2.173887 35.26815 -0.8154247 -8.429001 11.817453 1096620800000.0 72162430000.0
-1.8852116 34.96963 -5.4511814 -13.053762 11.138097 195241510000.0 15023201000.0
-3.3531446 33.372356 11.752327 -3.5804608 8.00572 113001610000.0 17885975000.0
3.4919882 34.754204 6.559438 -3.5804608 8.00572 113001610000.0 17885975000.0
-1.8855896 34.976643 -6.0128183 -13.053762 13.353723 286900800000.0 13254384000.0
-3.6868813 34.045406 -9.866188 -3.5804608 8.711184 128235210000.0 17253964000.0
-1.885467 34.97437 -6.5774584 -13.053762 12.443546 213162440000.0 12143841000.0
-1.8848361 34.962666 -7.145102 -13.053762 8.636379 86816220000.0 11884007000.0
23.078257 30.172949 2.6354885 -10.517603 9.6975155 97622010000.0 10466373000.0
23.124367 30.233232 2.9358292 -10.517603 8.44382 72296030000.0 10345047000.0
-11.599474 37.960323 3.3698213 -22.079508 7.007548 52490854000.0 10455117000.0
-11.321906 38.145523 3.3780806 -22.1541 13.174469 211515790000.0 10183471000.0
-11.321906 38.145523 3.3780806 -22.079508 7.056229 52215788000.0 10284399000.0
-11.349588 38.23879 3.38634 -22.1541 14.273523 276430780000.0 10333182000.0
-7.7147703 39.378918 0.30859995 -26.928047 11.811528 156864630000.0 10336468000.0
3.1666958 41.056084 3.1761014 -13.352135 8.563854 78884750000.0 10980134000.0
0.6072778 39.478916 12.764474 -27.599384 7.592437 61110596000.0 10638314000.0
5.1033735 41.1608 1.2764474 -27.599384 7.592437 61110596000.0 10638314000.0
