# This PCD file was generated using the MATLAB® pcwrite function
# from Computer Vision Toolbox®.
# .PCD v.7 - Point Cloud Data file format
VERSION .7
FIELDS x y z intensity
SIZE 4 4 4 1
TYPE F F F U
COUNT 1 1 1 1
WIDTH 1514
HEIGHT 1
VIEWPOINT 0 0 0 1 0 0 0
POINTS 1514
DATA ascii
0.257453 5.987770 -0.473788 101
0.661771 6.198861 0.154535 101
0.459822 6.133137 -1.122810 45
0.262230 6.075068 -0.199594 100
0.662908 6.199632 0.250422 101
0.449476 5.981637 -0.671780 101
0.264047 6.093353 -0.106460 101
0.454126 6.029949 -0.396343 101
0.266741 6.131686 0.175724 101
0.458552 6.075068 -0.305427 101
0.269018 6.160160 0.271371 59
0.660897 6.124779 -1.280454 94
0.461472 6.062794 -0.211267 101
0.272687 6.155099 0.366039 84
0.074030 5.926187 -0.548755 101
0.641410 5.934820 -0.680125 101
0.464814 6.093150 -0.118401 101
0.274859 6.180590 0.463008 67
0.075478 5.961818 -0.459820 101
0.648104 5.987332 -0.406336 101
0.470637 6.155833 0.164901 101
0.077492 6.040619 -0.186684 101
0.652721 6.020521 -0.315251 101
0.473866 6.184381 0.261047 101
0.275690 6.152646 -0.677764 21
0.079420 6.110746 -0.094937 64
0.669289 6.163660 -0.036791 101
0.271736 6.041667 -0.384733 101
0.667713 6.139524 0.058207 101
0.272446 6.034838 -0.291226 101
0.675098 6.197726 0.346373 101
0.461119 5.978409 -0.578421 101
0.276856 6.109717 -0.012809 101
0.683273 6.262989 0.447180 101
0.464598 6.010334 -0.488200 92
0.278224 6.117137 0.081229 101
0.657094 5.994967 -0.593458 101
0.475364 6.109485 -0.024599 101
0.084990 5.995999 -0.369919 101
0.657715 5.991323 -0.499772 101
0.477609 6.125011 0.069700 101
0.086128 6.004953 -0.277963 100
0.668403 6.079256 -0.224259 101
0.485659 6.214762 0.358342 101
0.277160 5.982884 -0.566156 101
0.671037 6.093774 -0.130559 101
0.490267 6.260164 0.457820 101
0.278908 5.998785 -0.474734 101
0.681652 6.180614 0.154139 101
0.482152 6.143263 -1.124965 72
0.283062 6.066129 -0.199331 100
0.685861 6.209198 0.250904 101
0.469729 5.972106 -0.670889 101
0.285689 6.100384 -0.106599 101
0.474858 6.024348 -0.396081 101
0.289833 6.166663 0.176754 101
0.478182 6.053517 -0.304426 101
0.290519 6.159184 0.271371 68
0.093523 6.091785 -0.658630 2
0.684859 6.145790 -1.285338 71
0.482933 6.065132 -0.211406 101
0.293964 6.150122 0.365802 71
0.095018 5.945805 -0.550599 101
0.661231 5.924646 -0.679219 101
0.485433 6.083518 -0.118246 101
0.296994 6.191546 0.463904 67
0.096214 5.957530 -0.459513 101
0.668996 5.985034 -0.406336 101
0.491481 6.146182 0.164688 101
0.098508 6.036314 -0.186560 101
0.675068 6.030115 -0.315875 101
0.494815 6.174722 0.260710 101
0.290069 6.004705 -0.661575 35
0.100752 6.110432 -0.094937 101
0.688580 6.141410 -0.036673 101
0.292832 6.040681 -0.384733 101
0.690047 6.145103 0.058282 101
0.293912 6.041831 -0.291611 101
0.700766 6.231049 0.348370 101
0.481365 5.968824 -0.577653 101
0.298397 6.112708 -0.012818 101
0.705605 6.264527 0.447463 101
0.486245 6.016622 -0.488845 92
0.300776 6.140097 0.081548 101
0.673586 5.953077 -0.589540 101
0.494464 6.079877 -0.024487 101
0.105541 5.971714 -0.368442 101
0.678226 5.985023 -0.499442 101
0.500014 6.135262 0.069836 101
0.107068 6.000620 -0.277778 100
0.690579 6.084822 -0.224553 101
0.506434 6.201083 0.357653 101
0.298100 5.981878 -0.566156 101
0.110577 6.139004 -0.001072 101
0.694175 6.107282 -0.130900 101
0.515111 6.294194 0.460438 101
0.300905 6.017684 -0.476310 101
0.704650 6.190108 0.154436 101
0.503664 6.141537 -1.124965 51
0.304305 6.065100 -0.199331 100
0.706704 6.198815 0.250583 101
0.489346 5.954576 -0.669108 101
0.305852 6.075379 -0.106180 101
0.496621 6.030602 -0.396605 101
0.311642 6.169603 0.176868 101
0.501370 6.075692 -0.305627 101
0.313523 6.186064 0.272602 88
0.115476 6.123229 -0.662069 10
0.708097 6.158924 -1.288594 82
0.504764 6.071377 -0.211684 101
0.316044 6.161021 0.366513 82
0.116082 5.961366 -0.552074 101
0.682817 5.930199 -0.680125 101
0.507330 6.089757 -0.118401 101
0.319220 6.202423 0.464800 55
0.117322 5.973108 -0.460743 101
0.692169 6.002486 -0.407682 101
0.514262 6.160367 0.165115 101
0.119499 6.031937 -0.186436 101
0.697488 6.039626 -0.316499 101
0.516365 6.172957 0.260710 101
0.309794 5.979832 -0.658949 41
0.121202 6.066057 -0.094253 101
0.708635 6.127048 -0.036601 101
0.314538 6.051582 -0.385495 101
0.713334 6.158550 0.058433 101
0.315001 6.040768 -0.291611 101
0.722052 6.224597 0.348148 101
0.503867 5.986945 -0.579574 101
0.320360 6.123612 -0.012843 101
0.728849 6.273916 0.448312 101
0.506238 6.002969 -0.487877 92
0.321369 6.123033 0.081336 101
0.694823 5.954643 -0.589932 101
0.516022 6.082100 -0.024503 101
0.127146 6.007233 -0.370658 101
0.699577 5.986578 -0.499772 101
0.522443 6.145436 0.069972 101
0.127587 5.980236 -0.276854 101
0.711815 6.082375 -0.224553 101
0.530111 6.223152 0.359030 101
0.319615 5.992731 -0.567285 101
0.131575 6.118586 -0.001068 101
0.714558 6.096878 -0.130729 101
0.536400 6.284408 0.459856 101
0.320844 5.996688 -0.474734 101
0.133462 6.157844 0.093532 80
0.725787 6.183640 0.154337 101
0.523422 6.120138 -1.121373 72
0.325046 6.056017 -0.199069 100
0.726005 6.176464 0.249780 101
0.510807 5.960753 -0.669999 101
0.328132 6.094243 -0.106529 101
-0.058624 5.987160 -0.542793 12
0.519035 6.044740 -0.397651 101
0.331882 6.144522 0.176182 101
0.522575 6.073905 -0.305627 101
0.335115 6.184932 0.272602 100
0.135872 6.079054 -0.657340 11
0.732817 6.183639 -1.294292 100
0.526299 6.073561 -0.211823 101
0.339296 6.191776 0.368411 100
0.136982 5.964906 -0.552443 101
0.703044 5.923832 -0.679672 101
0.529276 6.095918 -0.118556 101
0.341306 6.209236 0.465397 70
0.138725 5.996584 -0.462589 101
0.711705 5.988144 -0.406875 101
0.535070 6.150568 0.164901 101
0.344290 6.244231 -1.017810 8
0.140926 6.047471 -0.186931 101
0.717622 6.029222 -0.316083 101
0.538604 6.179080 0.261047 101
0.330885 5.982684 -0.659387 55
0.141906 6.045605 -0.093942 101
0.729544 6.120565 -0.036578 101
0.334554 6.030518 -0.384225 101
0.145904 6.171395 0.188606 4
0.732931 6.140136 0.058282 101
0.336085 6.039631 -0.291611 101
0.743302 6.218073 0.347927 101
0.523719 5.973251 -0.578421 101
0.340842 6.106482 -0.012809 101
0.747425 6.243602 0.446330 101
0.527887 6.009109 -0.488522 92
0.343411 6.133854 0.081495 101
0.717505 5.967991 -0.591499 101
0.537953 6.088230 -0.024535 101
0.148410 6.018726 -0.371397 101
0.722852 6.003889 -0.501425 101
0.544597 6.151543 0.070063 101
0.149255 6.011710 -0.278333 101
0.732563 6.075884 -0.224406 101
0.551477 6.217286 0.358801 101
0.340306 5.987602 -0.566908 101
0.152532 6.102094 -0.001065 101
0.736315 6.098317 -0.130814 101
0.557980 6.278523 0.459565 101
0.341547 5.991550 -0.474419 101
0.154453 6.137349 0.093228 101
0.749288 6.196948 0.154733 101
0.545829 6.130032 -1.123528 100
0.345955 6.050854 -0.198937 100
0.749482 6.189763 0.250422 101
0.531611 5.958934 -0.669999 101
0.349174 6.089067 -0.106460 101
-0.037825 6.003263 -0.544238 101
0.537644 6.015062 -0.395820 101
0.354936 6.171268 0.176983 101
0.542348 6.056128 -0.304826 101
0.357853 6.203672 0.273482 101
0.157194 6.082518 -0.657770 24
0.545423 6.059832 -0.211406 101
0.360584 6.202572 0.369123 100
0.156821 5.964417 -0.552443 101
0.724166 5.933299 -0.681031 101
0.549526 6.094126 -0.118556 101
0.361237 6.196122 0.464501 83
0.159069 6.012037 -0.463819 101
0.732057 5.989710 -0.407144 101
0.556197 6.156723 0.165115 101
0.363627 6.219406 -1.013955 13
0.161526 6.066953 -0.187548 101
0.738573 6.034739 -0.316499 101
0.559083 6.177260 0.261047 101
0.349550 5.961709 -0.657199 75
0.162052 6.049099 -0.094005 101
0.749318 6.114146 -0.036554 101
0.354753 6.033362 -0.384479 101
0.165689 6.146898 0.187873 100
0.754207 6.145619 0.058357 101
0.355351 6.026522 -0.291033 101
0.764324 6.219548 0.348148 101
0.544890 5.987349 -0.579958 101
0.361955 6.121294 -0.012843 101
-0.027083 5.991027 -0.450472 32
0.770945 6.264862 0.448029 101
0.546987 5.999393 -0.487877 92
0.363884 6.136680 0.081548 101
0.736147 5.957698 -0.590716 101
0.558698 6.094395 -0.024567 101
0.167864 6.006233 -0.370658 101
0.741097 5.989614 -0.500433 101
0.563333 6.133790 0.069881 101
0.169671 6.035152 -0.279443 101
0.752981 6.077415 -0.224553 101
0.572601 6.223396 0.359260 101
0.360662 5.998379 -0.568038 101
0.172774 6.109558 -0.001067 101
0.756784 6.099840 -0.130900 101
0.579647 6.288579 0.460438 101
0.361897 6.002340 -0.475364 101
0.175243 6.160798 0.093593 101
0.768578 6.186526 0.154535 101
0.565164 6.120376 -1.122091 87
0.367203 6.073633 -0.199725 100
0.770698 6.195212 0.250743 101
0.551819 5.965081 -0.670889 101
0.369076 6.087893 -0.106460 101
-0.018153 5.987419 -0.542793 101
0.558386 6.025198 -0.396605 101
0.374598 6.162095 0.176754 101
0.562834 6.062283 -0.305227 101
0.378082 6.202472 0.273482 101
0.177029 6.081973 -0.657770 30
0.567689 6.069832 -0.211823 101
0.381987 6.197290 0.368886 100
0.177403 5.955872 -0.551706 101
0.744377 5.926792 -0.680578 101
0.570049 6.084207 -0.118401 101
0.384586 6.222692 0.466591 100
0.180054 6.011446 -0.463819 101
0.753956 5.995038 -0.407682 101
0.577685 6.154744 0.165115 101
0.385579 6.222040 -1.014597 12
0.182582 6.062356 -0.187425 101
0.761131 6.044014 -0.317123 101
0.580642 6.175271 0.261047 101
0.371591 5.980294 -0.659387 78
0.183650 6.064488 -0.094253 101
0.772157 6.123399 -0.036625 101
0.376307 6.040056 -0.384987 101
0.186902 6.138289 0.187629 101
0.776657 6.150885 0.058433 101
0.376883 6.033219 -0.291419 101
0.190374 6.218526 0.285778 101
0.787032 6.224767 0.348592 101
0.564662 5.973518 -0.578805 101
0.382320 6.104025 -0.012809 101
-0.006171 5.991085 -0.450472 101
0.569805 6.017293 -0.489491 92
0.386055 6.147348 0.081707 101
-0.005226 6.045212 -0.361270 6
0.761959 5.994582 -0.594633 101
0.579589 6.088426 -0.024551 101
0.189456 6.025563 -0.371890 101
0.761497 5.983037 -0.500103 101
0.586259 6.147712 0.070063 101
0.191242 6.050498 -0.280183 101
0.774696 6.078715 -0.224699 101
0.593561 6.213409 0.358801 101
0.380839 5.985161 -0.566908 101
0.194227 6.112915 -0.001067 101
0.778072 6.097161 -0.130900 101
0.601975 6.290489 0.460729 101
0.383608 6.012979 -0.476310 101
0.196237 6.144158 0.093350 101
0.790675 6.187772 0.154634 101
0.586149 6.114449 -1.121373 68
0.388402 6.072314 -0.199725 100
0.200365 6.241049 0.383009 4
0.792319 6.192484 0.250743 101
0.573018 5.967075 -0.671334 101
0.390837 6.094551 -0.106599 101
0.002742 5.975495 -0.541710 101
0.579414 6.023212 -0.396605 101
0.396875 6.172720 0.177097 101
0.583609 6.056304 -0.305026 101
0.399731 6.201115 0.273482 101
0.198387 6.085293 -0.658200 25
0.589259 6.071792 -0.211962 101
0.403617 6.195920 0.368886 101
0.198457 5.963178 -0.552443 101
0.762516 5.904449 -0.678314 101
0.590509 6.074219 -0.118246 101
0.405265 6.205390 0.465397 101
0.201036 6.010780 -0.463819 101
0.774366 5.988412 -0.407413 101
0.600328 6.164629 0.165435 101
0.406522 6.208837 -1.012670 13
0.203877 6.065678 -0.187548 101
0.779659 6.021513 -0.316083 101
0.602970 6.181162 0.261383 101
0.392464 5.978960 -0.659387 78
0.205493 6.083796 -0.094564 101
0.795584 6.136533 -0.036720 101
0.397913 6.046672 -0.385495 101
0.208870 6.153583 0.188117 101
0.797608 6.144170 0.058395 101
0.398204 6.035854 -0.291611 101
0.211263 6.193863 0.284677 101
0.806696 6.206140 0.347705 101
0.585510 5.971511 -0.578805 101
0.404681 6.118618 -0.012843 101
0.014674 5.963149 -0.448373 101
0.590416 6.011300 -0.489168 92
0.406717 6.133990 0.081548 101
0.015928 6.065158 -0.362463 76
0.780816 5.976097 -0.593066 101
0.600445 6.082385 -0.024535 101
0.210488 6.024865 -0.371890 101
0.781860 5.976389 -0.499772 101
0.607715 6.145628 0.070063 101
0.212501 6.053787 -0.280367 101
0.796949 6.083901 -0.224992 101
0.617215 6.231169 0.359949 101
0.403330 6.007635 -0.569167 101
0.216127 6.128190 -0.001070 101
0.801431 6.110269 -0.131240 101
0.622353 6.272470 0.459565 101
0.404327 6.007624 -0.475995 101
0.217116 6.127448 0.093107 101
0.810187 6.169115 0.154238 101
0.609435 6.131944 -1.124965 57
0.409327 6.066933 -0.199594 100
0.221723 6.228342 0.382275 101
0.812887 6.181756 0.250422 101
0.593449 5.961083 -0.670889 101
0.412378 6.097139 -0.106669 101
0.023521 5.955531 -0.539904 101
0.600832 6.025124 -0.396866 101
0.417608 6.159329 0.176754 101
0.024879 6.046003 -0.268206 15
0.603951 6.046280 -0.304626 101
0.422458 6.215629 0.274185 101
0.220202 6.100461 -0.659920 27
0.026082 6.093386 -0.176591 1
0.610389 6.069705 -0.211962 101
0.426274 6.210412 0.369835 100
0.219650 5.974391 -0.553550 101
0.783085 5.901757 -0.678314 101
0.614877 6.103957 -0.118866 101
0.428254 6.223837 0.466889 101
0.222126 6.014029 -0.464126 101
0.796828 5.997543 -0.408221 101
0.622230 6.166476 0.165542 101
0.425189 6.164055 -1.005601 13
0.224738 6.056939 -0.187301 101
0.802789 6.034593 -0.316915 101
0.623346 6.167090 0.260878 101
0.413340 5.977553 -0.659387 78
0.227035 6.091035 -0.094688 101
0.813335 6.105960 -0.036554 101
0.418773 6.041262 -0.385241 101
0.229932 6.140830 0.187751 101
0.820163 6.149271 0.058470 101
0.419602 6.038409 -0.291804 101
0.232338 6.177114 0.283943 101
0.831607 6.227027 0.349036 101
0.606831 5.973384 -0.579189 101
0.424725 6.097211 -0.012801 101
0.035447 5.943118 -0.446873 101
0.610689 6.001259 -0.488522 92
0.427114 6.116566 0.081336 101
0.037078 6.045101 -0.361270 99
0.800781 5.965422 -0.592282 101
0.623472 6.096151 -0.024599 101
0.231073 6.008129 -0.370905 101
0.807156 6.005204 -0.502416 101
0.628953 6.139471 0.070018 101
0.233979 6.056993 -0.280552 101
0.817865 6.077091 -0.224846 101
0.637147 6.209091 0.358801 101
0.423390 5.990286 -0.567661 101
0.237117 6.111402 -0.001067 101
0.819792 6.083622 -0.130729 101
0.645309 6.278171 0.460147 101
0.425815 6.010137 -0.476310 101
0.238591 6.122646 0.093046 101
0.834123 6.182065 0.154634 101
0.633520 6.153238 -1.129275 65
0.430482 6.061460 -0.199462 100
0.243109 6.211562 0.381295 94
0.837429 6.198645 0.251225 101
0.614536 5.958946 -0.670889 101
0.432811 6.079685 -0.106390 101
0.245468 6.244788 0.479784 101
0.044801 5.983295 -0.542432 101
0.622988 6.030899 -0.397389 101
0.438851 6.149835 0.176525 101
0.046017 6.009913 -0.266610 86
0.626619 6.056022 -0.305227 101
0.443353 6.198149 0.273482 101
0.236316 5.960562 -0.644873 48
0.047968 6.129239 -0.177634 6
0.631159 6.063561 -0.211823 101
0.447088 6.196938 0.369123 101
0.240343 5.969609 -0.553181 101
0.807437 5.926553 -0.681483 101
0.634522 6.085863 -0.118556 101
0.450552 6.230261 0.467486 101
0.242957 6.009232 -0.463819 101
0.818297 5.998679 -0.408490 101
0.644166 6.168243 0.165649 101
0.446988 6.166471 -1.006244 15
0.246366 6.068102 -0.187672 101
0.826552 6.051543 -0.317955 101
0.644869 6.164876 0.260878 101
0.433339 5.964177 -0.658074 78
0.248296 6.090205 -0.094688 101
0.839522 6.138752 -0.036768 101
0.440149 6.043745 -0.385495 101
0.251039 6.132000 0.187506 101
0.843251 6.158259 0.058584 101
0.440387 6.032923 -0.291611 101
0.253734 6.172273 0.283759 101
0.850083 6.200346 0.347705 101
0.628511 5.979149 -0.579958 101
0.447174 6.111649 -0.012834 101
0.056154 5.938969 -0.446573 101
0.632468 6.007021 -0.489168 92
0.449925 6.134983 0.081601 101
0.057987 6.024971 -0.360076 69
0.825403 5.990195 -0.595024 101
0.645169 6.097916 -0.024615 101
0.253048 6.031219 -0.372382 101
0.827023 5.994452 -0.501755 101
0.650801 6.141215 0.070063 101
0.254448 6.040171 -0.279813 101
0.840167 6.082119 -0.225139 101
0.659238 6.210800 0.359030 101
0.444887 5.996714 -0.568414 101
0.259800 6.142508 -0.001073 101
0.843763 6.100530 -0.131155 101
0.666798 6.271913 0.459856 101
0.446496 6.004637 -0.475995 101
0.260810 6.141756 0.093350 101
0.855698 6.179116 0.154634 101
0.654579 6.147076 -1.128557 55
0.452233 6.067894 -0.199725 100
0.264960 6.214664 0.381540 100
0.065865 6.093400 -0.646932 0
0.861805 6.215478 0.252028 101
0.636597 5.968623 -0.672225 101
0.455818 6.102067 -0.106809 101
0.266070 6.216001 0.477641 100
0.065773 5.991069 -0.543154 101
0.644036 6.028688 -0.397389 101
0.461211 6.160227 0.176868 101
0.066906 6.001724 -0.266256 93
0.649030 6.065715 -0.305828 101
0.466182 6.212503 0.274185 101
0.258492 5.991486 -0.648312 55
0.069001 6.097050 -0.176707 74
0.652749 6.065295 -0.211962 101
0.469921 6.211266 0.370072 101
0.261702 5.980671 -0.554287 101
0.072670 6.091002 -0.082931 3
0.827569 5.919762 -0.681031 101
0.657047 6.095540 -0.118789 101
0.471392 6.216718 0.466591 101
0.264282 6.016316 -0.464434 101
0.838679 5.991834 -0.408221 101
0.663976 6.150055 0.165222 101
0.466715 6.141253 -1.002389 20
0.267898 6.075193 -0.187919 101
0.847116 6.044665 -0.317747 101
0.667674 6.174508 0.261383 101
0.454457 5.966593 -0.658512 78
0.269199 6.081310 -0.094564 101
0.859833 6.127861 -0.036720 101
0.460939 6.038191 -0.385241 101
0.272797 6.139074 0.187751 101
0.864186 6.151317 0.058546 101
0.461443 6.031349 -0.291611 101
0.275990 6.187317 0.284493 101
0.876172 6.228980 0.349480 101
0.649808 5.980877 -0.580342 101
0.470034 6.129992 -0.012876 101
0.077143 5.958679 -0.448073 101
0.653864 6.008740 -0.489491 92
0.471337 6.133375 0.081601 101
0.079175 6.036710 -0.360792 76
0.842408 5.959686 -0.592282 101
0.666886 6.099603 -0.024631 101
0.273918 6.026310 -0.372136 101
0.846826 5.983635 -0.501094 101
0.672669 6.142882 0.070108 101
0.276623 6.063195 -0.280922 101
0.860832 6.075191 -0.224992 101
0.682655 6.224339 0.359949 101
0.465816 5.995125 -0.568414 101
0.280874 6.133572 -0.001072 101
0.867299 6.113385 -0.131496 101
0.690430 6.285409 0.461019 92
0.469311 6.026896 -0.477886 101
0.283349 6.164780 0.093714 101
0.876137 6.168173 0.154436 101
0.676893 6.152576 -1.129993 44
0.472789 6.058307 -0.199462 100
0.287203 6.225666 0.382275 100
0.087135 6.093133 -0.646932 2
0.882371 6.204518 0.251707 101
0.656993 5.962413 -0.671780 101
0.477115 6.100439 -0.106809 101
0.289796 6.258858 0.481009 101
0.086916 6.006736 -0.544599 101
0.664638 6.022436 -0.397128 101
0.483024 6.162566 0.176983 101
0.088324 6.033420 -0.267674 100
0.669321 6.055470 -0.305427 101
0.487552 6.206854 0.274009 101
0.278849 5.978629 -0.647022 75
0.089573 6.048797 -0.175317 72
0.675274 6.074895 -0.212379 101
0.491318 6.205605 0.369835 101
0.282044 5.967783 -0.553181 101
0.094087 6.098709 -0.083040 89
0.848247 5.916834 -0.681031 101
0.679668 6.105131 -0.119021 101
0.494372 6.230939 0.467785 101
0.285112 6.011372 -0.464126 101
0.095926 6.151243 0.010737 4
0.864700 6.024423 -0.410644 101
0.687220 6.163595 0.165649 101
0.490974 6.175007 -1.008172 13
0.289681 6.086202 -0.188290 101
0.869911 6.053534 -0.318371 101
0.690105 6.180084 0.261719 101
0.475277 5.964971 -0.658512 78
0.291184 6.096313 -0.094812 101
0.881771 6.128784 -0.036744 101
0.481678 6.032567 -0.384987 101
0.295356 6.162047 0.188484 101
0.885623 6.148267 0.058546 101
0.482146 6.025721 -0.291419 101
0.297364 6.182326 0.284310 101
0.898437 6.229842 0.349702 101
0.670640 5.978577 -0.580342 101
0.489468 6.104394 -0.012826 101
0.098098 5.970339 -0.448973 101
0.673891 5.998503 -0.488845 92
0.493010 6.135684 0.081654 101
0.100127 6.032405 -0.360554 76
0.866542 5.980360 -0.594633 101
0.688531 6.101223 -0.024647 101
0.294277 6.013359 -0.371397 101
0.868178 5.984602 -0.501425 101
0.694453 6.144483 0.070154 101
0.297291 6.054216 -0.280552 101
0.880769 6.064254 -0.224699 101
0.703811 6.217964 0.359719 101
0.486626 5.993472 -0.568414 101
0.301772 6.124570 -0.001070 101
0.884477 6.082637 -0.130900 101
0.714481 6.302796 0.462474 50
0.487956 5.997410 -0.475680 101
0.303947 6.147781 0.093471 101
0.902705 6.200711 0.155328 101
0.703994 6.201020 -1.139332 42
0.494118 6.060616 -0.199594 100
0.308592 6.220645 0.382030 100
0.108122 6.084840 -0.646088 13
0.903291 6.197468 0.251546 101
0.677652 5.960100 -0.671780 101
0.497277 6.086790 -0.106599 101
0.310890 6.245866 0.480090 101
0.107804 6.010382 -0.544960 101
0.685041 6.016131 -0.396866 101
0.504039 6.156871 0.176868 101
0.109365 6.041068 -0.268028 101
0.691184 6.061056 -0.305828 101
0.510341 6.221060 0.274713 101
0.299741 5.981600 -0.647452 100
0.110218 6.032460 -0.174853 68
0.695108 6.060587 -0.211962 101
0.512976 6.203852 0.369835 101
0.303278 5.974719 -0.553918 101
0.115072 6.082348 -0.082822 100
0.870051 5.921701 -0.681936 101
0.698237 6.078882 -0.118556 101
0.516449 6.233150 0.468083 101
0.305688 6.002374 -0.463511 101
0.116405 6.098880 0.010647 101
0.883400 6.005574 -0.409567 101
0.710102 6.173076 0.165969 101
0.509585 6.137845 -1.002389 19
0.309904 6.065189 -0.187672 101
0.889873 6.042556 -0.317955 101
0.709844 6.161757 0.261047 101
0.495437 5.955350 -0.657637 75
0.312462 6.095260 -0.094812 101
-0.074286 6.007940 -0.533064 3
0.904326 6.133583 -0.036791 101
0.503065 6.034827 -0.385241 101
0.317685 6.176950 0.188972 101
0.909416 6.160966 0.058697 101
0.504174 6.035946 -0.291997 101
0.319973 6.201203 0.285228 101
0.917842 6.210865 0.348814 101
0.692878 5.988065 -0.581494 101
0.511774 6.114607 -0.012851 101
0.119097 5.977936 -0.449572 101
0.695744 6.004035 -0.489491 92
0.515093 6.141896 0.081760 101
0.121504 6.047987 -0.361508 100
0.883904 5.953673 -0.592282 101
0.710286 6.102755 -0.024664 101
0.314847 6.004322 -0.370905 101
0.126471 6.141799 0.105083 4
0.889649 5.985478 -0.501755 101
0.716823 6.149967 0.070245 101
0.318632 6.057132 -0.280737 101
0.901931 6.061143 -0.224699 101
0.724585 6.207536 0.359260 101
0.507209 5.987768 -0.568038 101
0.323149 6.123479 -0.001070 101
0.908650 6.099289 -0.131325 101
0.510911 6.019510 -0.477571 101
0.326250 6.162659 0.093714 101
0.924344 6.197523 0.155328 101
0.516287 6.070805 -0.199987 100
0.330092 6.215543 0.381785 100
0.129530 6.092379 -0.646932 13
0.924919 6.194277 0.251546 101
0.699378 5.965595 -0.672670 101
0.519540 6.096972 -0.106809 101
0.332478 6.240760 0.479784 101
0.128783 6.009969 -0.544960 101
0.705572 6.009739 -0.396605 101
0.526548 6.167026 0.177212 101
0.334546 6.259870 -0.920331 1
0.130883 6.060625 -0.268915 101
0.712803 6.062574 -0.306028 101
0.531713 6.215259 0.274537 101
0.321258 5.992431 -0.648742 100
0.131796 6.056023 -0.175549 74
0.717198 6.066063 -0.212240 101
0.534629 6.202023 0.369835 101
0.324132 5.973623 -0.553918 101
0.135675 6.053919 -0.082441 89
0.890125 5.914699 -0.681483 101
0.720862 6.088323 -0.118789 101
0.537517 6.223361 0.467486 101
0.327939 6.025164 -0.465357 101
0.138145 6.118431 0.010681 101
0.906737 6.018239 -0.410644 101
0.729762 6.154676 0.165542 101
0.530327 6.128162 -1.001104 27
0.331073 6.064070 -0.187672 101
0.909172 6.027564 -0.317331 101
0.734175 6.183053 0.262056 101
0.517939 5.973391 -0.659824 78
0.333081 6.082151 -0.094626 101
-0.053314 6.008163 -0.533064 46
0.926328 6.134344 -0.036815 101
0.525164 6.044965 -0.386003 101
0.339245 6.175803 0.188972 101
0.932112 6.165664 0.058772 101
0.525241 6.034149 -0.291997 101
0.342716 6.219997 0.286145 101
0.942505 6.227367 0.349924 101
0.712362 5.973749 -0.580342 101
0.532073 6.100829 -0.012826 101
0.139776 5.969508 -0.448973 101
0.716697 6.001570 -0.489491 92
0.535832 6.132092 0.081654 101
0.142520 6.043534 -0.361270 101
0.908271 5.974164 -0.594633 101
0.732060 6.104210 -0.024680 101
0.337588 6.035075 -0.372875 101
0.147524 6.125328 0.104810 68
0.911137 5.986277 -0.502086 101
0.738763 6.151399 0.070290 101
0.339550 6.051993 -0.280552 101
0.149655 6.170931 0.200457 2
0.926094 6.077716 -0.225432 101
0.747680 6.216864 0.359949 101
0.529157 5.997862 -0.569167 101
0.344747 6.126307 -0.001071 101
0.930538 6.100034 -0.131411 101
0.531920 6.017690 -0.477571 101
0.347309 6.153496 0.093593 101
0.944764 6.186352 0.155130 101
0.537122 6.064983 -0.199856 100
0.351561 6.210367 0.381540 101
0.150402 6.075984 -0.645243 17
0.948348 6.202864 0.252028 101
0.720674 5.967064 -0.673115 101
0.540465 6.091138 -0.106739 101
0.352678 6.211689 0.477641 101
0.149761 6.009483 -0.544960 101
0.729900 6.034978 -0.398436 101
0.548780 6.173116 0.177441 101
0.356845 6.266566 -0.921493 34
0.152238 6.068121 -0.269269 101
0.733480 6.056083 -0.305828 101
0.553405 6.213365 0.274537 101
0.342173 5.991272 -0.648742 101
0.153238 6.067517 -0.175896 88
0.737402 6.055586 -0.211962 101
0.555204 6.188188 0.369123 100
0.344522 5.964503 -0.553181 101
0.156392 6.037415 -0.082223 86
0.910161 5.907628 -0.681031 101
0.740174 6.069890 -0.118479 101
0.558166 6.209529 0.466591 101
0.346893 5.988150 -0.462589 101
0.158772 6.089921 0.010633 101
0.925914 6.003204 -0.409837 101
0.750757 6.148123 0.165435 101
0.551361 6.122341 -1.000461 27
0.352007 6.058886 -0.187548 101
0.933864 6.048040 -0.318579 101
0.755269 6.176485 0.261888 101
0.538430 5.967587 -0.659387 78
0.355240 6.096923 -0.094874 101
-0.032341 6.008313 -0.533064 90
0.944069 6.107356 -0.036673 101
0.545543 6.035144 -0.385495 101
0.361034 6.178573 0.189094 101
0.955463 6.174231 0.058885 101
0.546661 6.036258 -0.292189 101
0.364659 6.222752 0.286329 101
0.964237 6.224039 0.349924 101
0.732725 5.967274 -0.579958 101
0.553365 6.098934 -0.012826 101
0.160934 5.980946 -0.449872 101
0.737642 5.999032 -0.489491 92
0.558320 6.142134 0.081813 101
0.163940 6.054975 -0.361985 101
0.926671 5.955224 -0.593066 101
0.752383 6.093678 -0.024647 101
0.357468 6.013933 -0.371643 101
0.168684 6.116779 0.104673 69
0.931414 5.979122 -0.501755 101
0.760722 6.152752 0.070335 101
0.361624 6.066726 -0.281292 101
0.171527 6.182361 0.200847 43
0.945456 6.062598 -0.224992 101
0.768886 6.210253 0.359719 101
0.549726 5.992013 -0.568791 101
0.366130 6.125067 -0.001071 101
-0.023235 5.991897 -0.438969 42
0.952443 6.100700 -0.131496 101
0.552557 6.011825 -0.477256 101
0.368547 6.148254 0.093532 101
0.966971 6.186967 0.155229 101
0.559756 6.078995 -0.200381 100
0.374195 6.225043 0.382520 101
0.171049 6.055542 -0.643132 21
0.966905 6.179772 0.251225 101
0.740518 5.956622 -0.672225 101
0.561724 6.089214 -0.106739 101
0.376998 6.254211 0.481009 101
0.170398 5.996977 -0.543877 101
0.750962 6.032393 -0.398436 101
0.569588 6.163199 0.177212 101
0.377284 6.241580 -0.918007 34
0.173304 6.063558 -0.269092 101
0.755604 6.061414 -0.306228 101
0.575459 6.215375 0.274713 101
0.364047 6.005920 -0.650462 101
0.174532 6.070942 -0.176012 100
0.759530 6.060909 -0.212240 101
0.577914 6.198140 0.369835 100
0.365584 5.967239 -0.553550 101
0.178641 6.076811 -0.082768 99
0.932633 5.916192 -0.682389 101
0.765839 6.102982 -0.119176 101
0.582063 6.231372 0.468382 101
0.370239 6.026709 -0.465664 101
0.180028 6.089330 0.010633 100
0.946863 5.999936 -0.409837 101
0.773709 6.157367 0.165756 101
0.572728 6.120379 -1.000461 20
0.373400 6.061611 -0.187672 101
0.183690 6.178195 0.295810 23
0.949983 6.013178 -0.316915 101
0.777822 6.181741 0.262224 101
0.558515 5.957753 -0.658512 78
0.376766 6.099638 -0.094937 101
-0.011331 5.988467 -0.531297 100
0.969131 6.127728 -0.036815 101
0.567352 6.041152 -0.386003 101
0.381857 6.165303 0.188728 101
0.978886 6.182710 0.058998 101
0.567728 6.034313 -0.292189 101
0.386379 6.221441 0.286329 101
0.987833 6.232470 0.350589 101
0.755546 5.980481 -0.581494 101
0.576528 6.116877 -0.012868 101
0.182659 6.008256 -0.451972 101
0.760080 6.008286 -0.490460 94
0.579381 6.136166 0.081760 101
0.185074 6.054365 -0.361985 101
0.948079 5.955884 -0.593458 101
0.774658 6.098951 -0.024680 101
0.380214 6.040541 -0.373367 101
0.190283 6.124148 0.104810 80
0.952906 5.979771 -0.502086 101
0.780680 6.138155 0.070199 101
0.381792 6.049475 -0.280552 101
0.192233 6.153753 0.199938 49
0.969131 6.075050 -0.225579 101
0.789550 6.199608 0.359260 101
0.570639 5.990057 -0.568791 101
0.387508 6.123752 -0.001071 101
-0.002333 6.027845 -0.441600 99
0.974994 6.105236 -0.131666 101
0.574676 6.021769 -0.478201 101
0.390766 6.158905 0.093714 101
-0.001328 6.037910 -0.349201 12
0.990455 6.195400 0.155526 101
0.580592 6.073025 -0.200250 100
0.395922 6.223699 0.382520 101
0.190292 5.995273 -0.636797 41
0.992260 6.200038 0.252188 101
0.763827 5.973716 -0.674451 101
0.584120 6.099160 -0.106948 101
0.399081 6.256837 0.481315 101
0.191584 6.004310 -0.544599 101
0.771001 6.021817 -0.397913 101
0.592626 6.177094 0.177670 101
0.397048 6.208629 -0.913358 33
0.194982 6.078892 -0.269801 101
0.777774 6.066665 -0.306629 101
0.597151 6.213328 0.274713 101
0.384501 5.996675 -0.649602 101
0.195722 6.070296 -0.176012 101
0.782214 6.070115 -0.212656 101
0.598777 6.188136 0.369360 100
0.387441 5.981825 -0.555025 101
0.200641 6.100136 -0.083095 100
0.952014 5.905053 -0.681483 101
0.788161 6.108204 -0.119331 101
0.602657 6.217391 0.467486 101
0.390498 6.013440 -0.464742 101
0.201415 6.092662 0.010640 101
0.967801 5.996594 -0.409837 101
0.796222 6.162560 0.165969 101
0.595233 6.130132 -1.002389 20
0.395076 6.068250 -0.187919 101
0.205122 6.173523 0.295619 81
0.977339 6.049260 -0.318994 101
0.801447 6.194842 0.262897 101
0.580463 5.967639 -0.659824 78
0.397535 6.090303 -0.094812 101
0.208909 6.255999 0.396007 4
0.009573 5.988470 -0.531297 101
0.991792 6.132205 -0.036863 101
0.588436 6.039135 -0.386003 101
0.404681 6.183881 0.189339 101
0.010607 6.006585 -0.254901 1
1.000462 6.179255 0.058998 101
0.588788 6.032295 -0.292189 101
0.407832 6.216067 0.286145 101
1.008304 6.221098 0.350145 101
0.777443 5.985704 -0.582262 101
0.597098 6.106865 -0.012851 101
0.203090 5.991636 -0.450772 101
0.781562 6.009550 -0.490783 94
0.601966 6.146048 0.081919 101
0.206071 6.049692 -0.361747 101
0.972700 5.976113 -0.595808 101
0.796978 6.104142 -0.024712 101
0.399974 6.019258 -0.372136 101
0.211659 6.123446 0.104810 78
0.974415 5.980342 -0.502416 101
0.804176 6.151257 0.070381 101
0.403703 6.060066 -0.281107 101
0.213851 6.157040 0.200068 53
0.989688 6.067685 -0.225432 101
0.812222 6.204734 0.359719 101
0.591936 5.991992 -0.569167 101
0.409148 6.126353 -0.001072 101
0.018720 6.031806 -0.441892 94
0.999521 6.121530 -0.132092 101
0.596477 6.027662 -0.478832 101
0.411728 6.149522 0.093593 101
0.019762 6.041872 -0.349432 100
1.012075 6.191905 0.155526 101
0.600604 6.059026 -0.199856 100
0.417110 6.214312 0.382030 101
0.209818 5.954821 -0.632575 32
1.013896 6.196537 0.252188 101
0.784156 5.967072 -0.674005 101
0.604616 6.089124 -0.106809 101
0.420651 6.251427 0.481009 101
0.212683 6.007585 -0.544960 101
0.792016 6.019089 -0.397913 101
0.613393 6.167030 0.177441 101
0.416055 6.167719 -0.907548 41
0.216200 6.078175 -0.269801 101
0.797380 6.052031 -0.306028 101
0.618043 6.203253 0.274361 101
0.405162 5.991329 -0.649172 101
0.217339 6.081563 -0.176360 101
0.800758 6.047534 -0.211962 101
0.620756 6.189982 0.369597 101
0.406404 5.952622 -0.552443 101
0.221481 6.087408 -0.082931 101
0.975842 5.921302 -0.683747 101
0.806314 6.081630 -0.118866 101
0.623947 6.211282 0.467188 101
0.411477 6.012041 -0.464742 101
0.224425 6.139891 0.010723 101
0.991322 6.008931 -0.410914 101
0.817725 6.159743 0.165969 101
0.614648 6.108376 -0.999176 16
0.415979 6.062845 -0.187795 101
0.226959 6.180755 0.296001 77
0.030133 6.122762 -0.638134 0
0.997149 6.037929 -0.318579 101
0.823068 6.192007 0.262897 101
0.602090 5.973488 -0.660700 78
0.419343 6.096859 -0.094937 101
0.228982 6.207360 0.392976 63
0.030378 5.968479 -0.529530 101
1.013200 6.128704 -0.036863 101
0.609121 6.033071 -0.385749 101
0.424623 6.158498 0.188606 101
0.031624 6.014503 -0.255241 29
1.020081 6.163885 0.058885 101
0.610258 6.034176 -0.292382 101
0.428440 6.198659 0.285411 101
1.030035 6.217537 0.350145 101
0.798352 5.982951 -0.582262 101
0.620044 6.120660 -0.012885 101
0.224322 5.998862 -0.451372 101
0.801505 5.998878 -0.490137 94
0.622636 6.135948 0.081813 101
0.227364 6.052925 -0.361985 101
0.991639 5.960893 -0.594633 101
0.818858 6.105281 -0.024728 101
0.422142 6.033753 -0.373121 101
0.232317 6.102686 0.104468 74
0.994025 5.969032 -0.501755 101
0.825162 6.144442 0.070335 101
0.424346 6.050645 -0.280737 101
0.235088 6.148263 0.199808 52
1.011576 6.068127 -0.225579 101
0.835531 6.213726 0.360408 101
0.612499 5.985922 -0.568791 101
0.431149 6.132864 -0.001073 101
0.239803 6.244075 0.491782 22
0.039805 6.027714 -0.441600 90
1.020947 6.117993 -0.132092 101
0.616764 6.017603 -0.478201 101
0.433256 6.148042 0.093593 101
0.040996 6.053745 -0.350125 100
1.033754 6.188323 0.155526 101
0.622228 6.060863 -0.199987 100
0.439152 6.216795 0.382275 101
0.230363 5.946100 -0.631730 37
1.038234 6.208715 0.252830 101
0.806118 5.972167 -0.674896 101
0.626761 6.094925 -0.106948 101
0.442266 6.245937 0.480703 101
0.234037 6.014765 -0.545682 101
0.813103 6.016277 -0.397913 101
0.637457 6.188707 0.178128 101
0.437104 6.158328 -0.906386 27
0.237497 6.077380 -0.269801 101
0.820195 6.061075 -0.306629 101
0.640603 6.208999 0.274713 101
0.426725 5.997805 -0.650032 101
0.238967 6.088754 -0.176591 101
0.821863 6.044703 -0.211962 101
0.643596 6.199693 0.370309 101
0.427750 5.959113 -0.553181 101
0.242888 6.090594 -0.082986 101
0.993866 5.902184 -0.681936 101
0.831854 6.110480 -0.119486 101
0.647275 6.224936 0.468382 70
0.431888 6.002613 -0.464126 101
0.245535 6.131076 0.010709 101
1.013618 6.013304 -0.411452 101
0.841382 6.172699 0.166397 101
0.641283 6.157242 -1.007529 15
0.438290 6.077307 -0.188290 101
0.248212 6.171941 0.295619 99
0.050970 6.058967 -0.631500 2
1.020213 6.046228 -0.319202 101
0.841975 6.169297 0.262056 101
0.621700 5.959486 -0.659387 78
0.440045 6.087379 -0.094812 101
0.251293 6.222477 0.393987 60
0.051143 5.960368 -0.528823 101
1.034587 6.125130 -0.036863 101
0.631421 6.042819 -0.386510 101
0.446985 6.168941 0.188972 101
0.052758 6.030342 -0.255919 89
1.038257 6.140567 0.058697 101
0.632565 6.043930 -0.292960 101
0.450943 6.209082 0.285962 101
0.054550 6.117517 -0.165542 48
1.051065 6.209966 0.349924 101
0.818151 5.972238 -0.581494 101
0.640989 6.114480 -0.012876 101
0.244935 5.990071 -0.450772 101
0.824607 6.011844 -0.491428 94
0.644886 6.141693 0.081919 101
0.248819 6.060073 -0.362463 101
1.013774 5.965244 -0.595416 101
0.840710 6.106349 -0.024744 101
0.443201 6.032243 -0.373121 101
0.253784 6.105834 0.104536 77
1.020203 5.996964 -0.504400 101
0.848244 6.153410 0.070471 101
0.446638 6.065066 -0.281477 101
0.257048 6.159389 0.200197 51
1.034094 6.072440 -0.225872 101
0.856124 6.202860 0.359949 101
0.633810 5.987707 -0.569167 101
0.453438 6.143289 -0.001075 101
0.260596 6.219295 0.489899 44
0.060564 5.999615 -0.439554 100
1.042297 6.114392 -0.132092 101
0.637345 6.011448 -0.477886 101
0.455599 6.158459 0.093775 101
0.061594 6.001655 -0.347122 100
1.058039 6.200444 0.155923 101
0.645914 6.082507 -0.200775 100
0.461736 6.227170 0.383009 101
0.250446 5.929363 -0.630041 47
0.063998 6.135247 -0.071751 1
1.059227 6.201114 0.252670 101
0.826415 5.965380 -0.674451 101
0.648879 6.100655 -0.107088 101
0.463179 6.232423 0.479784 101
0.254862 6.009931 -0.545321 101
0.835195 6.021309 -0.398436 101
0.656515 6.162589 0.177441 101
0.458304 6.152818 -0.905805 34
0.258200 6.064537 -0.269269 101
0.839149 6.042347 -0.305828 101
0.661849 6.202751 0.274537 101
0.447362 5.992313 -0.649602 101
0.260049 6.083888 -0.176476 101
0.846273 6.065552 -0.212795 101
0.666085 6.205349 0.370783 100
0.448848 5.961555 -0.553550 101
0.264667 6.101696 -0.083149 101
1.017156 5.914345 -0.683747 101
0.852625 6.103578 -0.119409 101
0.670279 6.234537 0.469277 34
0.453438 6.009022 -0.464742 101
0.267283 6.138174 0.010723 101
1.035279 6.013663 -0.411722 101
0.862923 6.169724 0.166397 101
0.664885 6.174592 -1.010742 15
0.459802 6.079727 -0.188413 101
0.271848 6.218936 0.297913 101
0.072451 6.086599 -0.634403 8
1.041991 6.046566 -0.319410 101
0.866276 6.186110 0.262897 101
0.643778 5.969140 -0.660700 78
0.460989 6.081818 -0.094750 101
0.273012 6.221562 0.393987 61
0.071852 5.952185 -0.528116 101
1.055961 6.121481 -0.036863 101
0.651224 6.028672 -0.385749 101
0.469727 6.183290 0.189461 101
0.074003 6.046105 -0.256597 100
1.063088 6.156613 0.058885 101
0.653658 6.041685 -0.292960 101
0.472007 6.199502 0.285595 101
0.075407 6.077308 -0.164460 101
1.074096 6.214130 0.350367 101
0.838993 5.969346 -0.581494 101
0.661897 6.108229 -0.012868 101
0.265666 5.985195 -0.450472 101
0.845032 6.004981 -0.491105 94
0.665889 6.135428 0.081866 101
0.269793 6.055179 -0.362224 101
1.035271 5.965591 -0.595808 101
0.862579 6.107337 -0.024760 101
0.464867 6.038620 -0.373614 101
0.276356 6.132878 0.105015 96
1.039766 5.985512 -0.503739 101
0.869718 6.150412 0.070471 101
0.468114 6.067454 -0.281662 101
0.278547 6.158454 0.200197 58
1.056654 6.076670 -0.226165 101
0.881129 6.223557 0.361326 101
0.655573 5.993376 -0.569920 101
0.474879 6.141668 -0.001075 101
0.284836 6.274117 0.494292 43
0.081398 5.991389 -0.438969 100
1.065691 6.122536 -0.132347 101
0.658325 6.009187 -0.477886 101
0.478329 6.172781 0.094018 101
0.082599 6.005396 -0.347353 100
1.082422 6.212471 0.156319 101
0.666270 6.072267 -0.200512 100
0.483779 6.229500 0.383254 101
0.273323 5.976135 -0.635108 61
0.085135 6.114989 -0.071517 54
1.082927 6.209191 0.253151 101
0.849470 5.978201 -0.676231 101
0.668423 6.082450 -0.106809 101
0.485860 6.242697 0.480703 101
0.275656 6.005025 -0.544960 101
0.854522 6.006502 -0.397651 101
0.678460 6.164234 0.177555 101
0.479471 6.147235 -0.905224 32
0.280287 6.083558 -0.270155 101
0.862489 6.055202 -0.306629 101
0.684372 6.208347 0.274889 101
0.467657 5.982786 -0.648742 101
0.281284 6.082943 -0.176476 101
0.866308 6.054647 -0.212517 101
0.686862 6.195049 0.370309 100
0.470281 5.967893 -0.554287 101
0.285777 6.096740 -0.083095 101
1.038482 5.914673 -0.684200 101
0.876761 6.120359 -0.119796 101
0.474725 6.011378 -0.465049 101
0.288520 6.133208 0.010716 101
1.054882 6.002151 -0.411183 101
0.883319 6.158759 0.166183 101
0.687307 6.180082 -1.012027 16
0.480706 6.074100 -0.188290 101
0.292989 6.205976 0.297340 100
0.093451 6.070397 -0.632744 12
1.064475 6.050761 -0.319826 101
0.889568 6.194916 0.263401 101
0.665490 5.974759 -0.661575 78
0.482848 6.088146 -0.094874 101
0.295672 6.240509 0.395249 65
0.093249 5.991737 -0.531651 101
1.078016 6.121697 -0.036886 101
0.673149 6.034297 -0.386256 101
0.490991 6.177627 0.189339 101
0.095170 6.049806 -0.256767 101
1.088044 6.172560 0.059074 101
0.674744 6.039367 -0.292960 101
0.494597 6.209766 0.286145 101
0.096303 6.057017 -0.163919 101
1.099251 6.230009 0.351477 101
0.861529 5.978203 -0.582646 101
0.684105 6.113832 -0.012885 101
0.286938 5.992199 -0.451072 101
0.865419 5.998048 -0.490783 94
0.689974 6.156915 0.082184 101
0.290736 6.050212 -0.361985 101
1.056783 5.965861 -0.596200 101
0.884466 6.108248 -0.024776 101
0.485623 6.032981 -0.373367 101
0.298732 6.151850 0.105357 101
1.064132 6.001472 -0.505391 101
0.892903 6.159214 0.070608 101
0.488005 6.049852 -0.280922 101
0.300820 6.173417 0.200717 77
1.076462 6.065073 -0.225872 101
0.903996 6.228348 0.361785 101
0.677830 6.002922 -0.571049 101
0.495992 6.135986 -0.001074 101
0.306735 6.273085 0.494292 45
0.102379 5.995057 -0.439262 100
1.087755 6.122716 -0.132433 101
0.680641 6.018739 -0.478832 101
0.499550 6.167087 0.093957 101
0.103767 6.017049 -0.348046 101
1.100600 6.188970 0.155824 101
0.686562 6.061959 -0.200250 100
0.504875 6.219815 0.382765 101
0.293595 5.963226 -0.633841 85
0.105992 6.086661 -0.071190 100
1.106695 6.217177 0.253633 101
0.870332 5.975200 -0.676231 101
0.692805 6.107897 -0.107297 101
0.508618 6.252888 0.481621 101
0.296813 6.008005 -0.545321 101
0.107866 6.135011 0.022490 48
0.876059 6.007432 -0.397913 101
0.700875 6.169774 0.177784 101
0.501247 6.149468 -0.905805 27
0.300136 6.054604 -0.268915 101
0.884198 6.056107 -0.306829 101
0.706942 6.213861 0.275240 101
0.486595 5.957335 -0.646163 101
0.302913 6.089911 -0.176707 101
0.889177 6.063452 -0.212934 101
0.709844 6.204515 0.371021 101
0.490456 5.958276 -0.553550 101
0.307861 6.111684 -0.083312 101
1.059122 5.911012 -0.684200 101
0.896377 6.105391 -0.119564 101
0.495378 6.005710 -0.464742 101
0.309523 6.124174 0.010702 101
1.077237 6.006289 -0.411722 101
0.904812 6.155638 0.166183 101
0.714727 6.228635 -1.020380 18
0.501247 6.064415 -0.188043 101
0.313841 6.188955 0.296575 100
0.114716 6.074011 -0.633159 30
1.084884 6.043077 -0.319618 101
0.908278 6.172004 0.262560 101
0.685434 5.964499 -0.660700 78
0.504427 6.090409 -0.094937 101
0.316034 6.211531 0.393482 69
0.113935 5.979424 -0.530590 101
1.101501 6.129707 -0.036957 101
0.694209 6.031910 -0.386256 101
0.511891 6.167907 0.189094 101
0.116364 6.053432 -0.256937 101
1.108875 6.164788 0.059036 101
0.694449 6.025067 -0.292382 101
0.515939 6.204020 0.285962 101
0.324033 6.326817 -0.850912 9
0.116825 6.024662 -0.163053 101
1.123822 6.241856 0.352364 100
0.881810 5.971221 -0.582262 101
0.705442 6.111406 -0.012885 101
0.307648 5.987178 -0.450772 101
0.121302 6.201691 0.118018 2
0.886350 5.994991 -0.490783 94
0.711002 6.150496 0.082131 101
0.311442 6.041185 -0.361508 101
1.078310 5.966053 -0.596591 101
0.905195 6.101167 -0.024760 101
0.505676 6.019314 -0.372629 101
0.319996 6.146776 0.105288 101
1.082946 5.985952 -0.504400 101
0.912047 6.140234 0.070426 101
0.509120 6.048112 -0.280922 101
0.322785 6.180314 0.200976 95
1.100476 6.077012 -0.226458 101
0.926318 6.229105 0.362015 101
0.697398 5.988653 -0.569920 101
0.517744 6.138203 -0.001075 101
0.327587 6.252065 0.492723 40
0.123223 5.990675 -0.438969 101
1.106268 6.103142 -0.132092 101
0.701647 6.016327 -0.478832 101
0.520064 6.153350 0.093775 101
0.125101 6.032620 -0.348970 101
1.125766 6.204762 0.156319 101
0.709109 6.071438 -0.200643 100
0.526583 6.218015 0.382765 101
0.314828 5.970109 -0.634686 94
0.127739 6.110247 -0.071470 101
1.128391 6.213276 0.253633 101
0.890598 5.968194 -0.675786 101
0.714122 6.105442 -0.107297 101
0.532128 6.270945 0.483152 101
0.317993 6.010911 -0.545682 101
0.128775 6.110602 0.022402 101
0.899383 6.020128 -0.398959 101
0.720547 6.151405 0.177326 101
0.521704 6.135851 -0.904062 42
0.322539 6.077462 -0.269978 101
0.905332 6.052984 -0.306829 101
0.729094 6.215325 0.275416 101
0.508738 5.971450 -0.647882 101
0.323531 6.076838 -0.176360 101
-0.061740 6.001124 -0.520837 46
0.909743 6.056358 -0.212795 101
0.730094 6.190103 0.370309 101
0.511592 5.960496 -0.553918 101
0.328978 6.106578 -0.083258 101
1.080464 5.911189 -0.684653 101
0.918278 6.106180 -0.119641 101
0.517364 6.015865 -0.465664 101
0.332194 6.147021 0.010744 101
1.095323 5.986789 -0.410644 101
0.926293 6.152442 0.166183 101
0.522756 6.066612 -0.188166 101
0.335875 6.195801 0.296957 101
0.135472 6.053687 -0.631085 33
1.111008 6.066758 -0.321074 101
0.932795 6.188555 0.263401 101
0.708121 5.977864 -0.662450 78
0.526716 6.100565 -0.095123 101
0.337064 6.198432 0.392724 71
0.135256 5.998906 -0.532358 101
1.122169 6.121891 -0.036934 101
0.716671 6.041342 -0.387018 101
0.534451 6.178032 0.189461 101
0.137675 6.060980 -0.257276 101
1.130387 6.160880 0.059036 101
0.715947 6.026574 -0.292574 101
0.536556 6.190238 0.285411 101
0.344167 6.290021 -0.846119 37
0.137671 6.016222 -0.162837 101
0.901457 5.960233 -0.581494 101
0.728660 6.124795 -0.012918 101
0.328764 5.990050 -0.451072 101
0.141566 6.141257 0.116877 60
0.906675 5.987918 -0.490460 94
0.732940 6.151947 0.082184 101
0.332748 6.044048 -0.361747 101
1.098407 5.958338 -0.596200 101
0.926486 6.097970 -0.024760 101
0.527729 6.029444 -0.373367 101
0.340785 6.133642 0.105083 101
1.106004 5.993896 -0.505391 101
0.934076 6.140967 0.070471 101
0.531625 6.062220 -0.281662 101
0.343911 6.171166 0.200717 100
1.121682 6.073133 -0.226458 101
0.946253 6.213989 0.361326 101
0.718298 5.986182 -0.569920 101
0.537767 6.120420 -0.001072 101
0.348741 6.238939 0.491782 57
0.144998 6.026102 -0.441600 101
1.133381 6.130702 -0.132773 101
0.725022 6.033636 -0.480408 101
0.542943 6.167434 0.094018 101
0.147029 6.068076 -0.351049 101
1.145235 6.188999 0.156022 101
0.730776 6.072895 -0.200775 100
0.548635 6.220116 0.383009 101
0.335889 5.972945 -0.635108 94
0.148677 6.093770 -0.071283 101
1.147888 6.197510 0.253151 101
0.912026 5.968978 -0.676231 101
0.734951 6.098941 -0.107228 101
0.552961 6.257131 0.482234 101
0.338973 6.009764 -0.545682 101
0.150497 6.126111 0.022460 101
0.920995 6.020897 -0.399221 101
0.744410 6.168700 0.177899 101
0.547657 6.185241 -0.911615 12
0.343752 6.076299 -0.269978 101
0.927060 6.053736 -0.307029 101
0.749826 6.204807 0.275065 101
0.529227 5.965677 -0.647452 101
0.344741 6.075672 -0.176360 101
-0.040711 5.989348 -0.519799 100
0.931502 6.057094 -0.212934 101
0.751232 6.183550 0.370072 101
0.533474 5.970574 -0.555025 101
0.350308 6.105392 -0.083258 101
1.101101 5.907380 -0.684653 101
0.939597 6.102935 -0.119641 101
0.538014 6.010049 -0.465357 101
0.352050 6.117870 0.010695 101
1.122805 6.018237 -0.413068 101
0.949595 6.161026 0.166503 101
0.544648 6.072714 -0.188413 101
0.358425 6.210546 0.297722 101
0.156195 6.037268 -0.629427 87
1.128510 6.043210 -0.320034 101
0.954389 6.185261 0.263401 101
0.728018 5.967463 -0.661575 78
0.546931 6.086740 -0.094937 101
0.359157 6.205188 0.393229 82
0.156193 5.998398 -0.532358 101
1.144993 6.125802 -0.036981 101
0.737262 6.034842 -0.386764 101
0.553854 6.152237 0.188728 101
0.158823 6.060463 -0.257276 101
1.153342 6.164762 0.059111 101
0.737935 6.031971 -0.292960 101
0.558864 6.196288 0.285778 101
0.363111 6.237332 -0.839197 22
0.159500 6.047683 -0.163702 101
0.925282 5.976726 -0.583414 101
0.750987 6.130157 -0.012935 101
0.350116 5.996831 -0.451672 101
0.162133 6.108743 0.116268 100
0.927544 5.984721 -0.490460 94
0.754383 6.149355 0.082184 101
0.354284 6.050823 -0.362224 101
0.165649 6.202119 0.213408 101
1.121360 5.966213 -0.597375 101
0.949565 6.106563 -0.024808 101
0.549814 6.039497 -0.374106 101
0.362619 6.140402 0.105220 101
1.128344 5.997844 -0.506052 101
0.956685 6.145582 0.070562 101
0.553458 6.068290 -0.282032 101
0.365871 6.177913 0.200976 100
1.142817 6.069191 -0.226458 101
0.966649 6.202766 0.360867 101
0.740109 5.991549 -0.570673 101
0.561254 6.142411 -0.001077 101
0.370222 6.233706 0.491468 67
0.166414 6.041512 -0.442769 101
1.153970 6.122791 -0.132688 101
0.745526 6.027119 -0.480093 101
0.564404 6.165507 0.094018 101
0.167704 6.051560 -0.350125 101
1.165278 6.177118 0.155824 101
0.751900 6.070316 -0.200775 100
0.568450 6.198290 0.381785 101
0.356193 5.963799 -0.634264 94
0.169766 6.089217 -0.071236 101
1.170921 6.201335 0.253472 101
0.932167 5.961842 -0.675786 101
0.754683 6.084441 -0.107018 101
0.574356 6.251198 0.481927 101
0.359636 6.004572 -0.545321 101
0.171804 6.125550 0.022460 101
0.940691 6.009772 -0.398697 101
0.767826 6.181946 0.178357 101
0.567347 6.163595 -0.908710 18
0.365117 6.079056 -0.270155 101
0.946862 6.042583 -0.306629 101
0.773857 6.221992 0.275944 101
0.551423 5.979641 -0.649172 101
0.365138 6.062464 -0.176012 101
-0.019877 5.985469 -0.519453 100
0.956368 6.077499 -0.213768 101
0.773803 6.188815 0.370546 101
0.554680 5.972641 -0.555394 101
0.371861 6.108124 -0.083312 101
-0.016114 6.028661 -0.430026 101
1.124682 5.919117 -0.686464 101
0.962761 6.111470 -0.119874 101
0.561207 6.031960 -0.467202 101
0.374622 6.136566 0.010730 101
1.143060 6.010361 -0.412799 101
0.972341 6.165573 0.166717 101
0.565842 6.070776 -0.188413 101
0.378881 6.189317 0.296766 101
0.176100 5.996919 -0.625280 70
1.152586 6.054930 -0.320866 101
0.975351 6.177945 0.263233 101
0.750330 5.976720 -0.662887 78
0.569290 6.096740 -0.095123 101
0.382772 6.235773 0.395249 94
0.177130 5.997816 -0.532358 101
1.167867 6.129626 -0.037029 101
0.758821 6.036193 -0.387018 101
0.579050 6.190074 0.189950 101
0.179977 6.059871 -0.257276 101
1.174854 6.160698 0.059111 101
0.759984 6.037287 -0.293345 101
0.581981 6.210213 0.286512 101
0.383904 6.220200 -0.837067 22
0.181206 6.067073 -0.164243 101
0.945516 5.969528 -0.583030 101
0.771881 6.123530 -0.012927 101
0.370800 5.991591 -0.451372 101
0.183215 6.100145 0.116116 101
0.949054 5.985384 -0.490783 94
0.772839 6.122875 0.081866 101
0.375403 6.049550 -0.362224 101
0.186573 6.177528 0.212582 101
1.141430 5.958353 -0.596983 101
0.969619 6.095311 -0.024776 101
0.569013 6.017668 -0.372875 101
0.383552 6.131116 0.105083 101
-0.006016 6.011066 -0.243531 1
1.150024 5.997783 -0.506383 101
0.977502 6.138255 0.070517 101
0.573883 6.058365 -0.281662 101
0.387434 6.176599 0.200976 100
1.167762 6.084794 -0.227191 101
0.992696 6.226959 0.362474 101
0.761521 5.992880 -0.571049 101
0.584203 6.156343 -0.001079 101
0.389977 6.200537 0.488957 100
0.187254 6.032919 -0.442184 101
1.175335 6.118726 -0.132688 101
0.765554 6.016569 -0.479462 101
0.585165 6.155536 0.093897 101
0.189076 6.058921 -0.350587 101
1.190608 6.192647 0.156319 101
0.773590 6.071620 -0.200906 97
0.591218 6.208192 0.382520 101
0.376758 5.958549 -0.633841 94
0.191021 6.088588 -0.071236 101
1.194826 6.208984 0.253954 101
0.954228 5.966403 -0.676677 101
0.778954 6.105573 -0.107437 101
0.595795 6.245185 0.481621 101
0.381350 6.015207 -0.546404 101
0.193059 6.120915 0.022446 101
0.966080 6.034040 -0.400529 101
