# This PCD file was generated using the MATLAB® pcwrite function
# from Computer Vision Toolbox®.
# .PCD v.7 - Point Cloud Data file format
VERSION .7
FIELDS x y z intensity
SIZE 4 4 4 1
TYPE F F F U
COUNT 1 1 1 1
WIDTH 759
HEIGHT 1
VIEWPOINT 0 0 0 1 0 0 0
POINTS 759
DATA ascii
-3.157319 17.233326 -1.182117 2
-3.090794 17.208889 -1.179694 55
-3.029984 17.215649 -1.179425 45
-3.036833 17.271301 -0.912898 12
-2.968515 17.218254 -1.178886 44
-2.974492 17.269987 -0.912274 46
-2.962222 17.353155 -0.645516 1
-2.907730 17.224577 -1.178617 56
-2.912862 17.272387 -0.911858 33
-2.893065 17.312136 -0.643610 54
-2.844364 17.214930 -1.177270 65
-2.850583 17.270628 -0.911235 32
-2.830872 17.314314 -0.643317 59
-2.842755 17.405380 -0.375580 0
-2.786166 17.236572 -1.178078 84
-2.789643 17.276531 -0.911027 39
-2.772310 17.335932 -0.643757 61
-2.777565 17.387554 -0.374984 31
-2.724736 17.238308 -1.177540 100
-2.724336 17.254597 -0.909363 49
-2.706840 17.313908 -0.642584 64
-2.716855 17.397144 -0.374984 44
-2.668137 17.251198 -1.177809 100
-2.668950 17.275377 -0.909987 62
-2.686738 17.409594 -0.104535 11
-2.650470 17.326670 -0.642731 68
-2.654823 17.374355 -0.374303 34
-2.606114 17.248568 -1.177001 100
-2.611016 17.300388 -0.910819 65
-2.576274 17.224630 -1.444117 4
-2.591153 17.343723 -0.643024 76
-2.591207 17.363739 -0.373877 29
-3.121160 17.234072 -1.147956 25
-2.544142 17.245716 -1.176193 100
-2.550611 17.309397 -0.910819 66
-2.517285 17.241407 -1.444778 37
-2.531173 17.356619 -0.643170 94
-2.530581 17.372679 -0.373877 32
-3.060983 17.244864 -1.147956 45
-2.483969 17.254484 -1.176193 100
-2.489012 17.310289 -0.910403 66
-2.455971 17.246222 -1.444447 44
-2.467698 17.349607 -0.642584 100
-2.467546 17.369627 -0.373622 38
-2.999202 17.251663 -1.147694 54
-3.002363 17.287182 -0.879630 44
-2.424279 17.267002 -1.176463 100
-2.427463 17.310961 -0.909987 66
-2.393015 17.234947 -1.442794 42
-2.408220 17.366034 -0.642877 101
-2.407449 17.382095 -0.373707 45
-2.933605 17.230549 -1.145601 57
-2.939992 17.285742 -0.879029 68
-2.362368 17.263498 -1.175655 100
-2.365940 17.311413 -0.909571 66
-2.328029 17.207644 -1.439820 49
-2.346516 17.366411 -0.642584 101
-2.351038 17.422098 -0.374388 49
-2.872129 17.232809 -1.145078 66
-2.877011 17.280136 -0.878228 46
-2.870757 17.308964 -0.609633 46
-2.301533 17.267687 -1.175385 100
-2.304990 17.315603 -0.909363 66
-2.269947 17.227463 -1.440811 55
-2.285852 17.370468 -0.642438 101
-2.290235 17.426163 -0.374303 56
-2.812012 17.238678 -1.144816 73
-2.814856 17.274179 -0.877427 47
-2.807118 17.299150 -0.608939 47
-2.821407 17.405500 -0.341644 1
-2.240730 17.271658 -1.175116 100
-2.246587 17.339390 -0.910195 66
-2.211826 17.251099 -1.442133 62
-2.224189 17.370413 -0.642144 101
-2.227870 17.422150 -0.374047 63
-2.753707 17.260212 -1.145601 75
-2.755798 17.291790 -0.877827 56
-2.747343 17.312792 -0.609078 42
-2.756876 17.391542 -0.341179 58
-2.181426 17.287292 -1.175655 100
-2.185048 17.339201 -0.909779 66
-2.150609 17.250803 -1.441472 78
-2.163541 17.378071 -0.642144 101
-2.165562 17.417915 -0.373792 65
-2.690981 17.253944 -1.144555 72
-2.694807 17.297358 -0.877627 63
-2.690585 17.325748 -0.609217 53
-2.695545 17.376873 -0.340714 49
-2.121668 17.274624 -1.174308 100
-2.126557 17.338423 -0.909363 66
-2.651632 17.207895 -1.410031 21
-2.092255 17.249947 -1.440811 71
-2.104742 17.377237 -0.641851 101
-2.108530 17.432968 -0.373962 69
-2.632867 17.258871 -1.144293 71
-2.637731 17.310194 -0.877827 80
-2.627692 17.319225 -0.608661 58
-2.631276 17.362452 -0.340249 35
-2.061355 17.281925 -1.174308 100
-2.065549 17.341772 -0.909155 66
-2.596890 17.252529 -1.412937 93
-2.031096 17.249226 -1.440150 74
-2.045472 17.396387 -0.642291 101
-2.046732 17.432278 -0.373792 33
-2.572018 17.264008 -1.144032 79
-2.575527 17.307442 -0.877226 89
-2.567220 17.328291 -0.608661 63
-2.569483 17.363619 -0.340094 42
-1.999641 17.277122 -1.173501 100
-2.002709 17.329037 -0.908115 66
-3.098417 17.211990 -1.112551 39
-2.527956 17.202320 -1.408094 71
-1.970421 17.252251 -1.439820 65
-1.982923 17.387535 -0.641705 101
-2.513463 17.284731 -1.144816 79
-2.515097 17.316326 -0.877226 98
-2.507898 17.345055 -0.608939 74
-2.510594 17.384354 -0.340326 52
-1.939329 17.283997 -1.173501 100
-1.942647 17.339891 -0.908323 66
-3.034831 17.203049 -1.111281 39
-2.531298 17.632544 -1.718365 15
-2.465005 17.191317 -1.406480 77
-1.922967 17.402311 -0.641998 101
-2.449568 17.269714 -1.143247 78
-2.453320 17.317118 -0.876826 96
-2.445662 17.341829 -0.608522 92
-2.450454 17.396971 -0.340404 60
-1.878985 17.290661 -1.173501 100
-1.882108 17.346567 -0.908323 66
-2.974763 17.213537 -1.111281 38
-2.983936 17.283945 -0.845557 59
-2.466974 17.621555 -1.716444 26
-2.406085 17.207712 -1.407125 78
-1.863485 17.420841 -0.642438 100
-2.390364 17.286066 -1.143770 77
-2.392310 17.321617 -0.876626 100
-2.387596 17.345882 -0.608383 100
-2.392750 17.405001 -0.340404 73
-1.825410 17.360659 -0.908739 66
-2.918998 17.231178 -1.111789 46
-2.923271 17.274048 -0.844594 55
-2.416070 17.684868 -1.721821 7
-2.350626 17.227448 -1.408094 100
-1.805293 17.422949 -0.642291 98
-2.904867 17.324696 -0.576604 8
-2.330894 17.278076 -1.142723 79
-2.335923 17.337374 -0.877026 100
-2.327482 17.358084 -0.608522 100
-2.332460 17.417217 -0.340481 79
-1.765214 17.370897 -0.908947 66
-2.859528 17.245193 -1.112043 56
-2.863029 17.284136 -0.844594 55
-2.350755 17.665552 -1.719133 15
-2.295340 17.271099 -1.411000 101
-1.744759 17.429115 -0.642291 88
-2.840846 17.311001 -0.575816 31
-2.270984 17.286053 -1.142723 78
-2.273761 17.329519 -0.876225 100
-2.267912 17.374031 -0.608800 86
-2.271649 17.425253 -0.340481 92
-2.799953 17.259010 -1.112297 65
-2.802040 17.290079 -0.844402 57
-2.274246 17.559143 -1.707994 25
-2.231970 17.255283 -1.409063 101
-1.683909 17.435099 -0.642291 88
-2.778501 17.308969 -0.575423 33
-2.784924 17.367453 -0.307023 24
-2.210631 17.293875 -1.142723 81
-2.212750 17.333387 -0.876025 100
-2.209781 17.377491 -0.608661 98
-2.212341 17.420788 -0.340249 81
-2.742704 17.268202 -1.112297 75
-2.744062 17.295330 -0.844209 67
-2.233446 17.704845 -1.721437 6
-2.175236 17.266544 -1.409386 101
-2.710764 17.233681 -1.379124 47
-2.717984 17.298342 -0.574766 36
-2.725456 17.364738 -0.306813 43
-2.151791 17.289227 -1.141939 77
-2.155751 17.344595 -0.876225 100
-2.146120 17.361300 -0.607828 95
-2.153449 17.444284 -0.340559 61
-2.681822 17.273722 -1.112043 86
-2.683715 17.304798 -0.844209 82
-2.114057 17.266109 -1.408740 101
-2.650164 17.239071 -1.378809 66
-2.655962 17.295837 -0.574373 49
-2.661402 17.350395 -0.306394 40
-2.090701 17.288679 -1.141415 83
-2.095444 17.351984 -0.876225 100
-2.086935 17.380592 -0.608244 100
-2.621509 17.282978 -1.112043 92
-2.621498 17.302210 -0.843631 82
-2.052362 17.261505 -1.407771 101
-2.582867 17.200895 -1.375026 59
-2.598537 17.324772 -0.575029 61
-2.598452 17.343758 -0.306115 42
-2.031270 17.303801 -1.141939 74
-2.033931 17.351257 -0.875825 100
-2.025789 17.383801 -0.608105 100
-2.559409 17.280176 -1.111281 95
-2.561086 17.311255 -0.843631 97
-1.993010 17.276485 -1.408417 101
-3.094777 17.218840 -1.079219 19
-2.519339 17.186134 -1.373135 60
-2.539785 17.345604 -0.575423 72
-2.540210 17.368551 -0.306394 47
-1.969953 17.302855 -1.141415 80
-1.973803 17.362221 -0.876025 100
-1.965673 17.394724 -0.608244 79
-2.499008 17.289015 -1.111281 97
-2.499957 17.316151 -0.843439 87
-3.035681 17.237463 -1.079712 60
-2.524478 17.632797 -1.683786 12
-2.461655 17.214632 -1.374711 76
-2.479234 17.358400 -0.575554 86
-2.477834 17.369480 -0.306255 58
-1.909331 17.313663 -1.141677 80
-1.912485 17.369081 -0.876025 100
-1.904507 17.397505 -0.608105 70
-2.437528 17.289726 -1.110773 100
-2.438940 17.320816 -0.843246 100
-2.972778 17.232218 -1.078727 50
-2.975736 17.266701 -0.810957 21
-2.464014 17.649389 -1.684539 16
-2.401549 17.223120 -1.374711 100
-2.421383 17.386747 -0.576210 83
-2.418841 17.389908 -0.306464 71
-1.847613 17.308317 -1.140892 63
-1.852268 17.379623 -0.876225 100
-1.843767 17.404047 -0.608105 74
-2.375531 17.286266 -1.110011 100
-2.377377 17.321306 -0.842861 100
-2.913273 17.246428 -1.078973 57
-2.913451 17.265162 -0.810402 50
-2.408297 17.701288 -1.688680 2
-2.345710 17.263008 -1.377233 100
-2.356914 17.367363 -0.575291 89
-2.360811 17.418060 -0.306813 77
-1.790771 17.378036 -0.875825 100
-1.786369 17.414051 -0.608244 63
-2.897843 17.363441 -0.543989 4
-2.320359 17.309868 -1.111027 100
-2.321059 17.337006 -0.843246 100
-2.856295 17.255955 -1.078973 68
-2.852531 17.251032 -0.809293 54
-2.332597 17.578865 -1.676257 13
-2.286154 17.250885 -1.375656 101
-2.301763 17.390888 -0.575816 80
-2.303426 17.425743 -0.306813 86
-1.734376 17.391785 -0.876225 75
-1.719778 17.392633 -0.607272 74
-2.813957 17.231907 -1.346551 41
-2.830965 17.354218 -0.543371 76
-2.256899 17.318256 -1.111027 84
-2.254406 17.321625 -0.842090 100
-2.791117 17.254484 -1.078234 86
-2.788009 17.253483 -0.808923 52
-2.268661 17.591246 -1.676634 15
-2.222911 17.259148 -1.375656 101
-2.234947 17.375418 -0.575029 85
-2.240051 17.438034 -0.306883 67
-1.662472 17.402222 -0.607411 74
-2.754280 17.225389 -1.345321 58
-2.766464 17.320082 -0.542012 50
-2.768979 17.354366 -0.273005 11
-2.198452 17.317726 -1.110519 100
-2.200471 17.356750 -0.843439 100
-2.733884 17.263645 -1.078234 88
-2.733901 17.282366 -0.809848 63
-2.167154 17.278294 -1.376602 100
-2.176322 17.374800 -0.574766 85
-2.689258 17.203369 -1.342860 56
-2.704158 17.317778 -0.541642 50
-2.708988 17.367878 -0.273067 44
-2.138434 17.329262 -1.110773 100
-2.136865 17.340544 -0.842283 100
-2.673987 17.277063 -1.078480 100
-2.675128 17.303692 -0.810402 79
-2.102262 17.226837 -1.640496 24
-2.105059 17.273918 -1.375656 101
-2.115303 17.382334 -0.574766 85
-2.624975 17.185055 -1.340707 59
-2.643088 17.323160 -0.541518 60
-2.647141 17.369322 -0.272942 49
-2.076981 17.328693 -1.110265 100
-2.076797 17.351864 -0.842475 100
-2.614260 17.290239 -1.078727 100
-2.612920 17.301071 -0.809848 99
-2.044459 17.253843 -1.642378 49
-2.045217 17.285120 -1.375972 101
-2.055084 17.393581 -0.574898 94
-2.569740 17.205498 -1.341630 64
-2.587988 17.347647 -0.542012 69
-2.587170 17.362181 -0.272694 47
-2.019043 17.331520 -1.110011 100
-2.019245 17.358654 -0.842475 100
-2.555741 17.290915 -1.078234 100
-2.556117 17.313593 -0.810033 100
-1.988342 17.295769 -1.376287 101
-1.997393 17.400301 -0.574898 93
-2.515945 17.257782 -1.345013 60
-2.525670 17.344709 -0.541642 81
-2.528864 17.386936 -0.272942 60
-1.959024 17.342424 -1.110265 100
-1.957818 17.357649 -0.842090 101
-3.064481 17.274994 -1.048493 46
-2.494459 17.291794 -1.077742 100
-2.497067 17.330282 -0.810402 100
-1.926955 17.290680 -1.375341 86
-1.936115 17.399181 -0.574635 94
-2.504209 17.586620 -1.644791 22
-2.455127 17.262510 -1.344706 58
-2.467359 17.369253 -0.542136 83
-2.468718 17.399616 -0.273005 64
-1.895870 17.325348 -1.108742 101
-1.897217 17.364378 -0.842090 100
-3.002110 17.273783 -1.047777 39
-2.435753 17.312258 -1.078480 100
-2.435446 17.330980 -0.810033 100
-1.872799 17.381985 -0.573848 94
-2.981328 17.307833 -0.779090 18
-2.448830 17.638651 -1.648848 24
-2.394307 17.267025 -1.344398 57
-2.405617 17.369839 -0.541889 81
-2.408515 17.412090 -0.273067 74
-1.837063 17.347738 -1.109757 84
-1.835752 17.362947 -0.841705 100
-2.941125 17.280222 -1.047539 36
-2.373137 17.304832 -1.077495 100
-2.374934 17.339375 -0.810033 100
-1.814600 17.412273 -0.574635 94
-2.917571 17.298433 -0.778204 47
-2.331400 17.255508 -1.342860 68
-2.344990 17.378128 -0.541889 92
-2.346641 17.412466 -0.272942 84
-1.775871 17.377207 -0.842090 100
-2.866138 17.185455 -1.310028 30
-2.875402 17.258896 -1.045630 43
-2.313016 17.316999 -1.077742 100
-2.313076 17.339674 -0.809663 100
-1.751449 17.398649 -0.573979 94
-2.853500 17.288866 -0.777317 52
-2.858051 17.334593 -0.509149 39
-2.315310 17.576328 -1.641472 24
-2.271152 17.263542 -1.342860 62
-2.284315 17.386208 -0.541889 92
-2.284805 17.412621 -0.272818 42
-1.716379 17.395227 -0.842668 52
-2.802920 17.175673 -1.308529 38
-2.815140 17.268827 -1.045630 52
-2.251010 17.313089 -1.077003 100
-2.253049 17.351604 -0.809848 100
-1.690320 17.400677 -0.573848 94
-2.790585 17.282942 -0.776608 53
-2.797525 17.344463 -0.509149 51
-2.239258 17.469734 -1.630777 40
-2.213409 17.291143 -1.344398 65
-2.221584 17.378212 -0.541395 92
-2.744206 17.193230 -1.309129 47
-2.755472 17.282494 -1.045868 67
-2.190562 17.320843 -1.077003 100
-2.190965 17.347471 -0.809293 100
-1.630315 17.414433 -0.574110 86
-2.731486 17.300472 -0.776963 54
-2.732604 17.326475 -0.508338 41
-2.144320 17.204725 -1.605331 70
-2.730678 17.385223 -0.239591 53
-2.152575 17.294804 -1.344090 53
-2.159934 17.377924 -0.541147 100
-2.682884 17.194830 -1.308529 48
-2.699355 17.319635 -1.047539 75
-2.129471 17.324436 -1.076756 100
-2.130250 17.355030 -0.809293 100
-2.671453 17.313887 -0.777140 63
-2.673071 17.343851 -0.508569 49
-2.084251 17.212105 -1.605331 78
-2.666941 17.374884 -0.239319 43
-2.088840 17.274498 -1.341937 60
-2.097343 17.369480 -0.540653 100
-2.623448 17.208035 -1.308829 49
-2.634674 17.301321 -1.045868 90
-2.068984 17.331764 -1.076756 95
-2.070602 17.370296 -0.809663 100
-2.611595 17.327059 -0.777317 67
-2.609537 17.333307 -0.507990 56
-2.024157 17.219275 -1.605331 72
-2.603310 17.364309 -0.239047 39
-2.028993 17.285645 -1.342245 73
-2.038096 17.388609 -0.541024 101
-2.561603 17.205250 -1.307929 57
-2.577202 17.330158 -1.047061 87
-2.007554 17.330948 -1.076264 101
-2.008120 17.361542 -0.808923 101
-2.552260 17.343975 -0.777672 82
-2.549016 17.342312 -0.507990 71
-2.542010 17.369347 -0.238992 48
-1.968135 17.288666 -1.341937 68
-1.977364 17.395620 -0.541024 101
-2.502221 17.218018 -1.308229 55
-2.514552 17.323221 -1.046107 83
-1.946859 17.333855 -1.076017 101
-1.949135 17.380325 -0.809478 100
-3.048899 17.251375 -1.013191 44
-2.541191 17.673018 -1.618629 6
-2.492173 17.352713 -0.777672 88
-2.492377 17.374777 -0.508685 78
-2.484191 17.397911 -0.239265 49
-1.906462 17.283539 -1.341015 41
-1.915754 17.394468 -0.540777 100
-2.440984 17.218748 -1.307629 57
-2.453507 17.327940 -1.045868 91
-1.886340 17.340544 -1.076017 100
-1.887592 17.379078 -0.809108 100
-2.985814 17.228323 -1.280960 17
-2.986619 17.250109 -1.012498 53
-2.471741 17.626551 -1.613573 17
-2.430477 17.353390 -0.777317 100
-2.431159 17.379412 -0.508569 79
-2.425101 17.418362 -0.239428 49
-1.854177 17.393099 -0.540530 100
-2.956655 17.281115 -0.744014 17
-2.383595 17.246920 -1.309129 49
-2.392461 17.332443 -1.045630 83
-1.824963 17.339083 -1.075525 100
-1.826081 17.377613 -0.808738 100
-2.920985 17.211107 -1.278915 50
-2.923049 17.240744 -1.011343 49
-2.412894 17.654806 -1.615378 14
-2.368807 17.353849 -0.776963 92
-2.371018 17.391754 -0.508685 83
-2.364868 17.430677 -0.239482 12
-1.792233 17.387531 -0.540159 101
-2.893650 17.275568 -0.743336 46
-2.321722 17.243284 -1.308229 57
-2.332400 17.344656 -1.045868 85
-1.764860 17.379921 -0.808553 100
-2.854843 17.185808 -1.276284 55
-2.864630 17.262690 -1.012036 51
-2.341572 17.592072 -1.608878 8
-2.309035 17.369967 -0.777317 92
-2.311622 17.411848 -0.509033 72
-1.735755 17.405315 -0.540530 101
-2.835052 17.277182 -0.742996 50
-2.836891 17.306610 -0.474553 21
-2.264009 17.246933 -1.307929 63
-2.272794 17.336460 -1.044914 88
-1.706826 17.381701 -0.808368 83
-2.802322 17.222744 -1.278330 55
-2.810573 17.291801 -1.013191 60
-2.232996 17.212584 -1.573486 38
-2.250395 17.369602 -0.776963 100
-2.251304 17.399591 -0.508454 88
-1.675754 17.419228 -0.540777 100
-2.774093 17.283028 -0.742827 52
-2.777729 17.324305 -0.474769 33
-2.200760 17.230991 -1.306129 59
-2.211760 17.340326 -1.044675 91
-2.745321 17.252119 -1.279791 70
-2.747688 17.285732 -1.012267 72
-2.763606 17.404753 -0.206085 2
-2.175393 17.240036 -1.575292 46
-2.188251 17.365458 -0.776431 92
-2.188558 17.391476 -0.507990 76
-1.614909 17.424973 -0.540777 42
-2.715672 17.304440 -0.743336 56
-2.716116 17.325975 -0.474553 34
-2.142729 17.254381 -1.307329 55
-2.150939 17.343952 -1.044437 82
-2.685537 17.261526 -1.279791 69
-2.686610 17.287249 -1.011805 87
-2.702163 17.406301 -0.205992 53
-2.115799 17.247450 -1.575292 60
-2.129244 17.380842 -0.776786 98
-2.129024 17.402893 -0.508106 74
-2.654646 17.309862 -0.743166 66
-2.655015 17.331400 -0.474445 40
-2.081053 17.249876 -1.306429 57
-2.090862 17.355318 -1.044675 85
-2.627065 17.282627 -1.280668 82
-2.625650 17.292572 -1.011575 91
-2.635390 17.376083 -0.205524 47
-2.056524 17.262642 -1.576014 71
-2.067617 17.380234 -0.776431 94
-2.066848 17.398308 -0.507758 79
-2.595983 17.330881 -0.743675 79
-2.595684 17.348471 -0.474661 49
-2.022219 17.268921 -1.307329 53
-2.028876 17.350615 -1.043959 100
-2.563207 17.268015 -1.278915 86
-2.564686 17.297682 -1.011343 100
-2.573548 17.377264 -0.205430 48
-1.995339 17.261801 -1.575292 83
-2.007394 17.391315 -0.776608 98
-2.007478 17.417332 -0.508106 81
-3.088056 17.208702 -1.247104 19
-2.534827 17.335892 -0.743505 76
-2.534417 17.353485 -0.474553 62
-1.963114 17.287783 -1.308229 48
-1.968536 17.361582 -1.044198 91
-2.503604 17.284821 -1.279499 78
-2.504359 17.310555 -1.011575 100
-2.512892 17.390179 -0.205477 48
-1.945578 17.394318 -0.776431 88
-1.945965 17.424313 -0.508106 88
-3.026586 17.211517 -1.246535 46
-3.034939 17.276054 -0.980672 76
-2.511432 17.583788 -1.575863 20
-2.472604 17.332766 -0.742996 88
-2.474955 17.370144 -0.474769 61
-1.900575 17.274706 -1.306729 39
-1.907921 17.368347 -1.044198 83
-2.441580 17.281603 -1.278622 84
-2.443918 17.319191 -1.011575 100
-2.441567 17.323593 -0.204588 4
-1.883988 17.393057 -0.776077 98
-1.885131 17.430998 -0.508106 88
-2.966488 17.221977 -1.246535 56
-2.970552 17.262928 -0.979333 63
-2.453885 17.620071 -1.578337 17
-2.412086 17.341291 -0.742996 85
-2.415407 17.386599 -0.474986 67
-1.848126 17.382843 -1.044675 90
-2.951967 17.311714 -0.711487 41
-2.381241 17.290020 -1.278622 78
-2.380727 17.307837 -1.010420 100
-1.823264 17.399529 -0.776077 88
-1.822610 17.421566 -0.507642 88
-2.902419 17.208614 -1.244828 65
-2.904995 17.241680 -0.977546 61
-2.344671 17.277143 -1.546877 35
-2.352052 17.353569 -0.743166 90
-2.352514 17.379080 -0.474553 75
-1.785319 17.369337 -1.043482 35
-2.887442 17.298283 -0.710515 101
-2.321768 17.306158 -1.279207 82
-2.320644 17.320023 -1.010651 100
-1.763487 17.417738 -0.776608 96
-1.762335 17.435804 -0.507874 93
-2.841032 17.210768 -1.244258 77
-2.846742 17.263538 -0.978216 57
-2.274430 17.210173 -1.540160 62
-2.290416 17.353748 -0.742827 87
-2.293926 17.403042 -0.474986 71
-2.825753 17.300367 -0.710191 101
-2.833908 17.368767 -0.442390 57
-2.258244 17.290422 -1.277453 86
-2.260689 17.331978 -1.010882 100
-1.701511 17.411856 -0.776077 90
-1.701074 17.437870 -0.507758 15
-2.782210 17.228456 -1.244828 93
-2.787736 17.281256 -0.978663 67
-2.216375 17.233814 -1.541574 78
-2.230845 17.369566 -0.743166 90
-2.231638 17.399046 -0.474661 66
-2.763455 17.298285 -0.709705 100
-2.770112 17.358810 -0.441888 90
-2.198881 17.306114 -1.278038 84
-2.199672 17.335802 -1.010651 100
-2.722631 17.242012 -1.245112 100
-2.726123 17.282995 -0.978216 73
-2.742279 17.404444 -0.172212 3
-2.157694 17.253305 -1.542635 93
-2.169729 17.373278 -0.742996 82
-2.169448 17.394821 -0.474337 75
-2.701336 17.295959 -0.709220 100
-2.706567 17.348595 -0.441385 70
-2.138624 17.313663 -1.278038 82
-2.139818 17.347315 -1.010882 100
-2.659386 17.231695 -1.243689 100
-2.667603 17.304247 -0.978886 90
-2.679074 17.398096 -0.172056 74
-2.096975 17.256777 -1.542281 101
-2.107628 17.368845 -0.742488 82
-2.107753 17.394348 -0.474120 72
-2.637328 17.281576 -0.708248 101
-2.645391 17.353985 -0.441284 71
-2.079125 17.328945 -1.278622 90
-2.078301 17.346750 -1.010420 100
-2.601004 17.252708 -1.244543 100
-2.605399 17.301605 -0.978216 82
-2.617732 17.403387 -0.172017 70
-2.035324 17.252121 -1.541221 101
-2.046986 17.376095 -0.742488 87
-2.047957 17.409542 -0.474337 68
-2.579933 17.310444 -0.709058 101
-2.586564 17.374979 -0.441586 93
-2.017701 17.328173 -1.278038 80
-2.016815 17.345964 -1.009958 100
-3.111236 17.215036 -1.214090 38
-2.541324 17.245468 -1.243405 100
-2.548513 17.314114 -0.978439 84
-2.562885 17.431763 -0.172212 38
-1.989875 17.386751 -0.742657 88
-1.990330 17.416225 -0.474337 62
-2.519993 17.299076 -0.708248 101
-2.528765 17.379444 -0.441486 100
-1.961131 17.338680 -1.278330 84
-1.960684 17.360437 -1.010420 100
-3.052591 17.213375 -1.213259 58
-3.057512 17.257727 -0.946132 3
-2.541651 17.590521 -1.542451 10
-2.478839 17.238438 -1.242266 101
-2.487493 17.318951 -0.978216 89
-1.928731 17.389620 -0.742488 97
-1.928643 17.415117 -0.474120 70
-2.459030 17.303810 -0.708086 101
-2.466398 17.376287 -0.441184 100
-1.897554 17.317661 -1.276284 63
-1.898769 17.355267 -1.009727 101
-2.989071 17.204268 -1.211874 46
-2.996570 17.264360 -0.945917 63
-2.430184 17.244144 -1.511325 46
-2.417301 17.259260 -1.243120 101
-2.421232 17.308176 -0.977100 78
-1.865408 17.400545 -0.742657 97
-1.864801 17.422070 -0.474120 58
-2.396140 17.316666 -0.708248 101
-2.404884 17.401054 -0.441586 101
-1.834727 17.358137 -1.009496 101
-2.924657 17.207239 -1.211321 60
-2.930598 17.259476 -0.945054 54
-2.357757 17.185818 -1.505446 43
-2.358560 17.255306 -1.242266 101
-2.363362 17.312141 -0.976876 86
-1.806803 17.398693 -0.742318 83
-2.904923 17.300758 -0.676998 55
-2.337810 17.320604 -0.708086 101
-2.344087 17.389175 -0.441083 100
-1.778276 17.380068 -1.010420 47
-2.870964 17.240553 -1.212982 66
-2.872093 17.265259 -0.944839 54
-2.304287 17.225235 -1.508213 51
-2.299893 17.275299 -1.243120 100
-2.303969 17.328203 -0.977323 80
-1.747655 17.420799 -0.742996 92
-2.843867 17.306849 -0.676844 63
-2.275253 17.312809 -0.707439 101
-2.284414 17.405180 -0.441284 101
-2.810124 17.246531 -1.212705 65
-2.811808 17.275179 -0.944839 61
-2.248778 17.268738 -1.511325 59
-2.239577 17.283220 -1.243120 100
-2.242444 17.328218 -0.976876 100
-1.684524 17.402925 -0.741979 97
-2.781534 17.304831 -0.676381 65
-2.790086 17.376688 -0.408603 28
-2.216833 17.336502 -0.708086 101
-2.222125 17.401150 -0.440983 100
-2.753045 17.275938 -1.214090 67
-2.747722 17.261221 -0.943545 66
-2.187984 17.272528 -1.510979 50
-2.178781 17.286968 -1.242835 100
-2.182471 17.339899 -0.977100 82
-2.721673 17.318394 -0.676535 66
-2.726855 17.370531 -0.408231 30
-2.155188 17.336220 -0.707762 101
-2.161714 17.412786 -0.441083 101
-2.690067 17.269703 -1.212982 75
-2.690305 17.290476 -0.944623 82
-2.699809 17.370905 -0.138072 37
-2.126938 17.276136 -1.510633 66
-2.116484 17.278627 -1.241697 100
-2.122415 17.351376 -0.977323 89
-2.662418 17.335690 -0.676844 68
-2.663172 17.360180 -0.407767 30
-2.095618 17.351572 -0.708086 101
-2.100440 17.416256 -0.440983 101
-2.628567 17.271097 -1.212428 71
-2.628733 17.291862 -0.944192 84
-2.637355 17.368361 -0.137977 17
-2.064728 17.267630 -1.509250 63
-2.056629 17.289873 -1.241982 101
-2.060421 17.346781 -0.976653 89
-2.599517 17.329065 -0.676227 77
-2.601372 17.361462 -0.407582 28
-2.033176 17.342903 -0.707439 101
-2.037773 17.407597 -0.440581 100
-2.568850 17.284115 -1.212705 62
-2.566011 17.285130 -0.943329 100
-1.997091 17.211395 -1.503717 101
-1.995669 17.292999 -1.241697 100
-2.000686 17.361813 -0.977100 89
-2.522711 17.205553 -1.475521 19
-2.538609 17.334053 -0.676073 89
-2.539825 17.362490 -0.407396 28
-1.972560 17.345881 -0.707277 101
-1.979242 17.430447 -0.440983 101
-2.507950 17.284992 -1.212151 68
-2.506879 17.297840 -0.943545 100
-1.933519 17.283998 -1.240559 101
-1.938296 17.352814 -0.976206 84
-2.464895 17.230036 -1.476874 55
-2.478086 17.342810 -0.676073 100
-2.482028 17.391043 -0.407860 30
-1.912000 17.352659 -0.707277 101
-1.916638 17.421349 -0.440581 66
-2.448158 17.297592 -1.212428 76
-2.443687 17.286713 -0.942467 100
-1.873604 17.294609 -1.240843 100
-1.879000 17.371387 -0.976876 89
-2.399229 17.199060 -1.473492 47
-2.418085 17.355312 -0.676227 95
-2.422410 17.407522 -0.408046 24
-1.850992 17.355253 -0.707115 101
-2.385582 17.290220 -1.211321 72
-2.384966 17.307007 -0.943114 100
-1.821002 17.373547 -0.976653 86
-2.341057 17.199032 -1.472816 48
-2.358833 17.351364 -0.675764 97
-2.363502 17.407547 -0.407860 27
-1.792864 17.357338 -0.706953 101
-2.323203 17.262476 -1.208828 75
-2.325172 17.299021 -0.942251 100
-1.757127 17.348009 -0.974867 19
-2.285721 17.242659 -1.475860 59
-2.300874 17.379305 -0.676535 81
-2.301676 17.407763 -0.407674 29
-1.732661 17.367466 -0.707115 101
-2.267597 17.306089 -1.211321 68
-2.267365 17.326834 -0.943329 100
-2.228579 17.274250 -1.477889 68
-2.236619 17.359480 -0.675456 97
-2.241408 17.419657 -0.407767 26
-1.670878 17.361473 -0.706629 101
-2.208183 17.321815 -1.211874 66
-2.203842 17.310869 -0.942036 100
-2.166746 17.270063 -1.476874 70
-2.177455 17.379086 -0.675918 99
-2.179535 17.419447 -0.407582 25
-2.145096 17.309637 -1.210490 76
-2.143234 17.318478 -0.942036 100
-2.106449 17.277521 -1.476874 75
-2.115811 17.378645 -0.675610 100
-2.119199 17.430918 -0.407674 26
-2.084661 17.317019 -1.210490 63
-2.082291 17.321888 -0.941820 100
-2.045189 17.276854 -1.476198 71
-2.055604 17.389894 -0.675764 100
-2.056935 17.426294 -0.407396 24
-2.022349 17.308336 -1.209382 67
-2.020888 17.321117 -0.941389 100
-1.985779 17.291805 -1.476874 75
-1.992158 17.373137 -0.674839 100
-1.997458 17.445288 -0.407674 8
-1.961470 17.311325 -1.209105 71
-1.960863 17.332035 -0.941604 100
-1.931502 17.379986 -0.674839 91
-1.901465 17.322033 -1.209382 61
-1.899916 17.334803 -0.941389 100
-1.872961 17.406492 -0.675610 79
-1.837616 17.296822 -1.207166 18
-1.838973 17.337358 -0.941173 100
-1.812189 17.412924 -0.675610 84
-1.779258 17.351618 -0.941604 100
-1.751396 17.419144 -0.675610 89
-1.692076 17.408943 -0.674993 81
-1.632148 17.422691 -0.675301 15