# This PCD file was generated using the MATLAB® pcwrite function
# from Computer Vision Toolbox®.
# .PCD v.7 - Point Cloud Data file format
VERSION .7
FIELDS x y z intensity
SIZE 4 4 4 1
TYPE F F F U
COUNT 1 1 1 1
WIDTH 1471
HEIGHT 1
VIEWPOINT 0 0 0 1 0 0 0
POINTS 1471
DATA ascii
-1.852093 4.574739 0.074947 101
-2.094167 4.354534 -0.279453 50
-1.408750 4.729118 0.122320 101
-1.468918 4.417227 -0.849830 101
-1.673913 4.547068 -0.159045 92
-1.875033 4.633606 0.306604 84
-1.935072 4.376388 -0.508002 100
-1.412968 4.746146 0.198893 99
-1.494465 4.496532 -0.530657 100
-1.682093 4.571621 -0.085028 100
-1.872280 4.629004 0.383337 43
-1.943715 4.397903 -0.435896 101
-1.507390 4.537930 -0.313412 101
-1.698845 4.619507 0.140922 101
-1.765149 4.366211 -0.691410 101
-1.971646 4.463096 -0.216443 100
-1.520566 4.580128 -0.241938 101
-1.710921 4.654719 0.218258 100
-1.784929 4.417242 -0.515038 100
-1.973633 4.469594 -0.141598 98
-1.313045 4.426679 -0.959730 101
-1.519750 4.587925 -0.167930 101
-1.705078 4.648417 0.294160 101
-1.774296 4.399392 -0.439226 101
-1.972903 4.476035 -0.066596 76
-1.329469 4.484833 -0.532961 101
-1.527147 4.612869 -0.094148 101
-1.789284 4.438720 -0.369087 100
-1.973937 4.480437 0.008545 69
-1.354678 4.572713 -0.321784 101
-1.541181 4.657902 0.131045 101
-1.613712 4.403944 -0.763358 100
-1.815400 4.505706 -0.150113 101
-2.012792 4.570726 0.239019 55
-2.080842 4.345376 -0.502132 100
-1.360818 4.596292 -0.249539 101
-1.552126 4.693646 0.208064 100
-1.633954 4.461524 -0.522871 86
-1.822755 4.526171 -0.075800 100
-2.083191 4.352172 -0.428078 68
-1.383420 4.675541 -0.028935 101
-1.654838 4.520917 -0.306263 81
-1.843752 4.580548 0.150860 100
-2.119801 4.430582 -0.208432 58
-1.395068 4.717842 0.046369 101
-1.660985 4.540090 -0.233058 100
-1.855318 4.611533 0.228329 101
-1.902297 4.325762 -0.634723 101
-1.491526 4.518085 -0.458973 101
-1.682746 4.601985 -0.010263 87
-1.934106 4.400116 -0.361397 101
-1.502788 4.554788 -0.388429 92
-1.676331 4.586848 0.064782 100
-1.957852 4.456185 -0.290877 100
-2.200859 4.253957 -0.575361 23
-1.338302 4.539995 -0.465756 101
-1.514135 4.597023 -0.019429 100
-1.791857 4.464703 -0.296773 101
-1.971646 4.493776 0.083943 53
-1.342776 4.558019 -0.394000 101
-1.525778 4.635012 0.055361 101
-1.795562 4.476127 -0.223221 100
-1.986192 4.529012 0.160599 50
-2.047026 4.291526 -0.596448 100
-1.368285 4.647509 -0.177649 101
-1.547539 4.703796 0.284653 101
-1.635170 4.485992 -0.451343 98
-1.817566 4.533201 -0.000852 100
-2.070560 4.342756 -0.352461 74
-1.369236 4.653646 -0.103306 101
-1.637956 4.495999 -0.378274 77
-1.834443 4.577536 0.074886 100
-2.071909 4.347481 -0.278529 52
-1.393156 4.737904 0.122419 101
-1.450841 4.414914 -0.848393 101
-1.657833 4.552955 -0.159045 84
-1.854192 4.629086 0.305869 89
-1.921189 4.386843 -0.508424 100
-1.400674 4.766454 0.199535 93
-1.479787 4.505568 -0.531102 100
-1.668644 4.585060 -0.085168 100
-1.863303 4.654112 0.384868 47
-1.928144 4.404752 -0.435896 101
-1.491308 4.543241 -0.313412 101
-1.682473 4.625494 0.140922 101
-1.746733 4.365088 -0.690248 101
-1.952623 4.462729 -0.216089 101
-2.216914 4.301029 -0.494916 23
-1.505562 4.589286 -0.242139 101
-1.699867 4.675779 0.218961 88
-1.772209 4.430928 -0.515898 101
-1.960977 4.483890 -0.141829 95
-1.296485 4.427477 -0.958916 101
-1.503726 4.593202 -0.167930 101
-1.686117 4.646833 0.293685 101
-1.760405 4.409258 -0.439594 101
-1.952465 4.471898 -0.066432 94
-1.319387 4.508518 -0.535225 101
-1.512279 4.621973 -0.094225 101
-1.779691 4.459755 -0.370317 100
-1.972685 4.520295 0.008608 83
-1.336468 4.569753 -0.321245 101
-1.529884 4.678456 0.131473 101
-1.590257 4.387280 -0.759502 100
-1.796698 4.504589 -0.149866 101
-1.987240 4.555751 0.237872 49
-2.063956 4.349019 -0.501717 101
-1.345886 4.604849 -0.249747 101
-1.534492 4.695237 0.207895 100
-1.614308 4.455986 -0.521559 89
-1.812869 4.547366 -0.076049 100
-1.994348 4.574157 0.315694 11
-2.067986 4.359417 -0.428078 89
-1.365969 4.676503 -0.028911 101
-1.636329 4.519159 -0.305755 92
-1.827752 4.586956 0.150860 101
-2.088912 4.405455 -0.206906 57
-1.379712 4.726523 0.046407 101
-1.642408 4.538346 -0.232673 100
-1.842166 4.625406 0.228696 101
-1.888769 4.336010 -0.635255 101
-2.097844 4.426227 -0.132542 66
-1.472041 4.511909 -0.457821 101
-1.662590 4.596546 -0.010237 84
-1.913958 4.395870 -0.360498 100
-1.483172 4.548635 -0.387460 92
-1.668469 4.615240 0.065100 100
-1.940691 4.459331 -0.290638 100
-2.195060 4.279283 -0.577746 38
-1.321334 4.540817 -0.465365 101
-1.498079 4.602280 -0.019429 100
-1.777735 4.474641 -0.297019 101
-1.949572 4.485960 0.083670 55
-1.329084 4.570334 -0.394661 101
-1.510827 4.644113 0.055406 100
-1.785825 4.497222 -0.223961 100
-1.973557 4.543252 0.160859 47
-2.040514 4.316587 -0.598937 100
-1.353169 4.656096 -0.177795 101
-1.536049 4.724360 0.285572 100
-1.626255 4.510403 -0.453226 96
-1.810585 4.561825 -0.000857 100
-2.057092 4.353564 -0.352754 78
-1.354099 4.662238 -0.103391 101
-1.624956 4.509192 -0.378904 86
-1.818453 4.583911 0.074886 101
-2.060132 4.361908 -0.278991 55
-1.376609 4.742738 0.122419 101
-1.437852 4.427437 -0.849830 101
-1.644639 4.566237 -0.159307 81
-1.842437 4.646664 0.306604 89
-1.912196 4.408119 -0.510114 100
-1.385141 4.775153 0.199696 95
-1.466505 4.518268 -0.531992 100
-1.653984 4.594620 -0.085238 100
-1.844107 4.653173 0.384256 31
-1.912756 4.411456 -0.435896 101
-1.481598 4.567402 -0.314720 101
-1.666317 4.631340 0.140922 101
-1.734400 4.378517 -0.691410 101
-1.938622 4.473184 -0.216266 100
-2.176536 4.259134 -0.489218 30
-1.488302 4.590714 -0.241938 101
-1.680831 4.674163 0.218609 86
-1.755268 4.433390 -0.515468 101
-1.942135 4.483370 -0.141598 100
-1.281022 4.431975 -0.958916 101
-1.485223 4.590816 -0.167653 101
-1.671236 4.656449 0.293922 101
-1.743539 4.411672 -0.439226 101
-1.938431 4.482357 -0.066487 100
-1.294818 4.482551 -0.531602 101
-1.493675 4.619613 -0.094070 101
-1.761183 4.458522 -0.369702 100
-1.960068 4.534496 0.008622 100
-1.324936 4.589727 -0.322322 101
-1.512314 4.679963 0.131366 101
-1.577598 4.400237 -0.760787 100
-1.780964 4.510833 -0.149866 101
-1.979249 4.580999 0.238828 56
-2.048762 4.356197 -0.501717 101
-1.332018 4.617195 -0.250163 101
-1.518093 4.700565 0.207895 100
-1.600085 4.465337 -0.521996 86
-1.794048 4.546226 -0.075924 100
-1.975204 4.573761 0.315189 39
-2.052757 4.366609 -0.428078 100
-1.349637 4.681242 -0.028911 101
-1.619198 4.521085 -0.305501 100
-1.808795 4.585869 0.150616 100
-2.061624 4.387401 -0.205719 65
-1.359883 4.719779 0.046294 101
-1.625209 4.540290 -0.232480 100
-1.824544 4.628090 0.228512 101
-1.868910 4.331657 -0.633658 101
-2.085781 4.440761 -0.132758 100
-1.451396 4.501862 -0.456285 101
-1.643840 4.594789 -0.010221 84
-1.903341 4.413512 -0.361397 100
-1.469730 4.561374 -0.388106 92
-1.646962 4.605971 0.064888 100
-1.926694 4.469745 -0.290877 101
-2.187310 4.301078 -0.579654 49
-1.306574 4.549228 -0.465756 101
-1.483230 4.611289 -0.019445 100
-1.765027 4.488250 -0.297512 101
-1.937064 4.500084 0.083807 55
-1.312023 4.571114 -0.394331 101
-1.497055 4.656974 0.055497 101
-1.768654 4.499710 -0.223776 100
-1.949785 4.531751 0.160210 50
-2.022066 4.316495 -0.597941 100
-1.335806 4.656948 -0.177649 101
-1.512219 4.706881 0.284194 63
-1.609163 4.512302 -0.452849 100
-1.794650 4.568117 -0.000857 101
-1.980268 4.604747 0.394492 8
-2.057108 4.393234 -0.355384 89
-1.336714 4.663092 -0.103306 101
-1.605189 4.503569 -0.377959 84
-1.802441 4.590231 0.074886 101
-2.055050 4.390774 -0.280377 71
-1.357843 4.739826 0.122221 101
-1.421186 4.428682 -0.849111 101
-1.630032 4.575716 -0.159439 78
-1.823289 4.645634 0.306114 100
-1.884236 4.385530 -0.506735 100
-2.091497 4.470616 -0.057719 28
-1.364064 4.764589 0.199054 100
-1.443441 4.500648 -0.529321 100
-1.633911 4.589062 -0.085028 93
-1.894202 4.410785 -0.435173 101
-1.464428 4.568745 -0.314458 101
-1.644778 4.622060 0.140464 101
-1.710438 4.362437 -0.687924 101
-1.921419 4.476252 -0.216089 100
-2.176043 4.295103 -0.492474 23
-1.469830 4.588272 -0.241538 101
-1.661827 4.672472 0.218258 79
-1.736880 4.432084 -0.514609 101
-1.928050 4.493796 -0.141713 100
-1.267692 4.443952 -0.960544 101
-1.471623 4.603588 -0.167930 101
-1.654971 4.662254 0.293922 101
-1.731031 4.425149 -0.439963 101
-1.927497 4.500125 -0.066650 101
-1.281343 4.494687 -0.532508 101
-1.481192 4.636227 -0.094303 101
-1.744156 4.460928 -0.369394 100
-1.941079 4.533957 0.008608 99
-1.306719 4.586648 -0.321784 101
-1.494752 4.681404 0.131259 100
-1.556951 4.390832 -0.758217 100
-1.762297 4.509574 -0.149619 101
-1.958531 4.576860 0.238254 56
-2.035224 4.366928 -0.502132 101
-1.312612 4.610291 -0.249539 101
-1.494386 4.682992 0.206886 99
-1.583160 4.467147 -0.521559 89
-1.776713 4.548735 -0.075862 100
-1.962366 4.587969 0.315694 43
-2.039184 4.377360 -0.428431 101
-1.333288 4.685925 -0.028911 101
-1.610071 4.545524 -0.306770 92
-1.795685 4.599604 0.150860 100
-2.039549 4.380079 -0.205041 57
-1.345587 4.732193 0.046369 101
-1.610684 4.549702 -0.232673 100
-1.806925 4.630709 0.228329 101
-1.847547 4.323572 -0.631528 101
-2.046645 4.397263 -0.131243 68
-1.438090 4.514488 -0.457053 101
-1.629126 4.604270 -0.010229 95
-1.881656 4.405456 -0.360198 100
-1.446542 4.543682 -0.386168 92
-1.630874 4.611692 0.064888 100
-1.907945 4.469098 -0.290400 100
-2.157980 4.280317 -0.575838 57
-1.293943 4.565250 -0.466932 101
-1.467124 4.616438 -0.019445 100
-1.745005 4.483222 -0.296773 101
-1.924480 4.514177 0.083943 71
-1.297145 4.579502 -0.394661 101
-1.480790 4.662172 0.055497 101
-1.752937 4.505856 -0.223776 100
-1.935522 4.542207 0.160340 58
-2.003644 4.316327 -0.596946 100
-1.321720 4.669275 -0.177942 101
-1.586780 4.499114 -0.450967 89
-1.780143 4.578082 -0.000857 100
-1.962620 4.607963 0.394179 29
-2.046798 4.411244 -0.356261 100
-1.321518 4.671577 -0.103391 101
-1.588134 4.505383 -0.377644 91
-1.784958 4.592767 0.074826 100
-2.051472 4.423279 -0.281994 84
-1.342377 4.748384 0.122320 101
-1.402151 4.422363 -0.846956 101
-1.607407 4.562524 -0.158782 84
-1.804170 4.644527 0.305624 79
-1.868916 4.392081 -0.506735 100
-2.065786 4.456117 -0.057438 57
-1.346338 4.765475 0.198893 100
-1.424119 4.494291 -0.527986 100
-1.617882 4.594738 -0.085028 96
-1.875676 4.410038 -0.434451 101
-2.075249 4.478517 0.018091 2
-1.448471 4.573829 -0.314458 101
-1.631289 4.635316 0.140693 101
-1.703790 4.390518 -0.691410 101
-1.907346 4.486609 -0.216266 100
-2.169967 4.320452 -0.494509 31
-1.452600 4.589565 -0.241337 101
-1.641529 4.666935 0.217730 92
-1.717084 4.426997 -0.513319 101
-1.906097 4.485780 -0.141250 100
-2.156296 4.295044 -0.417084 56
-1.250825 4.440592 -0.958916 101
-1.453940 4.600819 -0.167653 101
-1.635532 4.656415 0.293211 101
-1.717786 4.434579 -0.440332 101
-1.911001 4.502811 -0.066596 101
-1.264277 4.491261 -0.531602 101
-1.459787 4.622046 -0.093915 101
-1.726474 4.459249 -0.368779 100
-1.918223 4.521956 0.008573 100
-1.288260 4.579431 -0.320976 101
-1.480424 4.690148 0.131366 101
-1.550224 4.418324 -0.762072 100
-1.748775 4.519122 -0.149742 101
-1.940223 4.575973 0.237872 54
-2.019063 4.370042 -0.501717 101
-1.298397 4.618464 -0.249747 101
-1.483658 4.703166 0.207559 93
-1.565706 4.464869 -0.520684 89
-1.755848 4.539681 -0.075614 101
-1.950256 4.601802 0.316200 44
-2.022987 4.380481 -0.428078 101
-1.318824 4.694171 -0.028935 101
-1.594989 4.550838 -0.306770 94
-1.781864 4.609262 0.150982 100
-2.025013 4.386818 -0.205041 53
-1.325562 4.721225 0.046218 101
-1.592946 4.547476 -0.232287 100
-1.785798 4.621767 0.227595 101
-1.831654 4.326025 -0.630995 101
-2.023676 4.385872 -0.130702 66
-1.423111 4.519232 -0.457053 101
-1.616492 4.617198 -0.010246 95
-1.867037 4.411672 -0.360198 100
-1.432664 4.552257 -0.386491 92
-1.620856 4.632176 0.065100 100
-1.894670 4.479078 -0.290638 100
-2.134893 4.269689 -0.573452 54
-1.277724 4.565682 -0.466540 101
-1.451808 4.621278 -0.019445 100
-1.730129 4.488985 -0.296773 101
-1.920394 4.546323 0.084422 79
-1.281952 4.583778 -0.394661 101
-1.464123 4.663240 0.055451 101
-1.736549 4.507915 -0.223591 100
-1.931334 4.574382 0.161248 73
-1.992638 4.330159 -0.597941 100
-1.303001 4.662083 -0.177502 101
-1.575787 4.515631 -0.452096 92
-1.763515 4.580227 -0.000857 100
-1.953531 4.629141 0.395434 29
-2.035492 4.425256 -0.356845 101
-1.306019 4.675934 -0.103391 101
-1.579750 4.529451 -0.379220 98
-1.768282 4.594928 0.074765 100
-2.035125 4.426429 -0.281763 100
-1.327699 4.756661 0.122419 101
-1.389832 4.434498 -0.848393 101
-1.590953 4.564054 -0.158651 78
-1.793058 4.661663 0.306359 66
-1.855886 4.401919 -0.507158 100
-2.037636 4.433868 -0.057064 55
-1.334823 4.785313 0.199535 100
-1.419902 4.533130 -0.531992 100
-1.602637 4.600077 -0.085028 91
-1.865682 4.427247 -0.435535 101
-2.060386 4.485373 0.018091 53
-1.433296 4.578607 -0.314458 101
-1.618538 4.648252 0.140922 101
-1.684963 4.385061 -0.689667 101
-1.894009 4.496592 -0.216443 100
-2.134338 4.284882 -0.489625 48
-1.436179 4.590544 -0.241137 101
-1.627357 4.676127 0.217906 82
-1.698117 4.421529 -0.512029 100
-1.897417 4.506816 -0.141713 93
-2.150922 4.320008 -0.418813 101
-1.232445 4.437600 -0.957288 101
-1.437067 4.606117 -0.167653 101
-1.621073 4.669922 0.293685 101
-1.697246 4.429688 -0.439226 101
-1.892935 4.506097 -0.066541 101
-2.132371 4.291222 -0.341801 5
-1.255247 4.522671 -0.534772 101
-1.445218 4.635001 -0.094070 101
-1.714397 4.476720 -0.369702 100
-1.909379 4.547397 0.008608 99
-1.274667 4.595659 -0.321784 101
-1.457275 4.676455 0.130832 100
-1.527553 4.405325 -0.758860 100
-1.735059 4.532969 -0.149989 101
-1.921892 4.579369 0.237680 59
-1.998066 4.366560 -0.500473 101
-1.281461 4.623191 -0.249747 101
-1.462845 4.697126 0.207054 100
-1.550633 4.474334 -0.521121 89
-1.739197 4.546086 -0.075614 100
-1.941098 4.627326 0.317462 60
-2.008575 4.391489 -0.428431 101
-1.303745 4.706683 -0.028982 101
-1.573072 4.541565 -0.305755 100
-1.764958 4.615763 0.150982 100
-2.022214 4.423288 -0.206397 67
-1.309316 4.729907 0.046256 101
-1.574961 4.549509 -0.232095 97
-1.773126 4.639478 0.228145 101
-1.818851 4.340022 -0.632060 101
-2.020883 4.422355 -0.131568 77
-1.405356 4.520616 -0.456669 101
-1.600866 4.626872 -0.010254 84
-1.846231 4.407448 -0.359298 100
-2.065371 4.521734 0.094582 7
-1.418335 4.565092 -0.387137 92
-1.598639 4.622965 0.064888 100
-1.873614 4.474943 -0.289922 100
-2.119230 4.277485 -0.573452 58
-1.259923 4.566498 -0.466148 101
-1.432490 4.618927 -0.019413 100
-1.713664 4.495296 -0.296773 101
-1.900633 4.545951 0.084286 86
-1.268321 4.599974 -0.395653 101
-1.451759 4.683857 0.055633 101
-1.720015 4.514250 -0.223591 100
-1.922263 4.599874 0.161898 76
-1.971816 4.326599 -0.596448 100
-1.289090 4.678389 -0.177942 101
-1.560524 4.525140 -0.452473 100
-1.746715 4.586660 -0.000857 101
-1.933477 4.628911 0.394806 28
-2.015952 4.425426 -0.356261 101
-1.286749 4.672978 -0.103221 101
-1.559240 4.523901 -0.378274 84
-1.755697 4.612592 0.074947 100
-2.015578 4.426590 -0.281301 100
-1.311317 4.765351 0.122518 101
-1.371243 4.432044 -0.846956 101
-1.578120 4.581195 -0.159045 79
-1.774541 4.664472 0.306114 79
-1.842804 4.416034 -0.508002 100
-2.023028 4.444947 -0.057111 62
-1.316215 4.786319 0.199375 100
-1.397406 4.519315 -0.529766 100
-1.581860 4.594575 -0.084819 100
-1.841775 4.415672 -0.433729 101
-2.042276 4.489254 0.018077 65
-1.420040 4.595270 -0.315243 101
-1.601491 4.654153 0.140922 101
-1.666067 4.383809 -0.688505 101
-1.874440 4.496127 -0.216089 100
-2.136230 4.328359 -0.493695 60
-1.425239 4.614863 -0.242139 101
-1.616705 4.700954 0.218785 82
-1.691785 4.453747 -0.515038 101
-1.871658 4.491596 -0.141018 100
-2.138600 4.335010 -0.419505 100
-1.220784 4.453006 -0.959730 101
-1.422917 4.614692 -0.167792 101
-1.601641 4.663959 0.292973 101
-1.686740 4.446481 -0.440332 101
-1.873327 4.501291 -0.066378 101
-2.146303 4.355553 -0.346355 91
-1.239164 4.522983 -0.534319 101
-1.429811 4.639777 -0.094070 101
-1.703756 4.493579 -0.370624 101
-1.895797 4.557409 0.008615 89
-1.260463 4.603713 -0.322053 101
-1.444102 4.688908 0.131045 100
-1.516768 4.421574 -0.760787 100
-1.720006 4.538702 -0.149989 101
-1.911287 4.596789 0.238254 80
-1.983565 4.373166 -0.500473 101
-1.265075 4.623561 -0.249539 101
-1.450794 4.713408 0.207559 100
-1.537083 4.483211 -0.521559 89
-1.728369 4.563046 -0.075800 101
-1.919621 4.618989 0.316452 58
-1.995653 4.401752 -0.428785 101
-1.288155 4.710974 -0.028982 101
-1.559321 4.550525 -0.306009 100
-1.742588 4.602885 0.150372 100
-2.014156 4.444519 -0.207076 83
-1.298939 4.753502 0.046445 101
-1.565085 4.569811 -0.232865 100
-1.759188 4.649054 0.228329 101
-1.804488 4.346013 -0.632060 101
-2.021096 4.461794 -0.132542 100
-1.393924 4.536651 -0.457821 101
-1.582983 4.624565 -0.010237 97
-1.834720 4.420891 -0.359898 101
-2.030629 4.484813 0.093669 37
-1.406777 4.581181 -0.388106 92
-1.584672 4.631999 0.064941 100
-1.863429 4.492165 -0.290638 100
-2.117365 4.309405 -0.576792 71
-1.244902 4.570615 -0.466148 101
-1.421985 4.638910 -0.019477 100
-1.701694 4.508376 -0.297266 101
-1.885676 4.552176 0.084286 93
-1.251114 4.596422 -0.394992 101
-1.436368 4.688600 0.055633 101
-1.703770 4.516136 -0.223406 100
-1.896440 4.580306 0.160989 89
-1.960865 4.340284 -0.597444 100
-1.269540 4.667163 -0.177356 101
-1.540529 4.515159 -0.450967 90
-1.726015 4.577394 -0.000854 100
-1.903034 4.598382 0.391668 24
-2.001424 4.432015 -0.356261 101
-1.272480 4.681028 -0.103306 101
-1.545697 4.532760 -0.378589 100
-1.736343 4.607092 0.074765 100
-2.002706 4.436810 -0.281532 100
-1.293618 4.761899 0.122320 101
-1.357882 4.440271 -0.847675 101
-1.560540 4.578766 -0.158782 88
-1.753636 4.655310 0.305134 71
-1.826822 4.418365 -0.507580 100
-2.010115 4.455190 -0.057158 61
-1.299515 4.786739 0.199214 90
-1.381464 4.520057 -0.529321 100
-1.569412 4.607294 -0.084958 100
-1.830374 4.429032 -0.434451 101
-2.027591 4.495906 0.018077 67
-1.401531 4.588430 -0.314458 101
-1.582421 4.648003 0.140579 101
-1.653139 4.392929 -0.689086 101
-1.858224 4.498529 -0.215912 100
-2.123836 4.338885 -0.494102 76
-1.405516 4.604203 -0.241337 101
-1.598792 4.698636 0.218434 88
-1.673051 4.448074 -0.513749 101
-1.861578 4.508763 -0.141366 97
-2.117446 4.327643 -0.418122 101
-1.203189 4.449679 -0.958102 101
-1.407964 4.623455 -0.167930 101
-1.586634 4.673302 0.293211 101
-1.668410 4.444884 -0.439594 101
-1.863698 4.522594 -0.066596 100
-2.111825 4.323583 -0.343224 85
-1.222332 4.523444 -0.533866 101
-1.413606 4.644739 -0.094070 101
-1.682457 4.484563 -0.369394 100
-1.870737 4.541807 0.008573 88
-2.135952 4.374815 -0.272186 45
-1.243345 4.604231 -0.321784 101
-1.425399 4.686269 0.130832 101
-1.498789 4.419363 -0.759502 100
-1.699942 4.533448 -0.149619 101
-1.890666 4.592350 0.237680 84
-1.969918 4.383692 -0.500888 101
-1.249969 4.631805 -0.249747 101
-1.436657 4.726090 0.207895 100
-1.521425 4.488548 -0.521559 89
-1.709623 4.561562 -0.075676 101
-1.903486 4.625661 0.316452 70
-1.975378 4.397787 -0.427724 101
-1.271703 4.715441 -0.028982 101
-1.540866 4.548378 -0.305501 97
-1.729316 4.616428 0.150616 101
-1.990445 4.433294 -0.206228 97
-1.281297 4.754146 0.046407 101
-1.549124 4.575247 -0.232865 95
-1.737345 4.640198 0.227595 101
-1.792322 4.359618 -0.633125 101
-2.003871 4.465174 -0.132433 101
-1.375767 4.533869 -0.457053 101
-1.566831 4.630063 -0.010237 94
-1.816245 4.419889 -0.359298 101
-2.011688 4.484576 0.093517 52
-1.389620 4.582248 -0.387783 92
-1.564649 4.626136 0.064782 100
-1.844703 4.491255 -0.290161 100
-2.033019 4.534138 0.170919 45
-2.102309 4.316770 -0.576792 75
-1.231005 4.582622 -0.466932 101
-1.405784 4.643845 -0.019477 100
-1.684550 4.510549 -0.297019 101
-1.863703 4.543930 0.084012 100
-1.232995 4.593061 -0.394331 101
-1.411886 4.666786 0.055315 101
-1.689392 4.525799 -0.223591 101
-1.881957 4.590596 0.161119 98
-1.944081 4.343480 -0.596946 100
-1.255312 4.679288 -0.177649 101
-1.522213 4.512962 -0.450214 100
-1.710027 4.583391 -0.000854 100
-1.894531 4.623447 0.393237 24
-1.977796 4.420767 -0.354799 100
-1.258203 4.693167 -0.103476 101
-1.529865 4.538127 -0.378589 100
-1.721648 4.616872 0.074826 101
-1.990467 4.451065 -0.281994 100
-1.280092 4.777974 0.122617 101
-1.343512 4.448750 -0.848393 101
-1.545824 4.587975 -0.158914 88
-1.742953 4.676367 0.306114 77
-1.812895 4.428396 -0.508002 100
-2.002712 4.480437 -0.057391 58
-1.283832 4.795107 0.199375 100
-1.367975 4.532463 -0.530212 100
-1.555872 4.620324 -0.085098 100
-1.817920 4.442768 -0.435173 101
-2.000463 4.477392 0.017974 57
-1.384353 4.589473 -0.314197 101
-1.571288 4.668656 0.141037 101
-1.637795 4.398673 -0.689086 101
-1.840997 4.501290 -0.215734 100
-2.106940 4.342692 -0.493695 83
-1.388283 4.605256 -0.241137 101
-1.578558 4.692825 0.217906 94
-1.654740 4.446433 -0.512889 100
-1.844316 4.511532 -0.141250 100
-2.088415 4.306323 -0.415355 100
-1.188658 4.457636 -0.958916 101
-1.389514 4.620685 -0.167653 101
-1.572853 4.686383 0.293685 100
-1.655657 4.458148 -0.440332 101
-1.847900 4.529072 -0.066596 101
-2.096720 4.330928 -0.343224 78
-1.206535 4.527683 -0.533866 101
-1.397385 4.649645 -0.094070 101
-1.664017 4.482930 -0.368779 100
-1.856382 4.552013 0.008580 88
-2.127627 4.396623 -0.273079 65
-1.227266 4.608543 -0.321784 101
-1.413633 4.706535 0.131259 100
-1.480843 4.417081 -0.758217 100
-1.689669 4.554348 -0.150113 101
-1.879149 4.610021 0.238254 93
-1.951368 4.383273 -0.500058 101
-1.236875 4.647721 -0.250371 101
-1.420151 4.731077 0.207895 100
-1.507011 4.497602 -0.521996 86
-1.696471 4.575002 -0.075800 100
-1.879797 4.613793 0.315189 62
-1.958395 4.401016 -0.427371 101
-1.254207 4.715986 -0.028958 101
-1.523712 4.549944 -0.305247 100
-1.718748 4.637432 0.151105 100
-1.983079 4.458472 -0.207076 100
-1.263667 4.754724 0.046369 101
-1.531876 4.576838 -0.232673 97
-1.728077 4.664968 0.228512 101
-1.774103 4.358504 -0.632060 101
-1.981775 4.457527 -0.132001 101
-1.366789 4.561528 -0.459357 101
-1.553197 4.643091 -0.010254 94
-1.805315 4.437286 -0.360198 100
-2.009014 4.520808 0.094126 53
-1.372473 4.583251 -0.387460 92
-1.553564 4.646742 0.064994 100
-1.830519 4.501366 -0.290400 101
-2.017179 4.541207 0.170919 67
-2.094134 4.338388 -0.578700 75
-1.210924 4.571499 -0.465365 101
-1.387274 4.641059 -0.019445 100
-1.661876 4.497676 -0.295788 101
-1.849335 4.554113 0.084080 99
-2.120914 4.399445 -0.197869 24
-1.217975 4.601191 -0.394661 101
-1.397877 4.679351 0.055406 101
-1.663894 4.505431 -0.222297 100
-1.865921 4.597138 0.161119 97
-1.927299 4.346611 -0.596448 100
-1.239993 4.687506 -0.177795 101
-1.506451 4.518249 -0.450214 100
-1.695402 4.593085 -0.000855 100
-1.896370 4.674374 0.397003 20
-1.959119 4.420349 -0.354215 101
-1.236703 4.678199 -0.103050 101
-1.511493 4.535874 -0.377959 91
-1.702753 4.615349 0.074704 100
-1.970065 4.447032 -0.281301 101
-1.259321 4.766948 0.122221 101
-1.325726 4.445871 -0.846956 101
-1.528536 4.589550 -0.158782 93
-1.725238 4.678677 0.305869 68
-1.791449 4.419951 -0.506313 100
-1.988680 4.491057 -0.057438 69
-1.258925 4.768644 0.198091 69
-1.348739 4.525781 -0.528876 100
-1.533419 4.606753 -0.084749 100
-1.790435 4.419549 -0.432284 101
-1.975108 4.462401 0.017886 63
-1.370603 4.601928 -0.314720 101
-1.551195 4.662730 0.140693 101
-1.621063 4.400650 -0.688505 101
-1.831273 4.522504 -0.216443 101
-2.025281 4.577803 0.249204 9
-2.084871 4.335675 -0.492067 89
-1.376758 4.625390 -0.241938 101
-1.563429 4.702099 0.218082 86
-1.644705 4.467109 -0.514609 101
-1.831556 4.525355 -0.141482 100
-2.076823 4.320770 -0.416047 101
-1.175127 4.469321 -0.960544 101
-1.374561 4.629325 -0.167792 101
-1.554017 4.684249 0.293211 101
-1.638757 4.460145 -0.439963 101
-1.833623 4.539185 -0.066650 100
-2.085085 4.345394 -0.343793 68
-1.189741 4.528016 -0.533414 101
-1.381175 4.654486 -0.094070 101
-1.645637 4.481214 -0.368164 100
-1.837515 4.551036 0.008566 95
-2.089841 4.357197 -0.270176 53
-1.214223 4.624377 -0.322591 101
-1.393796 4.699936 0.130939 100
-1.467910 4.429716 -0.759502 100
-1.668262 4.545201 -0.149619 101
-1.861561 4.612843 0.238063 88
-1.939277 4.397333 -0.500888 101
-1.221651 4.655876 -0.250579 101
-1.403621 4.736007 0.207895 100
-1.497546 4.521709 -0.524184 86
-1.679107 4.577143 -0.075738 100
-1.875620 4.649947 0.317210 72
-1.947836 4.418765 -0.428431 101
-1.236698 4.716473 -0.028935 101
-1.504033 4.543874 -0.304485 100
-1.695644 4.624643 0.150494 100
-1.962646 4.454406 -0.206567 101
-1.248033 4.762986 0.046407 101
-1.517104 4.585964 -0.232865 88
-1.708990 4.663485 0.228145 101
-1.757357 4.361010 -0.631528 101
-1.977444 4.490050 -0.132758 101
-1.345152 4.547198 -0.457437 101
-1.535665 4.644706 -0.010246 89
-1.788268 4.439884 -0.359898 101
-1.989940 4.520498 0.093973 55
-1.358649 4.595684 -0.388106 92
-1.536002 4.648365 0.064941 100
-1.813228 4.504055 -0.290161 100
-1.996409 4.537276 0.170506 71
-2.070335 4.327794 -0.576315 75
-1.197847 4.587286 -0.466540 101
-1.373198 4.653585 -0.019477 100
-1.648780 4.510996 -0.296280 101
-1.830315 4.553171 0.083943 100
-2.100251 4.396062 -0.197383 82
-1.201759 4.605453 -0.394661 101
-1.383647 4.691919 0.055497 101
-1.649384 4.515017 -0.222482 100
-1.848225 4.599973 0.160989 100
-1.911975 4.353374 -0.596448 100
-1.226481 4.703454 -0.178235 101
-1.495493 4.538662 -0.451720 97
-1.684682 4.614064 -0.000857 99
-1.866499 4.647728 0.394179 8
-1.949933 4.441842 -0.355384 101
-1.223205 4.694145 -0.103306 101
-1.495471 4.541182 -0.377959 86
-1.689191 4.628846 0.074826 101
-1.954354 4.453959 -0.281301 101
-2.205927 4.271456 -0.560491 41
-1.245489 4.782979 0.122518 101
-1.306672 4.439204 -0.844801 101
-1.514806 4.602518 -0.159045 75
-1.710060 4.688496 0.306114 79
-1.777298 4.429947 -0.506735 100
-1.967976 4.487069 -0.057298 82
-1.251104 4.807880 0.199535 60
-1.337206 4.545779 -0.530657 100
-1.522110 4.627347 -0.085028 93
-1.783684 4.448041 -0.434451 101
-1.973762 4.502332 0.018018 76
-1.357673 4.618242 -0.315505 101
-1.532174 4.660598 0.140464 101
-1.610886 4.421237 -0.690829 101
-1.816730 4.532671 -0.216621 100
-2.004244 4.573970 0.248607 99
-2.074637 4.353809 -0.493288 99
-1.361475 4.634075 -0.242139 101
-1.551736 4.722798 0.218785 88
-1.626135 4.465439 -0.513749 101
-1.814013 4.528109 -0.141366 100
-2.068345 4.342497 -0.417430 101
-1.155589 4.458232 -0.957288 101
-1.357269 4.630259 -0.167653 101
-1.527704 4.659292 0.291313 28
-1.617735 4.450865 -0.438488 101
-1.811827 4.530703 -0.066432 101
-2.068190 4.349043 -0.343509 79
-1.177914 4.547531 -0.535225 101
-1.366043 4.663117 -0.094148 101
-1.634070 4.498177 -0.369087 100
-1.824587 4.564851 0.008580 100
-2.071190 4.357252 -0.269730 50
-1.196073 4.620860 -0.322053 101
-1.380752 4.716286 0.131259 101
-1.453668 4.438564 -0.760145 100
-1.653751 4.554755 -0.149742 101
-1.843966 4.615602 0.237872 88
-1.914360 4.382201 -0.498400 101
-1.202391 4.648510 -0.249955 101
-1.385959 4.737042 0.207727 100
-1.478042 4.515573 -0.522871 86
-1.661755 4.579217 -0.075676 101
-1.862338 4.663880 0.317715 76
-1.927616 4.414583 -0.427371 101
-1.222229 4.728506 -0.028982 101
-1.490645 4.556684 -0.304993 99
-1.678128 4.626776 0.150372 100
-1.945487 4.457567 -0.206397 101
-2.192253 4.265541 -0.481232 87
-1.228398 4.755695 0.046294 101
-1.494879 4.572244 -0.231902 100
-1.692701 4.669421 0.228145 101
-1.743593 4.370800 -0.632060 101
-1.960160 4.493261 -0.132650 101
-1.330388 4.555688 -0.457821 101
-1.518200 4.646236 -0.010237 95
-1.765373 4.427574 -0.358398 100
-1.964558 4.505422 0.093517 52
-1.340365 4.592744 -0.387460 92
-1.522250 4.661303 0.065047 100
-1.801930 4.521484 -0.290877 100
-1.983754 4.551547 0.170781 80
-2.060320 4.345760 -0.577746 75
-1.182820 4.595295 -0.466932 101
-1.353590 4.646829 -0.019429 100
-1.633024 4.516724 -0.296280 101
-1.815889 4.563248 0.084012 100
-2.066080 4.363631 -0.195602 89
-1.185675 4.609620 -0.394661 101
-1.362789 4.681359 0.055315 101
-1.639045 4.535779 -0.223221 101
-1.827724 4.595252 0.160599 100
-1.893601 4.352743 -0.595452 100
-2.100594 4.438469 -0.123439 55
-1.207070 4.696092 -0.177795 101
-1.479641 4.543854 -0.451720 100
-1.661772 4.601106 -0.000854 91
-1.932826 4.444963 -0.355092 101
-1.206812 4.698387 -0.103306 101
-1.478376 4.542583 -0.377644 98
-1.670307 4.627191 0.074704 101
-1.937203 4.457092 -0.281070 100
-2.200058 4.296812 -0.562807 73
-1.227792 4.783423 0.122419 101
-1.292266 4.447517 -0.845519 101
-1.498731 4.607778 -0.159045 88
-1.692328 4.690681 0.305869 60
-1.753015 4.413943 -0.504202 100
-1.949114 4.486574 -0.057204 97
-1.318004 4.538967 -0.529321 100
-1.503476 4.625024 -0.084889 91
-1.766677 4.450538 -0.434090 101
-1.966000 4.527539 0.018091 97
-1.337094 4.607620 -0.314458 101
-1.518367 4.673523 0.140693 101
-1.584708 4.397048 -0.686181 101
-1.789108 4.509270 -0.215203 101
-1.980313 4.562614 0.247612 100
-2.037337 4.314248 -0.487997 101
-1.340840 4.623452 -0.241337 101
-1.531539 4.716784 0.218258 80
-1.609190 4.467347 -0.513319 101
-1.793774 4.523263 -0.141018 100
-1.992091 4.591878 0.326315 31
-2.058278 4.360502 -0.418468 101
-1.141958 4.469827 -0.958916 101
-1.341098 4.634968 -0.167653 101
-1.604884 4.463981 -0.439226 101
-1.796001 4.537000 -0.066432 100
-2.058099 4.367063 -0.344362 96
-1.164982 4.563167 -0.536583 101
-1.351980 4.675541 -0.094303 101
-1.618358 4.503853 -0.369087 100
-1.811584 4.578631 0.008594 100
-2.061073 4.375294 -0.270399 55
-1.178950 4.621140 -0.321784 101
-1.360951 4.709552 0.130939 100
-1.439381 4.447368 -0.760787 100
-1.636490 4.556737 -0.149619 101
-1.824905 4.614580 0.237489 96
-1.902211 4.396160 -0.499229 101
-2.106050 4.472734 -0.048321 1
-1.186157 4.652678 -0.249955 101
-1.367197 4.734172 0.207391 100
-1.453705 4.494224 -0.519809 89
-1.641707 4.573697 -0.075489 100
-1.832840 4.636940 0.315442 81
-1.904287 4.403000 -0.425603 101
-1.203741 4.724992 -0.028935 101
-1.469819 4.546666 -0.303977 100
-1.659267 4.625079 0.150127 100
-1.934673 4.475336 -0.206906 101
-2.191806 4.301537 -0.484427 94
-1.210804 4.756078 0.046256 101
-1.482594 4.588840 -0.232480 97
-1.666951 4.648973 0.226861 101
-1.722501 4.362110 -0.629930 101
-1.939706 4.489064 -0.132325 101
-1.314477 4.560304 -0.457821 101
-1.499514 4.643894 -0.010221 97
-1.758693 4.455970 -0.360198 100
-1.942476 4.497566 0.093212 62
-1.327636 4.608888 -0.388429 92
-1.507198 4.670394 0.065100 100
-1.784670 4.524032 -0.290638 100
-1.961516 4.543763 0.170231 77
-2.045138 4.352925 -0.577746 75
-1.165793 4.595537 -0.466540 101
-1.341782 4.666902 -0.019493 100
-1.619936 4.529915 -0.296773 101
-1.804347 4.580722 0.084217 100
-2.062719 4.396144 -0.196736 69
-1.171536 4.621459 -0.395322 101
-1.355276 4.716841 0.055678 101
-1.627237 4.552760 -0.223776 100
-1.817531 4.616483 0.161119 100
-1.878396 4.359326 -0.595452 100
-2.074901 4.424053 -0.122836 86
-1.192633 4.708026 -0.178088 101
-1.460111 4.537619 -0.450591 98
-1.645701 4.606879 -0.000854 97
-1.910986 4.437027 -0.353923 101
-1.189423 4.698694 -0.103221 101
-1.463731 4.551511 -0.377959 80
-1.654145 4.632993 0.074704 101
-1.920054 4.460159 -0.280839 100
-2.176054 4.286752 -0.560491 88
-1.212067 4.791557 0.122518 101
-1.279988 4.463348 -0.847675 101
-1.477745 4.597756 -0.158520 90
-1.674603 4.692799 0.305624 66
-1.746328 4.442247 -0.506735 100
-1.936603 4.500699 -0.057298 97
-1.296677 4.524433 -0.527095 100
-1.488545 4.634052 -0.084958 96
-1.748217 4.449262 -0.433368 101
-1.948604 4.530700 0.018077 100
-1.323200 4.619933 -0.314981 101
-1.502044 4.678795 0.140693 101
-1.578652 4.428648 -0.690248 101
-1.774817 4.519207 -0.215380 101
-1.970685 4.584180 0.248408 97
-2.029012 4.335750 -0.489625 101
-1.326892 4.635785 -0.241738 101
-1.510182 4.706881 0.217554 88
-1.590917 4.465445 -0.512459 100
-1.779435 4.533219 -0.141134 97
-1.971323 4.587802 0.325534 55
-2.041356 4.364050 -0.418122 101
-1.124425 4.466194 -0.957288 101
-1.323801 4.635781 -0.167514 101
-1.593283 4.480818 -0.440332 101
-1.784518 4.554418 -0.066596 100
-1.966292 4.583880 0.402186 5
-2.034390 4.356151 -0.342939 100
-1.140312 4.532520 -0.532508 101
-1.332350 4.668697 -0.094070 101
-1.599948 4.501962 -0.368471 100
-1.791207 4.573756 0.008573 99
-2.047470 4.386084 -0.270623 65
-1.163782 4.629098 -0.322053 101
-1.346693 4.721966 0.131152 100
-1.416630 4.429803 -0.756932 100
-1.616557 4.551120 -0.149248 101
-1.813152 4.632084 0.238063 93
-1.882150 4.391803 -0.497985 101
-2.076891 4.451063 -0.048008 25
-1.169911 4.656790 -0.249955 101
-1.353952 4.750445 0.207895 100
-1.439221 4.503057 -0.520246 89
-1.627072 4.583168 -0.075552 101
-1.822462 4.658179 0.316452 91
-1.895183 4.424270 -0.427017 101
-1.189195 4.736922 -0.028982 101
-1.456375 4.559372 -0.304485 100
-1.644456 4.634608 0.150249 100
-1.915899 4.474711 -0.206567 101
-2.173194 4.302054 -0.483629 68
-1.199072 4.779671 0.046445 101
-1.469009 4.601596 -0.232865 100
-1.658737 4.677355 0.227962 101
-1.708718 4.371784 -0.630463 101
-1.920889 4.488451 -0.132109 101
-1.302924 4.580179 -0.459357 101
-1.484526 4.652906 -0.010229 94
-1.740240 4.454646 -0.359598 100
-1.931499 4.515343 0.093441 74
-1.305019 4.590478 -0.386491 92
-1.486046 4.660378 0.064888 100
-1.767436 4.526507 -0.290400 100
-1.942520 4.543222 0.169956 73
-2.024921 4.349227 -0.576315 75
-1.148814 4.595708 -0.466148 101
-1.321151 4.656155 -0.019429 100
-1.600155 4.524239 -0.296034 101
-1.788381 4.586979 0.084217 93
-2.042339 4.392430 -0.196250 79
-1.154471 4.621643 -0.394992 101
-1.334478 4.706140 0.055497 101
-1.606047 4.543330 -0.223036 101
-1.794187 4.604159 0.160470 100
-1.861647 4.362190 -0.594954 100
-2.051056 4.413120 -0.122333 82
-1.173333 4.700514 -0.177649 101
-1.447926 4.554060 -0.451720 96
-1.630986 4.616351 -0.000855 100
-1.898659 4.450991 -0.354507 101
-1.175000 4.710565 -0.103391 101
-1.446675 4.552777 -0.377644 88
-1.640676 4.646264 0.074826 100
-1.907653 4.474161 -0.281301 101
-2.155764 4.283652 -0.559102 89
-1.188620 4.768584 0.121824 101
-1.266595 4.475347 -0.849111 101
-1.461740 4.602870 -0.158520 86
-1.658266 4.698597 0.305624 70
-1.726536 4.437175 -0.505469 100
-1.916229 4.496370 -0.057158 101
-1.288506 4.555691 -0.530212 100
-1.471209 4.635389 -0.084889 96
-1.729844 4.447890 -0.432645 101
-1.935969 4.544810 0.018106 100
-1.307129 4.624506 -0.314981 101
-1.484558 4.680178 0.140579 101
-1.557980 4.419180 -0.687924 101
-1.759093 4.525351 -0.215380 100
-1.953169 4.587329 0.248209 100
-2.017272 4.349998 -0.490439 100
-1.309684 4.636525 -0.241538 101
-1.490189 4.700674 0.217027 82
-1.567456 4.448442 -0.509879 101
-1.762218 4.535650 -0.141018 97
-1.949111 4.579936 0.324493 63
-2.029526 4.378351 -0.418813 101
-1.112599 4.485296 -0.960544 101
-1.307611 4.640374 -0.167514 101
-1.572348 4.471323 -0.438857 101
-1.764271 4.549432 -0.066432 100
-1.962751 4.620073 0.404758 27
-2.025874 4.377709 -0.344078 101
-1.130221 4.559618 -0.535225 101
-1.317130 4.677168 -0.094148 101
-1.588191 4.518806 -0.369394 101
-1.776677 4.583711 0.008580 100
-2.037178 4.404078 -0.271293 83
-1.146657 4.629259 -0.321784 101
-1.329119 4.722789 0.131045 101
-1.401158 4.434721 -0.756932 100
-1.605961 4.571824 -0.149742 101
-1.788311 4.616032 0.236916 93
-1.871472 4.409333 -0.499229 101
-2.052948 4.440133 -0.047813 54
-1.153649 4.660846 -0.249955 101
-1.335197 4.747448 0.207559 100
-1.427085 4.519428 -0.521559 89
-1.609739 4.585046 -0.075489 100
-1.803308 4.657067 0.315947 86
-1.876616 4.423522 -0.426310 101
-2.080795 4.502347 0.027702 3
-1.174574 4.748810 -0.029030 101
-1.442853 4.572042 -0.304993 100
-1.633563 4.655410 0.150738 100
-1.895588 4.470334 -0.206058 101
-2.158164 4.309613 -0.483629 101
-1.180462 4.776061 0.046369 101
-1.445727 4.583834 -0.231710 100
-1.643723 4.686887 0.228145 101
-1.690586 4.370327 -0.629398 101
-1.903649 4.491447 -0.132001 101
-2.162293 4.319674 -0.409886 39
-1.282624 4.569366 -0.457821 101
-1.471883 4.669504 -0.010254 98
-1.724680 4.460693 -0.359598 101
-1.920406 4.533105 0.093669 90
-1.293295 4.610361 -0.387783 92
-1.473375 4.676981 0.065047 100
-1.744428 4.514027 -0.289207 101
-1.934444 4.568381 0.170644 89
-2.004736 4.345451 -0.574884 75
-1.131813 4.595825 -0.465756 101
-1.304890 4.660738 -0.019429 100
-1.583034 4.526028 -0.295788 101
-1.762280 4.567075 0.083738 91
-2.025322 4.395902 -0.196088 90
-1.135473 4.614032 -0.394000 101
-1.318043 4.710769 0.055497 101
-1.587541 4.541364 -0.222666 100
-1.779543 4.614124 0.160599 100
-1.849499 4.375973 -0.595950 100
-2.045675 4.442045 -0.122936 81
-1.157872 4.708463 -0.177795 101
-1.432021 4.559086 -0.451720 93
-1.613543 4.618240 -0.000854 100
-1.880006 4.450242 -0.353923 101
-1.157595 4.710754 -0.103306 101
-1.433163 4.565408 -0.378274 82
-1.625766 4.655739 0.074886 101
-1.892024 4.480793 -0.281301 101
-2.121288 4.252043 -0.554006 84
-1.174828 4.784355 0.122121 101
-1.248849 4.472161 -0.847675 101
-1.446861 4.611759 -0.158651 86
-1.639224 4.696817 0.305134 69
-1.713896 4.450598 -0.506313 100
-1.900522 4.503032 -0.057158 101
-1.273664 4.563990 -0.530657 100
-1.457412 4.648129 -0.085028 93
-1.720031 4.468772 -0.434090 101
-1.912319 4.533113 0.018033 94
-1.288834 4.621351 -0.314458 101
-1.467016 4.681517 0.140464 101
-1.545151 4.432065 -0.689086 101
-1.741851 4.527734 -0.215203 101
-1.935592 4.590437 0.248010 100
-1.998753 4.349782 -0.489625 100
-1.293491 4.641068 -0.241538 101
-1.479743 4.724914 0.217906 80
-1.557152 4.468908 -0.511599 101
-1.746375 4.541774 -0.141018 100
-1.943964 4.612459 0.326315 74
-2.017556 4.392651 -0.419505 101
-1.098650 4.492765 -0.961358 101
-1.291144 4.640833 -0.167375 101
-1.558820 4.480274 -0.439226 101
-1.749174 4.555258 -0.066432 100
-1.938139 4.604507 0.402829 23
-2.006355 4.373524 -0.343224 101
-1.116038 4.567202 -0.535678 101
-1.301612 4.681510 -0.094148 101
-1.571887 4.520281 -0.369087 101
-1.761467 4.589577 0.008580 100
-2.025891 4.418070 -0.271739 100
-1.133193 4.640790 -0.322322 101
-1.312380 4.723318 0.130939 101
-1.392329 4.458186 -0.760145 100
-1.589478 4.573348 -0.149619 101
-1.774425 4.625667 0.237107 98
-1.856839 4.415515 -0.499229 101
-2.041546 4.454188 -0.047891 61
-1.137239 4.660765 -0.249747 101
-1.319447 4.751850 0.207559 100
-1.410906 4.520340 -0.521121 89
-1.597150 4.597915 -0.075614 100
-1.786426 4.659294 0.315694 84
-1.860392 4.426048 -0.425957 101
-2.060855 4.498313 0.027635 60
-1.156925 4.744907 -0.028982 101
-1.434816 4.599667 -0.306516 100
-1.614182 4.649471 0.150372 101
-1.888493 4.495018 -0.206906 101
-2.136780 4.302488 -0.482031 101
-1.165564 4.783835 0.046407 101
-1.436464 4.607674 -0.232673 100
-1.630791 4.699862 0.228512 101
-1.678920 4.383314 -0.630463 101
-1.890292 4.501422 -0.132109 101
-2.133779 4.298261 -0.407180 66
-1.266401 4.569757 -0.457437 101
-1.450441 4.655265 -0.010212 99
-1.704174 4.451488 -0.358398 100
-1.908459 4.546824 0.093821 100
-1.281192 4.626151 -0.388752 92
-1.456668 4.678022 0.064994 89
-1.732303 4.527245 -0.289684 101
-1.927016 4.593203 0.171331 100
-1.995270 4.362910 -0.576315 75
-1.121262 4.618895 -0.467715 101
-1.291559 4.672751 -0.019461 100
-1.570628 4.538798 -0.296280 101
-1.749980 4.580366 0.083875 88
-2.007412 4.395323 -0.195764 100
-1.121106 4.621645 -0.394331 101
-1.302414 4.715114 0.055497 101
-1.573779 4.550380 -0.222851 100
-1.762806 4.616265 0.160470 100
-1.827312 4.363778 -0.593461 100
-2.027612 4.441529 -0.122735 81
-1.145077 4.723931 -0.178235 101
-1.416894 4.563810 -0.451720 100
-1.596913 4.619785 -0.000853 101
-1.871399 4.471172 -0.355092 101
-2.060264 4.515064 0.103958 3
-1.144792 4.726227 -0.103561 101
-1.420379 4.577753 -0.378904 96
-1.609012 4.657324 0.074826 101
-1.872531 4.475990 -0.280608 101
-2.112462 4.269737 -0.555396 100
-1.157075 4.780451 0.121923 101
-1.234011 4.476278 -0.847675 101
-1.432744 4.620350 -0.158782 86
-1.628852 4.717323 0.306114 54
-1.697710 4.452540 -0.505891 100
-1.882493 4.501929 -0.057064 101
-2.142173 4.331623 -0.335370 30
-1.256411 4.560524 -0.529766 100
-1.439623 4.645296 -0.084889 100
-1.702365 4.467006 -0.433368 101
-1.894191 4.532048 0.018003 98
-1.276680 4.637145 -0.315243 101
-1.452667 4.690175 0.140579 101
-1.531735 4.440907 -0.689667 101
-1.725405 4.529751 -0.215025 100
-1.926519 4.611576 0.248806 101
-1.987616 4.363628 -0.490439 100
-1.273855 4.629925 -0.240737 101
-1.465248 4.733613 0.218082 82
-1.542324 4.474048 -0.511599 101
-1.732727 4.551277 -0.141134 97
-1.931734 4.626247 0.326835 81
-1.998025 4.388437 -0.418468 101
-1.275183 4.649390 -0.167514 101
-1.542389 4.485958 -0.439226 101
-1.733887 4.565378 -0.066487 101
-1.919716 4.607900 0.402507 27
-1.991962 4.384481 -0.343509 101
-1.098362 4.567398 -0.535225 101
-1.284445 4.686250 -0.094148 101
-1.555309 4.526012 -0.369087 101
-1.738955 4.581044 0.008552 100
-2.008033 4.421830 -0.271516 100
-1.115243 4.641031 -0.322053 101
-1.295060 4.728096 0.130939 100
-1.367838 4.436850 -0.755647 101
-1.572706 4.579143 -0.149619 101
-1.760294 4.639611 0.237489 100
-1.834528 4.407599 -0.497571 101
-2.031820 4.476210 -0.048047 72
-1.124813 4.684323 -0.250787 101
-1.299911 4.748944 0.207223 100
-1.397840 4.536880 -0.522434 86
-1.580287 4.603737 -0.075614 101
-1.779245 4.691939 0.317462 86
-1.853340 4.454909 -0.428078 101
-2.039396 4.494908 0.027568 75
-1.137659 4.741336 -0.028935 101
-1.413249 4.589634 -0.305501 100
-1.594535 4.647792 0.150127 100
-1.865867 4.487149 -0.206228 101
-2.122753 4.313862 -0.482430 101
-1.148022 4.788075 0.046407 101
-1.418391 4.609089 -0.232480 95
-1.609666 4.694468 0.227962 101
-1.662843 4.389438 -0.630463 101
-1.878385 4.519397 -0.132433 101
-2.119770 4.309629 -0.407519 83
-1.251742 4.582049 -0.458205 101
-1.436897 4.672019 -0.010237 95
-1.690672 4.465164 -0.358998 101
-1.896384 4.564868 0.094049 100
-1.262127 4.623124 -0.388106 92
-1.437163 4.675683 0.064888 100
-1.717112 4.537298 -0.289922 101
-1.908636 4.596542 0.171194 101
-1.977628 4.366576 -0.575838 75
-1.103400 4.619102 -0.467323 101
-1.270217 4.662016 -0.019397 100
-1.550107 4.533192 -0.295542 101
-1.734594 4.590490 0.083943 97
-1.992936 4.406293 -0.195926 100
-1.106011 4.633478 -0.394992 101
-1.281971 4.708278 0.055361 101
-1.551921 4.540994 -0.222112 100
-1.750112 4.633915 0.160859 100
-1.814345 4.377779 -0.594456 100
-2.009672 4.445287 -0.122635 100
-1.127755 4.728096 -0.178235 101
-1.397824 4.561357 -0.450967 100
-1.578677 4.621822 -0.000852 101
-1.856525 4.481686 -0.355384 101
-2.037114 4.508008 0.103623 88
-1.126534 4.726501 -0.103476 101
-1.403591 4.582928 -0.378904 100
-1.593223 4.666975 0.074886 100
-1.863751 4.501271 -0.281763 100
-2.102044 4.288154 -0.556786 101
-1.139546 4.784660 0.121923 101
-1.218629 4.484568 -0.848393 101
-1.416970 4.629393 -0.158914 83
-1.608973 4.715704 0.305624 54
-1.682783 4.462455 -0.506313 100
-1.872097 4.523582 -0.057251 101
-2.115747 4.317945 -0.333709 84
-1.236562 4.553590 -0.528431 100
-1.419078 4.639068 -0.084679 100
-1.683172 4.465760 -0.432645 101
-1.880626 4.546352 0.018033 100
-1.254449 4.622532 -0.313935 101
-1.435467 4.695468 0.140579 101
-1.514172 4.442745 -0.689086 101
-1.710199 4.539784 -0.215203 100
-1.908078 4.614914 0.248607 101
-1.976518 4.381766 -0.491660 100
-1.261059 4.649985 -0.241538 101
-1.445553 4.731308 0.217730 86
-1.529763 4.490964 -0.512889 101
-1.716034 4.557597 -0.141134 100
-1.916289 4.636985 0.327096 78
-1.983565 4.399364 -0.418813 101
-1.260803 4.657451 -0.167653 101
-1.524939 4.483506 -0.438488 101
-1.715923 4.563615 -0.066378 101
-1.901383 4.606870 0.401864 21
-1.975774 4.387424 -0.343224 101
-1.083210 4.571015 -0.535225 101
-1.267853 4.686623 -0.094070 101
-1.541576 4.534921 -0.369394 101
-1.729383 4.601762 0.008580 100
-1.998277 4.439390 -0.272186 101
-1.100766 4.648588 -0.322322 101
-1.281461 4.740085 0.131152 101
-1.351967 4.437584 -0.755004 101
-1.556226 4.580547 -0.149495 101
-1.747709 4.652903 0.237872 100
-1.819902 4.413659 -0.497571 101
-2.007118 4.461037 -0.047813 71
-1.106513 4.676365 -0.250163 101
-1.288325 4.768661 0.207895 72
-1.382788 4.541491 -0.522434 86
-1.566298 4.612740 -0.075676 100
-1.756661 4.679127 0.316200 92
-1.834002 4.449979 -0.427017 101
-2.019557 4.490703 0.027501 80
-1.121930 4.745083 -0.028935 101
-1.395697 4.586657 -0.304993 100
-1.585538 4.671985 0.150738 101
-1.850977 4.493312 -0.206228 101
-2.111927 4.328031 -0.483229 101
-1.129379 4.780178 0.046294 101
-1.403099 4.613768 -0.232480 100
-1.594090 4.699780 0.227962 101
-1.645494 4.387504 -0.629398 101
-1.854254 4.503417 -0.131784 101
-2.117698 4.341711 -0.409886 100
-1.237577 4.590019 -0.458589 101
-1.422559 4.680586 -0.010246 97
-1.675856 4.470746 -0.358998 100
-1.875147 4.556338 0.093745 100
-1.246790 4.627284 -0.388106 92
-1.421649 4.680424 0.064888 100
-1.702056 4.542967 -0.289922 101
-1.893382 4.602847 0.171194 101
-1.956631 4.358617 -0.573929 75
-1.087165 4.618860 -0.466932 101
-1.255789 4.670065 -0.019413 100
-1.537624 4.545871 -0.296034 101
-1.720763 4.599963 0.084012 95
-1.979949 4.416524 -0.196088 101
-1.089727 4.633240 -0.394661 101
-1.264275 4.704778 0.055270 100
-1.539414 4.553686 -0.222482 101
-1.731936 4.632204 0.160599 100
-1.798310 4.380100 -0.593958 100
-1.996555 4.455576 -0.122735 100
-1.112070 4.731810 -0.178235 101
-1.386153 4.577402 -0.452096 100
-1.568463 4.642190 -0.000855 100
-1.832566 4.465674 -0.353630 101
-2.027058 4.525687 0.103874 91
-1.108112 4.718531 -0.103221 101
-1.387231 4.583741 -0.378589 100
-1.570060 4.649497 0.074522 100
-1.839722 4.485259 -0.280377 101
-2.031940 4.538632 0.180603 28
-2.094761 4.309394 -0.558638 101
-1.126414 4.800092 0.122221 101
-1.202731 4.484784 -0.847675 101
-1.401610 4.634066 -0.158914 84
-1.586942 4.702099 0.304399 23
-1.669367 4.471737 -0.506735 100
-1.854052 4.522363 -0.057158 101
-2.101417 4.324938 -0.333709 89
-1.225571 4.573024 -0.530212 100
-1.410630 4.666718 -0.085098 100
-1.671139 4.478782 -0.433368 101
-1.865539 4.552564 0.018033 100
-2.128855 4.383284 -0.263054 53
-1.241178 4.634377 -0.314458 101
-1.417575 4.692547 0.140350 101
-1.495638 4.436491 -0.687343 101
-1.692343 4.537942 -0.214848 100
-1.886707 4.606429 0.247811 101
-1.952232 4.366500 -0.489218 100
-1.248731 4.665719 -0.242139 101
-1.431010 4.739901 0.217906 72
-1.512322 4.488475 -0.512029 101
-1.700911 4.563262 -0.141134 100
-1.899390 4.639620 0.326835 75
-1.972217 4.413194 -0.419505 101
-1.245569 4.665686 -0.167792 101
-1.510549 4.492577 -0.438857 101
-1.697193 4.562079 -0.066269 101
-1.898865 4.646696 0.404758 9
-1.962072 4.397938 -0.343509 101
-1.065441 4.567027 -0.534319 101
-1.250455 4.687156 -0.093993 101
-1.523196 4.532714 -0.368779 101
-1.709127 4.596523 0.008559 95
-1.982768 4.446338 -0.272186 101
-1.086345 4.660175 -0.322861 101
-1.267997 4.756120 0.131473 100
-1.344430 4.468741 -0.759502 100
-1.541500 4.589742 -0.149619 101
-1.727281 4.647740 0.237298 100
-1.807492 4.427351 -0.498400 101
-1.988277 4.460710 -0.047735 81
-1.091995 4.687980 -0.250579 101
-1.272701 4.776991 0.208064 66
-1.363492 4.534867 -0.521121 89
-1.548914 4.614388 -0.075614 101
-1.737537 4.677745 0.315694 91
-1.809426 4.434220 -0.424896 101
-1.998986 4.486763 0.027434 76
-1.105360 4.748970 -0.028935 101
-1.380827 4.595324 -0.305247 100
-1.566677 4.669910 0.150494 100
-1.835281 4.499745 -0.206228 101
-2.095073 4.331794 -0.482830 101
-1.116311 4.799675 0.046445 101
-1.386985 4.618637 -0.232480 100
-1.580215 4.712893 0.228329 101
-1.634306 4.404371 -0.630995 101
-1.844560 4.524673 -0.132217 101
-2.112938 4.370606 -0.411915 101
-1.220524 4.590463 -0.458205 101
-1.405062 4.681692 -0.010237 97
-1.657466 4.469089 -0.358398 101
-1.859231 4.562856 0.093745 100
-2.114738 4.376208 -0.187567 1
-1.224487 4.608488 -0.386168 92
-1.405303 4.685358 0.064888 100
-1.687576 4.552625 -0.290161 100
-1.875796 4.605725 0.171056 101
-1.941404 4.365421 -0.573929 75
-1.071934 4.626505 -0.467323 101
-1.241531 4.682153 -0.019445 100
-1.521746 4.551210 -0.296034 101
-1.701919 4.598440 0.083875 99
-1.961275 4.416103 -0.195764 101
-1.071749 4.629249 -0.394000 101
-1.245796 4.701430 0.055179 101
-1.527308 4.570401 -0.223036 100
-1.714369 4.634471 0.160470 100
-1.781515 4.382674 -0.593461 100
-1.976123 4.451554 -0.122434 101
-1.096447 4.739558 -0.178382 101
-1.369025 4.578397 -0.451720 92
-1.548448 4.636254 -0.000853 100
-1.825977 4.494219 -0.355384 101
-2.011248 4.532735 0.103874 87
-1.093436 4.730163 -0.103391 101
-1.371222 4.588555 -0.378589 89
-1.558887 4.670124 0.074765 100
-1.825557 4.495353 -0.280608 101
-2.016084 4.545697 0.180603 52
-2.083154 4.323839 -0.559565 101
-1.107851 4.796202 0.122022 101
-1.187069 4.488955 -0.847675 101
-1.383138 4.631269 -0.158651 88
