# This PCD file was generated using the MATLAB® pcwrite function
# from Computer Vision Toolbox®.
# .PCD v.7 - Point Cloud Data file format
VERSION .7
FIELDS x y z intensity
SIZE 4 4 4 1
TYPE F F F U
COUNT 1 1 1 1
WIDTH 1080
HEIGHT 1
VIEWPOINT 0 0 0 1 0 0 0
POINTS 1080
DATA ascii
-2.990985 14.081116 -0.971275 9
-3.001312 14.141440 -0.752569 18
-2.948034 13.971395 -1.405104 42
-2.952255 14.003060 -1.186628 37
-2.980282 14.147787 -0.530161 30
-2.935295 14.047984 -0.968313 51
-2.947870 14.120033 -0.750906 47
-2.896833 13.957708 -1.402753 49
-2.901756 13.993258 -1.184976 41
-2.943081 14.204562 -0.531920 44
-2.883832 14.046417 -0.967505 42
-2.894551 14.110672 -0.749866 44
-2.841731 13.936531 -1.399620 44
-2.854484 14.011113 -1.185637 47
-2.883912 14.167746 -0.530161 52
-2.833979 14.052489 -0.967236 46
-2.846865 14.128519 -0.750282 40
-2.790906 13.934619 -1.398445 40
-2.803424 14.009223 -1.184645 64
-2.829194 14.150240 -0.529135 38
-2.785685 14.066211 -0.967505 55
-2.792103 14.110940 -0.748826 39
-2.749161 13.979429 -1.401970 52
-2.756811 14.030658 -1.185637 71
-2.778243 14.152184 -0.528842 39
-2.738091 14.083684 -0.968044 67
-2.746638 14.140207 -0.749866 45
-2.698084 13.977215 -1.400795 66
-2.704043 14.020625 -1.183984 78
-2.734120 14.189272 -0.529868 44
-2.685928 14.077474 -0.966967 84
-2.695014 14.137938 -0.749242 54
-2.646974 13.974830 -1.399620 75
-2.652028 14.014329 -1.182662 83
-2.682240 14.186966 -0.529428 52
-2.636038 14.082841 -0.966697 92
-2.642710 14.131553 -0.748410 68
-2.600358 13.995726 -1.400795 82
-2.604548 14.031340 -1.183323 81
-2.637075 14.219824 -0.530308 49
-2.584702 14.080180 -0.965890 100
-2.593366 14.140692 -0.748410 76
-2.549347 13.992969 -1.399620 90
-2.554125 14.032501 -1.182662 83
-2.586707 14.225010 -0.530161 49
-3.023487 14.146337 -0.725214 1
-2.536960 14.096971 -0.966428 100
-2.541864 14.137864 -0.747786 85
-2.964366 13.982880 -1.378840 13
-2.971010 14.025848 -1.161088 26
-2.502482 14.013556 -1.400795 90
-2.505709 14.045277 -1.182992 92
-2.534798 14.222170 -0.529721 50
-2.960483 14.081281 -0.943113 46
-2.968135 14.129480 -0.723812 47
-2.974260 14.203167 -0.504208 43
-2.486350 14.097880 -0.965890 100
-2.491805 14.142716 -0.747578 86
-2.909042 13.961960 -1.375767 56
-2.920408 14.028327 -1.160443 52
-2.451493 14.010443 -1.399620 100
-2.454607 14.042158 -1.182001 88
-2.487201 14.242744 -0.530161 53
-2.908082 14.075893 -0.942067 32
-2.921219 14.151492 -0.724413 55
-2.914190 14.162560 -0.502402 42
-2.433727 14.086810 -0.964543 100
-2.441063 14.143456 -0.747162 86
-2.858691 13.964228 -1.374999 59
-2.868226 14.022812 -1.159151 53
-2.403917 14.026762 -1.400403 85
-2.403558 14.038853 -1.181009 94
-2.430731 14.211939 -0.528695 48
-2.854167 14.062489 -0.940497 30
-2.862275 14.114619 -0.722009 43
-2.860021 14.149129 -0.501569 31
-2.381886 14.079478 -0.963466 100
-2.392339 14.155830 -0.747370 81
-2.805172 13.950711 -1.372694 54
-2.817627 14.024933 -1.158505 59
-2.346930 13.987975 -1.395703 92
-2.355736 14.055040 -1.181670 90
-2.385592 14.247957 -0.529721 48
-2.806431 14.080234 -0.941020 39
-2.808881 14.104976 -0.721008 37
-2.810614 14.159026 -0.501569 35
-2.334681 14.099518 -0.964274 100
-2.341607 14.156213 -0.746954 83
-2.762628 13.991667 -1.375767 66
-2.770197 14.042506 -1.159151 66
-2.302603 14.023579 -1.398445 92
-2.304080 14.047442 -1.180348 81
-2.330026 14.220695 -0.528402 54
-2.756498 14.086027 -0.940759 43
-2.760394 14.118615 -0.721208 43
-2.764996 14.188370 -0.502263 38
-2.283536 14.095763 -0.963466 100
-2.294093 14.176130 -0.747578 86
-2.711498 13.989498 -1.374615 76
-2.718888 14.040348 -1.158182 76
-2.252375 14.023670 -1.397661 87
-2.253137 14.043592 -1.179356 85
-2.279739 14.224795 -0.528256 48
-2.708065 14.099483 -0.941020 46
-2.709589 14.120318 -0.720808 56
-2.714626 14.194022 -0.502124 50
-2.231178 14.083942 -0.962120 100
-2.242109 14.168268 -0.746747 85
-2.662001 13.994948 -1.374231 82
-2.673708 14.069313 -1.159797 78
-2.198679 13.999954 -1.394527 100
-2.201251 14.031643 -1.177704 99
-2.229105 14.224726 -0.527963 50
-2.656257 14.093088 -0.939974 51
-2.665870 14.157095 -0.722210 65
-2.666066 14.195088 -0.501847 54
-2.182628 14.079432 -0.961312 100
-2.193279 14.163782 -0.746123 86
-2.617770 14.015441 -1.375383 81
-2.626307 14.074183 -1.159474 79
-2.154659 14.022906 -1.396094 100
-2.157732 14.058566 -1.179356 99
-2.183738 14.243893 -0.528402 52
-2.606603 14.086120 -0.938927 51
-2.620361 14.173714 -0.722610 69
-2.617948 14.212172 -0.502124 44
-2.134663 14.094857 -0.961850 100
-2.144422 14.175302 -0.746331 84
-2.568114 14.020576 -1.374999 93
-2.572139 14.055812 -1.157214 82
-2.105697 14.030342 -1.396094 100
-2.106282 14.050243 -1.178034 85
-2.132821 14.243522 -0.528109 56
-2.560980 14.114769 -0.940235 49
-2.568732 14.170981 -0.722009 74
-2.569676 14.229103 -0.502402 42
-2.084267 14.094329 -0.961312 97
-2.093186 14.170844 -0.745707 86
-2.979451 13.987864 -1.573865 1
-3.003195 14.110792 -0.917772 9
-3.013411 14.170307 -0.698403 9
-2.515724 14.009846 -1.373079 99
-2.520354 14.048988 -1.155922 76
-2.054587 14.021825 -1.394527 92
-2.056859 14.053535 -1.177704 88
-2.081594 14.238979 -0.527669 56
-2.956684 13.983115 -1.351019 24
-2.964081 14.029566 -1.133561 35
-2.993348 14.179689 -0.475691 30
-2.509238 14.107843 -0.939189 50
-2.521014 14.187663 -0.722410 81
-2.521082 14.229673 -0.502124 47
-2.038087 14.105113 -0.961581 100
-2.045041 14.169801 -0.745291 86
-2.926526 13.966537 -1.570365 39
-2.944932 14.065972 -0.914217 35
-2.962313 14.160668 -0.697440 51
-2.471324 14.029875 -1.374231 81
-2.474443 14.061195 -1.156245 76
-2.011462 14.052204 -1.396878 98
-2.008551 14.048440 -1.176712 94
-2.033799 14.241847 -0.527523 49
-2.907865 13.981147 -1.349890 32
-2.916730 14.035414 -1.133246 45
-2.941433 14.166052 -0.474904 38
-2.461756 14.112155 -0.938927 51
-2.470523 14.176267 -0.721409 92
-2.470712 14.234448 -0.501986 46
-1.987168 14.100286 -0.960773 100
-1.993897 14.164986 -0.744667 83
-2.876152 13.968878 -1.569490 42
-2.892597 14.060526 -0.913201 36
-2.903212 14.123960 -0.695129 43
-2.420304 14.026646 -1.373079 83
-2.426699 14.077605 -1.156891 82
-1.959647 14.039428 -1.394919 100
-1.960602 14.063262 -1.177373 92
-1.982420 14.236981 -0.527083 55
-2.859841 13.995113 -1.350266 35
-2.867719 14.045509 -1.133246 45
-2.891167 14.172316 -0.474773 27
-2.411808 14.116728 -0.938666 44
-2.419007 14.172991 -0.720808 74
-2.419745 14.235091 -0.501708 46
-1.937955 14.107134 -0.960773 100
-1.943343 14.163946 -0.744251 84
-2.824210 13.963246 -1.567739 33
-2.845042 14.078371 -0.913709 42
-2.847499 14.102692 -0.693588 40
-2.367916 14.015395 -1.371158 95
-2.374766 14.070286 -1.155599 85
-1.908273 14.030433 -1.393352 92
-1.908579 14.050303 -1.175720 99
-1.931367 14.235929 -0.526790 48
-2.809140 13.997255 -1.349513 43
-2.812892 14.028125 -1.131039 47
-2.840569 14.178467 -0.474642 31
-2.360160 14.113314 -0.937881 46
-2.369108 14.181417 -0.720808 81
-2.370556 14.231208 -0.501291 50
-1.891693 14.117438 -0.961043 100
-1.896893 14.174272 -0.744459 85
-2.776340 13.964736 -1.566864 25
-2.801452 14.103390 -0.914724 46
-2.802273 14.119894 -0.693973 38
-2.322726 14.031027 -1.371926 89
-2.327444 14.074149 -1.155276 85
-1.860166 14.024845 -1.392177 98
-1.861453 14.052602 -1.175390 94
-1.883624 14.238293 -0.526643 54
-2.763478 14.010401 -1.349890 44
-2.771754 14.064762 -1.133246 56
-2.791218 14.176041 -0.474248 39
-2.312701 14.117124 -0.937619 49
-2.320132 14.177367 -0.720207 83
-2.318293 14.223614 -0.500736 55
-1.838789 14.096254 -0.959158 100
-1.847920 14.184768 -0.744667 84
-2.726816 13.970440 -1.566427 22
-2.750676 14.105247 -0.914217 46
-2.754496 14.137433 -0.694358 52
-2.272462 14.031188 -1.371158 87
-2.278302 14.082188 -1.155276 84
-1.811198 14.031253 -1.392177 85
-1.811879 14.055060 -1.175059 86
-1.831360 14.224958 -0.525910 45
-2.710771 14.000413 -1.348007 53
-2.721128 14.066522 -1.132615 63
-2.741718 14.185698 -0.474248 52
-2.261514 14.113287 -0.936834 51
-2.271261 14.189324 -0.720407 83
-2.268554 14.231631 -0.500736 46
-1.792067 14.122385 -0.960504 60
-1.794890 14.163390 -0.743211 32
-2.682532 14.003301 -1.569052 20
-2.700712 14.110834 -0.913963 55
-2.705198 14.146949 -0.694358 57
-2.223565 14.039020 -1.371158 91
-2.229879 14.093973 -1.155599 84
-2.662892 14.013652 -1.348384 53
-2.673048 14.079796 -1.132931 63
-2.694000 14.202975 -0.474510 64
-2.211381 14.113149 -0.936311 53
-2.217805 14.169474 -0.719005 83
-2.215169 14.215764 -0.499902 48
-2.628494 13.985227 -1.565989 17
-2.652176 14.124099 -0.914217 51
-2.656536 14.160233 -0.694551 61
-2.170283 14.019154 -1.368470 100
-2.177622 14.081970 -1.153985 85
-2.612500 14.015033 -1.347631 46
-2.621694 14.077281 -1.131985 68
-2.637824 14.176919 -0.473329 76
-2.163311 14.128673 -0.936834 46
-2.165915 14.161332 -0.718204 89
-2.169144 14.247122 -0.500736 46
-2.576057 13.974766 -1.563802 15
-2.599966 14.117567 -0.913201 58
-2.607815 14.173348 -0.694744 54
-2.123120 14.038454 -1.369622 89
-2.128453 14.089486 -1.153985 76
-2.562846 14.020149 -1.347255 46
-2.568957 14.066732 -1.130409 70
-2.593344 14.213571 -0.474248 83
-2.110438 14.112453 -0.935265 50
-2.117059 14.172757 -0.718404 97
-2.116602 14.234815 -0.500041 57
-3.041887 14.219329 -0.449350 1
-2.530068 13.999327 -1.565552 9
-2.549177 14.118713 -0.912693 59
-2.556777 14.174525 -0.694358 64
-2.073340 14.041867 -1.369238 95
-2.079605 14.100809 -1.154308 82
-2.991780 14.078259 -0.887856 13
-3.002666 14.141254 -0.669109 11
-2.514091 14.033020 -1.347631 48
-2.519281 14.075714 -1.130409 73
-2.540984 14.210841 -0.473854 84
-2.059289 14.111940 -0.934741 50
-2.067947 14.188081 -0.718805 86
-2.948692 13.956799 -1.542106 33
-2.066900 14.242116 -0.500041 47
-2.945484 13.984032 -1.323208 32
-2.949419 14.014475 -1.104492 35
-2.988120 14.210298 -0.448732 39
-2.509618 14.168591 -1.583491 15
-2.495009 14.100009 -0.910915 63
-2.507979 14.187298 -0.694551 62
-2.022041 14.033257 -1.367702 89
-2.030371 14.107983 -1.154308 78
-2.939355 14.072984 -0.886871 41
-2.951653 14.143826 -0.668739 38
-2.463714 14.033865 -1.346878 50
-2.470132 14.084422 -1.130409 75
-2.489984 14.211748 -0.473592 88
-2.009454 14.115090 -0.934480 53
-2.017847 14.191258 -0.718605 78
-2.897530 13.955325 -1.540816 32
-2.013812 14.225495 -0.499208 42
-2.887772 13.951325 -1.319152 30
-2.902905 14.036402 -1.105414 45
-2.928790 14.173657 -0.447250 46
-2.475780 14.267365 -1.593555 18
-2.447140 14.116499 -0.911423 59
-2.453668 14.168408 -0.693203 67
-1.974152 14.048115 -1.368470 99
-1.978342 14.095243 -1.152693 86
-2.884595 14.055782 -0.885147 41
-2.896646 14.126643 -0.667445 38
-2.412012 14.026681 -1.345372 49
-2.420278 14.089029 -1.130094 73
-2.438332 14.208532 -0.473198 81
-1.960171 14.122019 -0.934480 51
-1.968846 14.202172 -0.718805 83
-2.847209 13.957561 -1.539956 33
-1.965160 14.240369 -0.499485 43
-2.836600 13.949626 -1.318045 35
-2.851463 14.034734 -1.104492 45
-2.876893 14.172043 -0.446879 27
-2.438630 14.350395 -1.601868 9
-2.398556 14.128884 -0.911677 57
-2.404265 14.176875 -0.693203 60
-1.923578 14.043073 -1.367317 99
-1.928173 14.094145 -1.152048 95
-2.841247 14.093119 -0.886871 43
-2.841245 14.105284 -0.665965 40
-2.363963 14.038898 -1.345749 50
-2.369396 14.085545 -1.129148 73
-2.388385 14.212959 -0.473067 84
-1.909642 14.116858 -0.933695 48
-1.918604 14.200984 -0.718404 92
-2.801222 13.979032 -1.541246 30
-1.915260 14.226998 -0.498791 52
-2.789545 13.955050 -1.317677 40
-2.803344 14.036290 -1.103877 35
-2.832228 14.193268 -0.447250 30
-2.349070 14.121009 -0.910661 59
-2.359204 14.196594 -0.693781 60
-1.875944 14.041481 -1.366549 93
-1.880370 14.092558 -1.151402 77
-2.793720 14.098547 -0.886625 51
-2.791350 14.098949 -0.665225 43
-2.317395 14.046659 -1.345749 50
-2.321377 14.085456 -1.128517 80
-2.340590 14.216857 -0.472936 93
-1.862296 14.119155 -0.933433 50
-1.869936 14.195386 -0.717804 79
-2.751777 13.972636 -1.539526 34
-1.866107 14.237561 -0.498930 53
-2.743885 13.980336 -1.319152 43
-2.750494 14.026423 -1.102339 37
-2.784204 14.210915 -0.447497 38
-2.338976 14.354889 -1.600556 9
-2.301688 14.140944 -0.911423 58
-2.302581 14.161364 -0.691662 69
-1.826919 14.047944 -1.366549 91
-1.832707 14.110897 -1.152370 77
-2.742203 14.096456 -0.885886 57
-2.744406 14.120375 -0.665780 50
-2.265177 14.035007 -1.343867 56
-2.271560 14.089537 -1.128202 83
-2.290950 14.224940 -0.472936 97
-1.811983 14.117652 -0.932910 52
-1.819865 14.197865 -0.717603 73
-2.702232 13.978251 -1.539096 34
-1.814850 14.232096 -0.498513 24
-2.695791 13.993746 -1.319521 44
-2.703759 14.047690 -1.103261 43
-2.727780 14.185213 -0.446385 43
-2.280724 14.311921 -1.594867 13
-2.248563 14.125236 -0.909899 63
-2.255044 14.181148 -0.692240 69
-1.776410 14.042380 -1.365397 83
-1.781989 14.105335 -1.151402 31
-2.689320 14.086319 -0.884654 58
-2.698188 14.145550 -0.666520 53
-2.216276 14.042811 -1.343867 46
-2.218755 14.073728 -1.126311 86
-2.240167 14.224933 -0.472673 81
-2.650617 13.971940 -1.537377 31
-2.647668 14.006984 -1.319889 38
-2.654707 14.057043 -1.103261 45
-2.678248 14.194648 -0.446385 42
-2.239932 14.378725 -1.601431 10
-2.200471 14.140887 -0.910407 55
-2.204301 14.181037 -0.691855 58
-2.643073 14.111317 -0.885639 57
-2.648795 14.154882 -0.666520 61
-2.168458 14.058333 -1.344620 52
-2.172044 14.097151 -1.127572 68
-2.188674 14.220811 -0.472280 88
-2.601830 13.981108 -1.537377 33
-2.597306 14.008308 -1.319152 43
-2.604170 14.058381 -1.102646 44
-2.628683 14.203911 -0.446385 47
-2.148696 14.132696 -0.909391 58
-2.153587 14.180745 -0.691469 66
-2.590914 14.104750 -0.884654 57
-2.595763 14.144392 -0.665595 59
-2.116405 14.046128 -1.342737 53
-2.121042 14.092817 -1.126626 78
-2.140210 14.236271 -0.472542 86
-2.553010 13.990105 -1.537377 34
-2.549809 14.025128 -1.319889 40
-2.555076 14.067387 -1.102646 43
-2.578370 14.209066 -0.446261 48
-2.101114 14.151956 -0.910153 57
-2.104081 14.188175 -0.691469 54
-3.019839 14.135233 -0.863802 7
-2.540269 14.105846 -0.884162 54
-2.550643 14.176957 -0.666705 57
-2.067969 14.057365 -1.343114 52
-2.071865 14.100131 -1.126626 78
-2.091116 14.247606 -0.472673 95
-2.969620 13.979760 -1.517250 23
-2.975920 14.020884 -1.299381 1
-3.007720 14.182319 -0.643126 29
-2.501400 13.983265 -1.535657 33
-3.004570 14.179073 -0.420042 29
-2.495946 14.006495 -1.317308 43
-2.505257 14.072293 -1.102339 47
-2.529456 14.221916 -0.446385 44
-2.050556 14.151302 -0.909645 58
-2.053397 14.187525 -0.691084 58
-2.943500 14.005632 -1.076095 22
-2.963915 14.114428 -0.861893 32
-2.489628 14.106764 -0.883669 63
-2.496284 14.158230 -0.665410 58
-2.016623 14.048732 -1.341608 56
-2.022068 14.103331 -1.126311 78
-2.039670 14.242947 -0.472280 86
-2.913487 13.954998 -1.513450 62
-2.925333 14.023387 -1.298659 55
-2.953304 14.169259 -0.642062 34
-2.450514 13.980160 -1.534367 35
-2.955057 14.189475 -0.420042 38
-2.444983 14.003351 -1.316201 44
-2.453380 14.065237 -1.101108 52
-2.475678 14.207026 -0.445644 45
-2.001147 14.158374 -0.909645 58
-2.003303 14.190650 -0.690892 56
-2.891366 14.000196 -1.074895 22
-2.913821 14.120776 -0.861654 33
-2.441051 14.119303 -0.883915 54
-2.444127 14.151107 -0.664671 71
-1.965916 14.043854 -1.340479 53
-1.968961 14.082659 -1.124104 83
-1.988834 14.242061 -0.472017 93
-2.865556 13.968979 -1.513872 72
-2.869965 14.002293 -1.295770 49
-2.898214 14.152078 -0.640822 33
-2.403045 13.996468 -1.535227 33
-2.903104 14.187952 -0.419694 32
-2.397542 14.019633 -1.316939 40
-2.402994 14.065841 -1.100493 46
-2.427444 14.223459 -0.445891 50
-1.949474 14.149463 -0.908630 49
-1.954743 14.205486 -0.691277 64
-2.842336 14.010233 -1.074895 24
-2.861947 14.119160 -0.860938 31
-2.387437 14.104172 -0.882438 55
-2.393691 14.155673 -0.664486 60
-1.919174 14.070414 -1.342361 50
-1.920964 14.101359 -1.125050 76
-1.938079 14.245021 -0.471886 99
-2.819440 13.994591 -1.515561 90
-2.818974 14.004519 -1.295047 46
-2.843497 14.138718 -0.639758 40
-2.350929 13.989185 -1.533508 34
-2.854520 14.205963 -0.419926 31
-2.345301 14.008276 -1.315095 44
-2.353222 14.070210 -1.100186 46
-2.373827 14.208185 -0.445149 48
-1.901133 14.164094 -0.909138 57
-1.901429 14.184504 -0.689928 71
-2.796531 14.035716 -1.076095 27
-2.811085 14.121232 -0.860461 40
-2.338843 14.116359 -0.882684 57
-2.344916 14.167885 -0.664671 67
-1.870048 14.077026 -1.342361 52
-1.870681 14.100073 -1.124419 71
-1.887818 14.247736 -0.471755 86
-2.769801 14.000445 -1.515139 84
-2.770072 14.014275 -1.295047 55
-2.790255 14.128955 -0.638872 42
-2.303374 14.005155 -1.534367 32
-2.804914 14.215841 -0.419926 38
-2.298965 14.032099 -1.316570 43
-2.304738 14.082274 -1.100493 54
-2.326152 14.228222 -0.445520 50
-1.851163 14.166686 -0.908884 61
-1.852421 14.195017 -0.690121 56
-2.741395 14.014076 -1.073695 26
-2.764839 14.146633 -0.861416 50
-2.288914 14.120496 -0.882438 61
-2.294169 14.168095 -0.664301 59
-1.820388 14.079519 -1.341985 52
-1.820430 14.098607 -1.123789 76
-1.836539 14.242344 -0.471361 81
-2.712571 13.967076 -1.510494 93
-2.719619 14.016037 -1.294325 59
-2.749285 14.181763 -0.640822 47
-2.253210 14.005257 -1.533508 33
-2.752234 14.209844 -0.419463 43
-2.248004 14.028252 -1.315464 42
-2.254891 14.086303 -1.100186 51
-2.274560 14.224415 -0.445149 53
-1.801237 14.169096 -0.908630 38
-1.801922 14.193460 -0.689736 20
-2.691803 14.019625 -1.073395 25
-2.714062 14.148332 -0.860938 54
-2.240447 14.132309 -0.882684 55
-2.242440 14.160192 -0.663561 59
-1.765535 14.038341 -1.337467 8
-2.665612 13.984214 -1.511338 95
-2.671029 14.025378 -1.294325 70
-2.703137 14.206903 -0.641531 46
-2.202862 14.001187 -1.532218 34
-2.703029 14.219286 -0.419463 48
-2.195324 14.012403 -1.313251 35
-2.205707 14.094088 -1.100186 47
-2.226128 14.240168 -0.445397 47
-2.642849 14.028935 -1.073395 26
-2.666874 14.169491 -0.861654 56
-2.187434 14.116372 -0.881206 54
-2.192998 14.167933 -0.663561 59
-2.619707 14.009072 -1.513027 88
-2.621323 14.030700 -1.293964 73
-2.649130 14.192682 -0.640467 49
-2.155789 14.020583 -1.533508 26
-2.652645 14.224704 -0.419347 56
-2.148206 14.031793 -1.314358 55
-2.153481 14.081990 -1.098648 53
-2.175200 14.239947 -0.445149 47
-2.593138 14.034153 -1.073096 23
-2.615948 14.170860 -0.861177 58
-2.138743 14.127869 -0.881453 54
-2.143530 14.175503 -0.663561 64
-2.566485 13.994658 -1.510494 100
-2.573767 14.047602 -1.294686 70
-2.598133 14.193981 -0.640113 50
-2.105063 14.016225 -1.532218 32
-2.603695 14.237809 -0.419463 41
-2.101007 14.034910 -1.313989 42
-2.107320 14.093004 -1.098955 51
-2.123226 14.215450 -0.444161 47
-2.547382 14.046584 -1.073395 25
-2.566205 14.163721 -0.860223 64
-2.092654 14.138805 -0.881699 57
-2.094970 14.170643 -0.663006 58
-3.018010 14.157708 -0.837205 4
-2.516122 13.979551 -1.507960 95
-2.524661 14.040320 -1.293242 69
-2.550684 14.198524 -0.639935 48
-2.058934 14.023075 -1.532218 29
-2.556128 14.242364 -0.419347 41
-2.048548 14.018512 -1.311776 51
-2.055810 14.084489 -1.097725 44
-2.073015 14.218819 -0.444037 50
-2.952744 13.965953 -1.487736 24
-2.963867 14.030031 -1.272214 45
-2.988663 14.158991 -0.614104 32
-2.999467 14.221818 -0.393297 2
-2.496939 14.047536 -1.072796 25
-2.516749 14.172593 -0.860223 56
-2.043287 14.146024 -0.881699 57
-2.046063 14.181825 -0.663191 60
-2.945820 14.047992 -1.051539 39
-2.962020 14.136889 -0.835357 47
-2.469381 14.000000 -1.509227 99
-2.475636 14.049047 -1.293242 73
-2.499721 14.199471 -0.639581 50
-2.007716 14.014430 -1.530498 24
-2.503627 14.235448 -0.418883 43
-2.000726 14.033463 -1.312514 43
-2.004384 14.075786 -1.096495 48
-2.025621 14.241801 -0.444532 44
-2.903975 13.976175 -1.487736 56
-2.912445 14.028588 -1.271154 46
-2.940033 14.173250 -0.614274 39
-2.939256 14.181302 -0.391890 5
-2.444467 14.036518 -1.071296 30
-2.464525 14.165557 -0.859268 58
-1.992782 14.145164 -0.881206 54
-1.997661 14.196794 -0.663561 58
-2.899986 14.073818 -1.052708 37
-2.899771 14.084561 -0.831662 35
-2.419142 14.000695 -1.508382 97
-2.422515 14.034050 -1.291075 76
-2.448103 14.196296 -0.639049 55
-1.957133 14.009538 -1.529208 26
-2.451884 14.232280 -0.418536 50
-1.947992 14.012733 -1.309932 47
-1.956948 14.094539 -1.097418 44
-1.975371 14.244822 -0.444408 45
-2.854401 13.982324 -1.487321 60
-2.857870 14.011344 -1.268679 41
-2.876122 14.112951 -0.611221 30
-2.884057 14.164068 -0.391133 7
-2.394652 14.041057 -1.070996 28
-2.416900 14.185911 -0.859984 64
-1.940929 14.136252 -0.880221 54
-1.943416 14.172056 -0.662081 59
-2.845723 14.060470 -1.050954 31
-2.847805 14.082939 -0.830969 41
-2.370473 14.013052 -1.508805 77
-2.371697 14.034647 -1.290352 82
-2.396006 14.193024 -0.638517 56
-1.908727 14.024241 -1.530068 25
-2.400950 14.236906 -0.418420 49
-1.901206 14.035234 -1.311407 43
-1.904529 14.077571 -1.095572 52
-1.922424 14.227858 -0.443667 48
-2.802447 13.976599 -1.485663 61
-2.807378 14.013421 -1.267972 45
-2.822919 14.103312 -0.610373 31
-2.835382 14.177970 -0.391241 9
-2.344968 14.045396 -1.070696 25
-2.364740 14.178508 -0.859029 62
-1.893160 14.154813 -0.880960 55
-1.896580 14.198557 -0.663006 59
-2.795070 14.062492 -1.050370 41
-2.800962 14.104544 -0.831662 52
-2.319595 14.009469 -1.507538 100
-2.323993 14.050700 -1.291075 70
-2.345797 14.197358 -0.638340 49
-1.857671 14.015049 -1.528349 20
-2.351891 14.249146 -0.418536 44
-1.852045 14.021719 -1.309563 47
-1.858357 14.087763 -1.095880 48
-1.876276 14.242083 -0.443914 47
-2.753776 13.974105 -1.484419 56
-2.758584 14.010926 -1.266912 44
-2.779221 14.128280 -0.611051 36
-2.786808 14.179447 -0.391025 11
-2.297735 14.049158 -1.070396 28
-2.317066 14.182330 -0.858791 55
-1.844146 14.145177 -0.879975 51
-1.848453 14.196843 -0.662636 59
-2.746128 14.059937 -1.049493 37
-2.759528 14.141191 -0.833279 59
-2.269941 13.997452 -1.505426 95
-2.276112 14.050465 -1.290352 76
-2.298704 14.205059 -0.638340 49
-1.810676 14.017188 -1.527919 18
-2.302074 14.241077 -0.418072 44
-1.803493 14.032062 -1.309932 42
-1.809106 14.094172 -1.095880 47
-1.826526 14.248549 -0.443914 37
-2.706467 13.991449 -1.485248 57
-2.711186 14.028291 -1.267619 50
-2.735245 14.165352 -0.612238 45
-2.738905 14.196923 -0.391241 16
-2.246923 14.045256 -1.069497 24
-2.266460 14.182419 -0.858314 53
-1.793042 14.135649 -0.878990 18
-2.699656 14.081120 -1.050370 38
-2.715069 14.174191 -0.834664 56
-2.221514 14.005219 -1.505426 100
-2.227541 14.058248 -1.290352 78
-2.247139 14.197124 -0.637631 55
-1.761805 14.019406 -1.527489 4
-2.251675 14.241037 -0.417840 47
-2.660579 14.016446 -1.486907 56
-2.662202 14.037669 -1.267619 55
-2.688014 14.186593 -0.612747 45
-2.690820 14.214254 -0.391458 24
-2.200348 14.068777 -1.070696 27
-2.216940 14.190244 -0.858314 53
-2.650487 14.090458 -1.050370 45
-2.658937 14.148260 -0.832586 67
-2.173222 14.016819 -1.505849 100
-2.176016 14.050190 -1.288908 69
-2.198179 14.208831 -0.637808 56
-2.202561 14.252762 -0.417956 50
-2.604354 13.986536 -1.482760 60
-2.615371 14.058628 -1.268679 60
-2.641398 14.211606 -0.613426 49
-2.641186 14.223560 -0.391458 25
-2.148815 14.060600 -1.069497 24
-2.167393 14.197896 -0.858314 60
-2.598391 14.083932 -1.049201 50
-2.606639 14.141747 -0.831662 72
-2.125473 14.032186 -1.506693 99
-2.128747 14.069517 -1.289991 71
-2.146179 14.200613 -0.637099 57
-2.150409 14.244550 -0.417493 49
-2.553122 13.995978 -1.482760 56
-2.558796 14.040687 -1.266205 50
-2.586319 14.205484 -0.612747 45
-2.587416 14.225312 -0.391241 29
-2.096411 14.064476 -1.069197 26
-2.110877 14.178151 -0.856643 58
-3.031813 14.171429 -0.587130 2
-2.543176 14.077792 -1.048032 47
-2.553966 14.151354 -0.831662 76
-2.069646 14.016404 -1.504159 100
-2.075607 14.073427 -1.289630 82
-2.093633 14.212494 -0.637276 51
-2.978389 13.991880 -1.463177 10
-2.099365 14.268328 -0.417956 44
-2.987781 14.047800 -1.246411 7
-2.979069 14.047093 -1.024265 32
-2.991995 14.119941 -0.806956 47
-2.504952 14.008721 -1.483175 51
-2.506967 14.033844 -1.264791 56
-2.533909 14.198689 -0.612069 45
-2.538446 14.238194 -0.391349 37
-2.045581 14.059866 -1.068297 27
-2.059650 14.173578 -0.855927 58
-2.975747 14.150637 -0.585835 59
-2.494715 14.090511 -1.048324 46
-2.501771 14.144453 -0.830738 66
-2.020707 14.023542 -1.504159 100
-2.024199 14.064815 -1.288186 76
-2.044010 14.219715 -0.637276 58
-2.923826 13.974927 -1.460328 41
-2.046705 14.255780 -0.417377 46
-2.929757 14.015236 -1.242607 31
-2.929212 14.041272 -1.023126 48
-2.945970 14.133695 -0.807179 41
-2.455734 14.001276 -1.481516 57
-2.461103 14.046004 -1.265144 58
-2.487499 14.210951 -0.612238 45
-2.489839 14.238656 -0.391133 36
-1.998946 14.066572 -1.068297 26
-2.012638 14.180331 -0.855927 55
-2.921520 14.125201 -0.584378 86
-2.447976 14.098707 -1.048324 48
-2.452805 14.140868 -0.830045 67
-1.974746 14.034105 -1.504582 99
-1.978101 14.075395 -1.288547 78
-1.994067 14.206629 -0.636390 54
-2.877467 13.984546 -1.460328 45
-1.997755 14.250609 -0.417029 54
-2.882463 14.020970 -1.242261 33
-2.876005 14.031903 -1.021703 43
-2.885293 14.089138 -0.804053 35
-2.408826 14.021533 -1.482760 55
-2.407365 14.027017 -1.262670 66
-2.434592 14.199837 -0.611391 48
-2.440278 14.247233 -0.391133 44
-1.950598 14.077385 -1.068597 26
-1.963413 14.187230 -0.855927 56
-2.870288 14.123466 -0.583892 98
-2.398687 14.103129 -1.048032 48
-2.404105 14.149229 -0.830045 64
-1.923238 14.017168 -1.502048 100
-1.928137 14.070264 -1.287463 80
-1.945340 14.213383 -0.636390 62
-2.825553 13.974830 -1.458293 54
-1.951109 14.273213 -0.417493 51
-2.834431 14.030760 -1.242261 35
-2.823070 14.022300 -1.020280 39
-2.834520 14.091292 -0.803606 40
-2.357887 14.018086 -1.481516 56
-2.359707 14.043193 -1.263377 68
-2.384349 14.204308 -0.611221 51
-2.391192 14.259608 -0.391241 42
-1.899846 14.072249 -1.067697 27
-1.911744 14.178169 -0.854973 59
-2.820189 14.129479 -0.583730 100
-2.348788 14.107482 -1.047740 49
-2.353390 14.149656 -0.829583 80
-1.875351 14.031681 -1.502893 101
-1.877957 14.069012 -1.286741 81
-1.894658 14.212165 -0.636035 54
-2.768230 13.941673 -1.453816 50
-1.898636 14.260120 -0.416913 50
-2.786213 14.044477 -1.242607 41
-2.777329 14.035499 -1.020565 44
-2.790874 14.116286 -0.804500 46
-2.308801 14.010126 -1.479858 57
-2.314420 14.058804 -1.264084 60
-2.332693 14.184532 -0.610034 44
-2.343244 14.263514 -0.391133 42
-1.853171 14.078472 -1.067697 25
-1.865758 14.192348 -0.855450 55
-2.774857 14.146598 -0.584054 100
-2.302635 14.119130 -1.048032 52
-2.303887 14.141617 -0.828660 71
-1.829324 14.041767 -1.503315 99
-1.831292 14.075162 -1.286741 85
-1.848033 14.222333 -0.636213 58
-2.721221 13.946871 -1.453409 56
-1.851337 14.266338 -0.416913 47
-2.738100 14.045816 -1.241915 34
-2.729841 14.052941 -1.021134 52
-2.743865 14.137704 -0.805169 53
-2.260516 14.022028 -1.480273 57
-2.263431 14.054996 -1.263023 62
-2.285705 14.208371 -0.610712 48
-2.293441 14.271606 -0.391133 41
-1.803510 14.080899 -1.067397 23
-1.814686 14.186893 -0.854734 22
-2.721681 14.136575 -0.583244 100
-2.250195 14.107385 -1.046571 57
-2.257023 14.165347 -0.829583 67
-1.779797 14.044121 -1.502893 91
-1.778648 14.053803 -1.284213 74
-2.679256 13.991459 -1.457072 55
-2.683063 14.023976 -1.239148 42
-2.682265 14.070223 -1.021703 65
-2.697488 14.162889 -0.806063 51
-2.210317 14.021974 -1.479443 55
-2.214356 14.062811 -1.263023 56
-2.236715 14.220211 -0.610882 55
-2.241748 14.267674 -0.390808 42
-2.674544 14.157771 -0.583730 99
-2.198478 14.099386 -1.045402 54
-2.203260 14.145519 -0.827967 77
-2.628196 13.988994 -1.455851 63
-2.632624 14.025423 -1.238457 42
-2.632401 14.075579 -1.021419 72
-2.645099 14.156515 -0.805169 63
-2.160752 14.025671 -1.479029 55
-2.164042 14.062579 -1.262316 60
-2.185242 14.216082 -0.610373 55
-2.187683 14.247747 -0.390051 44
-2.623652 14.159161 -0.583406 100
-2.152253 14.126694 -1.046863 50
-2.152668 14.145228 -0.827505 81
-2.578628 13.994169 -1.455444 62
-2.584371 14.038446 -1.238802 51
-2.581197 14.072889 -1.020565 81
-2.592853 14.149937 -0.804276 59
-2.112989 14.040993 -1.479858 55
-2.113150 14.058229 -1.261256 60
-2.134957 14.219679 -0.610203 47
-2.139619 14.267175 -0.390376 40
-2.568915 14.140759 -0.582273 100
-2.100794 14.122338 -1.045986 49
-2.105799 14.172467 -0.828660 73
-3.009503 14.093272 -0.777950 2
-2.529236 14.003181 -1.455444 66
-2.531952 14.031798 -1.237419 52
-2.532763 14.085740 -1.020850 78
-2.542739 14.154971 -0.804053 45
-2.062229 14.036474 -1.478614 57
-2.064643 14.069462 -1.261610 71
-2.080671 14.195412 -0.608847 45
-2.960274 13.974159 -1.433314 24
-2.089804 14.274556 -0.390376 41
-2.967071 14.017943 -1.215792 25
-3.000430 14.187403 -0.559615 56
-2.520941 14.157511 -0.582596 100
-2.049766 14.117742 -1.045109 53
-2.052877 14.156020 -0.827274 73
-2.954129 14.062497 -0.997249 52
-2.967674 14.138872 -0.779891 41
-2.478259 14.000169 -1.454223 60
-2.483651 14.044475 -1.237765 53
-2.485657 14.106283 -1.021703 64
-2.491929 14.155893 -0.803606 50
-2.010397 14.023896 -1.476541 58
-2.014954 14.072639 -1.261256 62
-2.032805 14.214457 -0.609355 52
-2.909044 13.972718 -1.432116 33
-2.037702 14.265930 -0.389943 44
-2.916497 14.020411 -1.215115 35
-2.942755 14.158656 -0.558072 41
-2.471506 14.166224 -0.582596 100
-2.001592 14.132710 -1.045694 52
-2.005688 14.178915 -0.828198 86
-2.909057 14.092263 -0.998633 36
-2.915882 14.137409 -0.779244 58
-2.432774 14.028338 -1.456258 62
-2.434611 14.053059 -1.237765 52
-2.433289 14.083020 -1.019427 80
-2.442846 14.152287 -0.802937 52
-1.964399 14.034431 -1.476955 60
-1.967193 14.071349 -1.260549 56
-1.985731 14.221109 -0.609355 54
-2.861968 13.978374 -1.431716 29
-1.989961 14.268631 -0.389835 45
-2.870115 14.029979 -1.215115 37
-2.889566 14.136971 -0.556838 37
-2.420872 14.150637 -0.581625 100
-1.954129 14.131296 -1.045109 46
-1.956489 14.165632 -0.827043 83
-2.860541 14.089976 -0.997802 46
-2.862507 14.111635 -0.777303 43
-2.381622 14.004823 -1.453002 80
-2.390771 14.072710 -1.238802 54
-2.382784 14.083560 -1.018857 71
-2.392765 14.156791 -0.802713 58
-1.915398 14.041203 -1.476955 61
-1.918063 14.078130 -1.260549 62
-1.932845 14.204194 -0.608338 45
-2.807663 13.960965 -1.428921 30
-1.939603 14.271528 -0.389726 45
-2.821124 14.039912 -1.215115 41
-2.837054 14.131295 -0.556221 37
-2.375423 14.182652 -0.582596 96
-2.382852 14.241467 -0.362979 6
-1.903192 14.126171 -1.044233 49
-1.907562 14.176332 -0.827274 73
-2.806659 14.076396 -0.996141 43
-2.803867 14.074534 -0.774716 40
-2.332721 14.013051 -1.453002 68
-2.340326 14.073108 -1.238111 56
-2.332957 14.087855 -1.018573 77
-2.342682 14.161117 -0.802490 51
-1.865849 14.043859 -1.476541 61
-1.867337 14.072890 -1.259489 66
-1.883777 14.214816 -0.608507 47
-2.761998 13.986300 -1.430518 30
-1.889775 14.278212 -0.389726 40
-2.768241 14.030123 -1.213425 46
-2.791575 14.160721 -0.556993 50
-2.323963 14.179025 -0.582111 100
-2.336356 14.269429 -0.363482 8
-1.852833 14.124817 -1.043648 52
-1.856510 14.171026 -0.826581 83
-2.755206 14.074359 -0.995310 59
-2.757787 14.099916 -0.775578 42
-2.281873 14.009326 -1.451781 68
-2.287988 14.061524 -1.236382 51
-2.283908 14.095890 -1.018573 66
-2.292686 14.165251 -0.802267 49
-1.814808 14.034499 -1.474882 58
-1.817162 14.071423 -1.258782 58
-1.834072 14.221315 -0.608507 48
-2.708542 13.972425 -1.428122 32
-1.838261 14.272840 -0.389402 35
-2.720638 14.047551 -1.214101 48
-2.746501 14.193959 -0.557918 49
-2.270892 14.167383 -0.581301 100
-2.281650 14.249932 -0.362778 12
-1.804020 14.139178 -1.044233 48
-1.808994 14.197299 -0.827736 47
-2.710717 14.111440 -0.997249 66
-2.710143 14.121352 -0.776225 50
-2.232241 14.017320 -1.451781 70
-2.238117 14.069549 -1.236382 58
-2.233442 14.095896 -1.018004 73
-2.241978 14.165278 -0.801820 55
-2.661240 13.989615 -1.428921 30
-2.669353 14.045216 -1.213086 45
-2.696193 14.199533 -0.557764 54
-2.221425 14.175223 -0.581301 100
-2.230658 14.249908 -0.362577 20
-2.659225 14.109052 -0.996418 70
-2.663791 14.146427 -0.777088 62
-2.184522 14.032890 -1.452595 66
-2.188379 14.073338 -1.236036 52
-2.182392 14.091777 -1.017150 80
-2.190076 14.157231 -0.800927 55
-2.610930 13.990994 -1.428122 31
-2.619580 14.050529 -1.212748 46
-2.645147 14.200999 -0.557455 46
-2.171325 14.178941 -0.581139 100
-2.182112 14.265513 -0.362778 28
-2.604882 14.090780 -0.994479 69
-2.612943 14.147784 -0.776657 63
-2.130139 14.005024 -1.448932 68
-2.138043 14.073011 -1.235344 54
-2.133711 14.103266 -1.017434 73
-2.140001 14.160848 -0.800704 48
-2.562116 14.000016 -1.428122 34
-2.570586 14.059576 -1.212748 44
-2.597093 14.217992 -0.557764 48
-2.119074 14.166638 -0.580330 96
-2.131954 14.269053 -0.362678 25
-2.558140 14.111507 -0.995310 69
-2.562474 14.148894 -0.776225 74
-2.085128 14.035934 -1.451374 72
-2.092241 14.100037 -1.237073 47
-2.081553 14.090893 -1.016012 73
-2.092306 14.180084 -0.801374 46
-2.513231 14.008874 -1.428122 35
-2.522197 14.072386 -1.213086 41
-2.543925 14.207299 -0.556993 53
-2.071920 14.189768 -0.580977 96
-2.079824 14.260580 -0.362275 37
-2.508168 14.116423 -0.995033 69
-2.509579 14.138089 -0.775147 60
-2.031553 14.011622 -1.448118 74
-2.037298 14.067816 -1.233615 55
-2.031216 14.090175 -1.015442 83
-2.039381 14.163584 -0.800034 51
-2.461559 14.001882 -1.426525 32
-2.470302 14.065402 -1.211734 46
-2.491554 14.200345 -0.556376 61
-2.020121 14.181087 -0.580330 100
-2.033413 14.291506 -0.362879 45
-2.456824 14.113297 -0.994202 76
-2.462266 14.158568 -0.775794 65
-1.985974 14.042269 -1.450560 70
-1.989852 14.086679 -1.234652 54
-1.982612 14.101125 -1.015727 73
-1.991618 14.182478 -0.800704 49
-2.411974 14.006470 -1.426125 36
-2.419128 14.062161 -1.210719 52
-2.442599 14.212903 -0.556530 50
-1.971602 14.195984 -0.580653 99
-1.980096 14.274769 -0.362275 50
-2.409395 14.133616 -0.995033 60
-2.411310 14.159232 -0.775363 60
-1.934039 14.029432 -1.448525 62
-1.939377 14.085671 -1.233961 50
-1.932295 14.100054 -1.015158 80
-1.937225 14.153731 -0.798694 57
-2.363067 14.014804 -1.426125 33
-2.370027 14.070519 -1.210719 49
-2.388992 14.197693 -0.555604 54
-1.918821 14.179016 -0.579682 89
-1.929721 14.277631 -0.362175 58
-2.357417 14.126197 -0.993925 87
-2.361214 14.163623 -0.775147 71
-1.883466 14.024266 -1.447304 68
-1.888608 14.080506 -1.232923 51
-1.882009 14.098804 -1.014589 66
-1.890974 14.184159 -0.800034 51
-2.314132 14.022967 -1.426125 30
-2.317008 14.055112 -1.208690 46
-2.340717 14.213834 -0.555913 59
-1.869837 14.189590 -0.579844 85
-1.878305 14.272387 -0.361873 65
-2.306164 14.122525 -0.993095 80
-2.306615 14.140243 -0.773422 62
-1.831406 14.007081 -1.444862 70
-1.840478 14.094916 -1.233615 48
-1.832307 14.101325 -1.014304 75
-1.840446 14.182750 -0.799587 42
-2.262612 14.015246 -1.424528 28
-2.268533 14.067054 -1.209028 45
-2.291039 14.221926 -0.555913 46
-1.819172 14.188116 -0.579520 64
-1.829876 14.290771 -0.362175 34
-2.254801 14.118693 -0.992264 85
-2.259581 14.164013 -0.774285 56
-1.783314 14.021308 -1.445676 64
-1.789052 14.085468 -1.232231 38
-2.216123 14.022673 -1.424528 32
-2.221872 14.074499 -1.209028 40
-2.241997 14.217600 -0.555450 44
-2.207353 14.122150 -0.991987 76
-2.211366 14.163536 -0.773853 58
-2.162892 14.018900 -1.423330 31
-2.169665 14.078609 -1.208690 44
-2.187439 14.209920 -0.554833 54
-2.154976 14.126202 -0.991710 73
-2.158838 14.167597 -0.773638 74
-2.113963 14.026361 -1.423330 32
-2.119949 14.082150 -1.208352 44
-2.136684 14.209556 -0.554525 50
-2.104641 14.125719 -0.991156 76
-2.107785 14.163168 -0.772991 62
-2.066278 14.025420 -1.422531 32
-2.073819 14.093046 -1.208690 44
-2.088389 14.208654 -0.554216 52
-2.057787 14.132621 -0.991156 88
-2.059083 14.158222 -0.772344 52
-2.015990 14.040778 -1.423330 31
-2.022152 14.100553 -1.208690 46
-2.035731 14.212256 -0.554062 49
-2.008217 14.155871 -0.992264 83
-2.005495 14.153810 -0.771697 72
-1.966176 14.023727 -1.420933 32
-1.973850 14.095322 -1.207675 40
-1.989326 14.222862 -0.554216 49
-1.959136 14.142606 -0.990879 76
-1.958666 14.156334 -0.771482 63
-1.919367 14.046279 -1.422531 27
-1.922481 14.086329 -1.206323 46
-1.939667 14.229719 -0.554216 40
-1.909758 14.149358 -0.990879 88
-1.908172 14.155168 -0.771050 72
-1.869800 14.048947 -1.422132 29
-1.874874 14.104807 -1.207337 42
-1.888932 14.228479 -0.553908 43
-1.858276 14.140113 -0.989771 76
-1.860309 14.173623 -0.771697 63
-1.820164 14.051452 -1.421732 29
-1.826012 14.115235 -1.207675 37
-1.838047 14.227081 -0.553599 38
-1.807790 14.142632 -0.989494 65
-1.809145 14.172192 -0.771266 49
-1.770109 14.049822 -1.420933 4