# This PCD file was generated using the MATLAB® pcwrite function
# from Computer Vision Toolbox®.
# .PCD v.7 - Point Cloud Data file format
VERSION .7
FIELDS x y z intensity
SIZE 4 4 4 1
TYPE F F F U
COUNT 1 1 1 1
WIDTH 659
HEIGHT 1
VIEWPOINT 0 0 0 1 0 0 0
POINTS 659
DATA ascii
-3.555198 18.650465 -0.988384 17
-3.485673 18.639200 -0.987136 41
-3.463582 18.676790 -0.696524 20
-3.426729 18.666372 -0.987968 43
-3.404492 18.703905 -0.697110 53
-3.358721 18.662495 -0.987136 49
-3.336374 18.699934 -0.696524 53
-3.338938 18.732441 -0.405218 17
-3.291565 18.644632 -1.277441 6
-3.295645 18.685905 -0.987760 57
-3.269192 18.699623 -0.696084 58
-3.276478 18.759705 -0.405559 45
-3.221022 18.624548 -1.275287 46
-3.229038 18.689423 -0.987344 61
-3.201874 18.699100 -0.695644 72
-3.203557 18.727667 -0.404622 43
-3.150741 18.624424 -1.274479 44
-3.158520 18.689316 -0.986720 60
-3.166285 18.754261 -0.112866 49
-3.132657 18.706768 -0.695498 70
-3.136875 18.751116 -0.404877 33
-3.085088 18.631367 -1.274209 55
-3.092592 18.696289 -0.986512 61
-3.103995 18.784943 -0.112985 47
-3.066888 18.717663 -0.695498 85
-3.070256 18.758087 -0.404792 33
-3.020034 18.642021 -1.274209 67
-3.027311 18.706970 -0.986512 61
-3.042873 18.823303 -0.113151 56
-3.057057 19.054094 -1.600130 12
-3.005328 18.751936 -0.696377 99
-3.005392 18.772638 -0.404877 37
-3.577718 18.643986 -0.951731 1
-2.959448 18.659817 -1.274748 82
-2.964635 18.712961 -0.986304 61
-2.976685 18.809586 -0.113009 39
-2.990762 19.044436 -1.598477 13
-2.942508 18.757849 -0.696230 100
-2.943742 18.786451 -0.404963 51
-3.515133 18.651821 -0.951530 51
-2.894253 18.670040 -1.274748 94
-2.899933 18.727140 -0.986512 61
-2.930280 19.090134 -1.601452 6
-2.874007 18.744204 -0.695351 101
-2.878238 18.792553 -0.404877 62
-3.452415 18.671658 -0.951931 66
-3.439816 18.674377 -0.659776 5
-2.828468 18.676085 -1.274479 100
-2.832753 18.725300 -0.985888 61
-2.847667 18.993805 -1.592528 8
-2.810928 18.769934 -0.695937 101
-2.812031 18.798531 -0.404792 67
-3.382942 18.660009 -0.950729 49
-3.381426 18.705351 -0.660471 47
-2.765351 18.677465 -1.273940 100
-2.769473 18.726686 -0.985473 61
-2.784665 19.003143 -1.592528 5
-2.747511 18.771242 -0.695644 101
-2.747942 18.795881 -0.404537 77
-3.319083 18.642210 -1.241090 52
-3.318247 18.655392 -0.949928 46
-3.311928 18.693422 -0.659637 60
-3.315090 18.729307 -0.368532 13
-2.701279 18.694904 -1.274479 100
-2.705229 18.744146 -0.985888 61
-2.726214 19.067995 -1.597155 4
-2.682536 18.784676 -0.695791 101
-2.683445 18.813278 -0.404707 74
-3.253304 18.649750 -1.240828 44
-3.254479 18.674732 -0.950329 51
-3.243237 18.685175 -0.658943 49
-3.248326 18.732883 -0.368377 51
-2.633778 18.688412 -1.273402 100
-2.639783 18.753475 -0.985888 61
-2.601843 18.662842 -1.562449 19
-2.616397 18.789965 -0.695644 101
-2.617758 18.822529 -0.404707 73
-3.184823 18.641319 -1.239520 40
-3.188600 18.682041 -0.950128 68
-3.175984 18.684559 -0.658526 46
-3.180907 18.732281 -0.368144 38
-2.567984 18.693537 -1.273132 100
-2.573220 18.754662 -0.985473 61
-3.162875 18.795584 -0.076512 89
-2.536145 18.667860 -1.562118 30
-2.551867 18.806906 -0.695937 101
-2.553113 18.839478 -0.404877 71
-3.117100 18.636576 -1.238474 53
-3.124026 18.696999 -0.950329 82
-3.110225 18.691566 -0.658387 56
-3.116241 18.747200 -0.368222 38
-2.503278 18.706339 -1.273402 100
-2.508776 18.771450 -0.985888 61
-3.094908 18.794733 -0.076463 93
-2.484662 18.807838 -0.695644 101
-2.486264 18.844383 -0.404792 71
-3.050683 18.643518 -1.238212 66
-3.057344 18.703970 -0.950128 89
-3.049457 18.729927 -0.659360 69
-3.050782 18.757963 -0.368222 50
-2.435903 18.699133 -1.272325 99
-2.442206 18.772171 -0.985473 61
-3.054960 18.904051 -1.550809 14
-3.029283 18.805422 -0.076463 15
-2.418995 18.816397 -0.695644 101
-2.420470 18.852947 -0.404792 74
-2.984955 18.650112 -1.237950 76
-2.991405 18.710583 -0.949928 100
-2.983430 18.736511 -0.659221 78
-2.990940 18.804045 -0.368919 62
-2.374658 18.764730 -0.984641 61
-3.563280 18.652643 -0.915475 4
-3.001400 18.993362 -1.557266 22
-2.350819 18.804893 -0.694911 101
-2.353160 18.849377 -0.404537 73
-2.921687 18.672249 -1.238735 83
-2.926075 18.720911 -0.949928 99
-2.915550 18.731010 -0.658665 84
-2.921597 18.790661 -0.368454 73
-2.307192 18.757046 -0.983809 61
-3.498884 18.668894 -0.915667 59
-2.925954 18.944620 -1.552423 16
-2.285645 18.816954 -0.695058 101
-2.288312 18.865416 -0.404707 32
-2.856491 18.682333 -1.238735 83
-2.859503 18.723112 -0.949528 100
-2.854623 18.748480 -0.658943 99
-2.859870 18.804199 -0.368532 76
-3.428470 18.616671 -1.204226 24
-3.434065 18.664677 -0.914897 66
-2.868475 18.989698 -1.555329 14
-2.223703 18.828400 -0.695204 101
-3.410074 18.693275 -0.623713 26
-2.793932 18.687756 -1.238474 83
-2.796809 18.728540 -0.949327 100
-2.789749 18.762283 -0.659082 99
-2.794214 18.814068 -0.368532 92
-3.360628 18.612812 -1.203210 49
-3.363927 18.649027 -0.913548 52
-2.802752 19.003540 -1.555652 16
-3.339876 18.677517 -0.622795 26
-2.728683 18.697395 -1.238474 83
-2.731417 18.738190 -0.949327 100
-2.722953 18.764015 -0.658804 99
-2.727290 18.815804 -0.368377 97
-3.296404 18.628347 -1.203465 53
-3.300325 18.668503 -0.913934 67
-2.681538 18.630384 -1.524332 56
-3.271805 18.669268 -0.622139 31
-3.285842 18.767626 -0.332573 49
-2.661851 18.690899 -1.237427 83
-2.667873 18.755413 -0.949728 100
-2.657438 18.773407 -0.658804 100
-2.662714 18.833128 -0.368532 87
-3.229995 18.631874 -1.202957 55
-3.235821 18.683846 -0.914126 78
-2.613164 18.615942 -1.522395 86
-3.207293 18.684515 -0.622270 31
-3.216255 18.755329 -0.332154 49
-2.598238 18.711937 -1.238212 83
-2.602388 18.764610 -0.949728 100
-2.594076 18.798409 -0.659360 88
-2.596412 18.838346 -0.368454 86
-3.164938 18.643036 -1.202957 71
-3.171919 18.702906 -0.914512 95
-3.184525 18.796099 -0.039928 18
-2.550328 18.640751 -1.523686 93
-3.138739 18.675882 -0.621614 36
-3.145469 18.734888 -0.331596 44
-2.532370 18.716938 -1.237950 83
-2.535801 18.765663 -0.949327 100
-2.525917 18.787521 -0.658665 100
-2.530724 18.847282 -0.368454 84
-3.101079 18.661858 -1.203465 81
-3.104527 18.702059 -0.913934 100
-3.116754 18.795290 -0.039902 8
-3.076177 18.706549 -0.622270 43
-3.074865 18.718237 -0.331107 45
-2.465276 18.717842 -1.237427 83
-2.466920 18.754696 -0.948326 100
-2.460840 18.800186 -0.658804 97
-2.463364 18.844105 -0.368222 87
-3.034637 18.664688 -1.202957 95
-3.036023 18.693064 -0.912971 100
-3.044925 18.908649 -1.514042 12
-3.009590 18.709278 -0.622007 59
-3.011411 18.740702 -0.331316 46
-2.399416 18.722374 -1.237166 83
-2.403468 18.779043 -0.949127 100
-2.394190 18.800732 -0.658526 100
-2.398580 18.860523 -0.368377 43
-2.967586 18.663340 -1.202195 100
-2.971380 18.707495 -0.913163 100
-3.544585 18.585037 -1.167143 1
-2.995028 19.021578 -1.522238 19
-2.946749 18.735466 -0.622532 71
-2.942251 18.727394 -0.330898 59
-2.338395 18.791283 -0.949327 100
-2.329972 18.820883 -0.658943 97
-2.902447 18.673580 -1.202195 100
-2.906719 18.721693 -0.913356 100
-3.487171 18.636515 -1.169606 46
-3.482539 18.628990 -0.877165 53
-2.913042 18.929417 -1.514042 13
-2.883976 18.761412 -0.623057 83
-2.882559 18.773092 -0.331526 76
-2.270182 18.775501 -0.948126 81
-2.262829 18.816994 -0.658526 91
-2.838445 18.691492 -1.202703 100
-2.841949 18.735676 -0.913548 101
-3.417772 18.625013 -1.168128 64
-3.414608 18.625313 -0.876426 46
-2.844577 18.923697 -1.512781 13
-2.818469 18.771364 -0.623057 83
-2.822942 18.822590 -0.332224 89
-2.197595 18.828749 -0.658665 94
-3.397448 18.741453 -0.588591 34
-2.773182 18.701286 -1.202703 100
-2.776532 18.745481 -0.913548 100
-3.349910 18.621113 -1.167143 61
-3.349573 18.637117 -0.876426 55
-2.735660 18.641558 -1.489454 62
-2.753508 18.785044 -0.623188 84
-2.757222 18.832331 -0.332224 90
-2.136406 18.847858 -0.659082 20
-3.331059 18.729002 -0.587849 71
-2.708907 18.694571 -1.201687 100
-2.714435 18.754574 -0.913548 100
-3.289083 18.636007 -1.167389 68
-3.290113 18.659880 -0.876980 59
-2.672477 18.638636 -1.488508 65
-2.690449 18.786100 -0.622926 86
-2.695742 18.845268 -0.332294 88
-3.260171 18.709005 -0.586861 64
-3.270585 18.787142 -0.296242 55
-2.645311 18.715771 -1.202449 100
-2.646719 18.748110 -0.912778 100
-3.220610 18.627705 -1.166158 80
-3.221558 18.651564 -0.876056 64
-2.604639 18.628105 -1.486932 79
-2.624857 18.795378 -0.622926 86
-2.626628 18.830797 -0.331875 96
-3.192155 18.704508 -0.586367 49
-3.198264 18.759018 -0.295620 52
-2.578875 18.716980 -1.201941 100
-2.581804 18.761194 -0.912971 101
-3.157567 18.650642 -1.166896 83
-3.157765 18.670574 -0.876426 81
-2.543367 18.664742 -1.489139 100
-2.559233 18.804426 -0.622926 83
-2.561958 18.847778 -0.332015 90
-3.127536 18.719473 -0.586490 53
-3.127476 18.738510 -0.295123 48
-2.511328 18.710052 -1.200925 100
-2.515644 18.766148 -0.912778 100
-3.090101 18.649797 -1.166158 97
-3.096702 18.709150 -0.877720 95
-2.481852 18.705200 -1.491660 28
-2.491402 18.801435 -0.622532 85
-2.497596 18.872551 -0.332294 57
-3.097645 18.927242 -1.479115 4
-3.060238 18.718439 -0.586120 58
-3.060114 18.737473 -0.294937 46
-2.444968 18.710789 -1.200417 100
-2.447537 18.755007 -0.911815 100
-3.027538 18.676235 -1.167143 100
-3.028182 18.700125 -0.876796 100
-2.426269 18.813982 -0.622664 83
-3.026514 18.906437 -1.476654 11
-2.997406 18.744799 -0.586614 83
-2.997844 18.767786 -0.295248 56
-2.380647 18.727129 -1.200925 81
-2.382558 18.767399 -0.912008 101
-3.573784 18.630482 -1.133680 39
-2.961702 18.682745 -1.166896 100
-2.962888 18.710581 -0.876796 100
-2.359089 18.810436 -0.622270 89
-2.968485 18.968113 -1.480652 24
-2.932561 18.759100 -0.586737 92
-2.933555 18.786039 -0.295372 68
-2.316589 18.771631 -0.911815 101
-3.509551 18.646751 -1.133919 37
-2.892329 18.665331 -1.165172 101
-2.895271 18.704990 -0.876056 101
-2.292662 18.810593 -0.622007 89
-3.485736 18.674788 -0.842729 39
-2.847394 18.619608 -1.452663 61
-2.867062 18.769222 -0.586737 100
-2.869771 18.808025 -0.295558 78
-2.252476 18.791504 -0.912393 60
-3.442266 18.647108 -1.133203 35
-2.828352 18.683208 -1.165665 101
-2.832948 18.734735 -0.876980 101
-2.225108 18.802601 -0.621483 89
-3.419088 18.678980 -0.842375 48
-2.781793 18.625488 -1.452356 59
-2.802118 18.783070 -0.586861 93
-2.801744 18.802105 -0.295310 85
-3.372176 18.631508 -1.131533 39
-2.764869 18.704815 -1.166404 101
-2.766951 18.740559 -0.876796 101
-2.159917 18.814224 -0.621614 89
-3.351748 18.679001 -0.841843 50
-3.358977 18.737312 -0.551674 64
-2.715641 18.627188 -1.451741 62
-2.737123 18.796692 -0.586984 99
-2.734936 18.803856 -0.295185 100
-3.313314 18.678564 -1.133680 52
-2.697142 18.698566 -1.165419 100
-2.697940 18.726397 -0.875686 101
-3.286274 18.690632 -0.841843 60
-3.286363 18.709591 -0.550516 50
-3.283904 18.765059 -0.259358 6
-2.655096 18.668142 -1.454201 77
-2.668683 18.786341 -0.586367 100
-2.671529 18.829128 -0.295434 90
-3.249461 18.697884 -1.134157 69
-2.630743 18.699961 -1.164926 101
-2.634780 18.751526 -0.876426 101
-3.218977 18.690174 -0.841311 65
-3.216966 18.697306 -0.549820 43
-3.214328 18.752754 -0.259031 58
-2.590463 18.681246 -1.454509 72
-2.603638 18.799501 -0.586490 99
-2.605239 18.834377 -0.295372 97
-3.185513 18.716984 -1.134635 73
-2.568164 18.728807 -1.166158 100
-2.568767 18.756651 -0.876241 101
-3.152387 18.693417 -0.840956 65
-3.151017 18.704477 -0.549705 44
-3.144215 18.736248 -0.258650 42
-2.525238 18.690174 -1.454509 72
-2.536931 18.800550 -0.586243 100
-2.538411 18.835428 -0.295248 45
-3.116878 18.708298 -1.133442 83
-2.501715 18.729742 -1.165665 100
-2.502222 18.757582 -0.875871 101
-3.086465 18.700363 -0.840779 78
-3.087008 18.723253 -0.549936 58
-3.078146 18.743162 -0.258595 44
-2.463103 18.722601 -1.456354 18
-2.471810 18.813255 -0.586367 100
-3.091371 18.943235 -1.443191 7
-3.054125 18.734827 -1.134396 81
-2.437350 18.746279 -1.166158 100
-2.436730 18.766201 -0.875871 101
-3.626472 18.618412 -1.097027 10
-3.026266 18.742584 -0.842197 87
-3.024816 18.753651 -0.550516 71
-3.017880 18.765114 -0.258759 55
-2.406871 18.801521 -0.585749 100
-2.987626 18.697361 -1.423696 17
-2.991981 18.744852 -1.134396 78
-2.373667 18.742376 -1.165419 100
-2.373985 18.770214 -0.875686 101
-3.564711 18.630335 -1.097027 53
-2.963473 18.748569 -0.842020 94
-2.964480 18.775427 -0.550863 87
-2.956619 18.803205 -0.259140 64
-2.341205 18.809811 -0.585749 100
-2.908296 18.617016 -1.416798 41
-2.924216 18.739378 -1.133442 84
-2.308733 18.778353 -0.875686 101
-3.495585 18.619051 -1.095641 46
-2.897241 18.750832 -0.841666 100
-2.900630 18.793489 -0.551095 100
-2.894003 18.833178 -0.259412 58
-2.276493 18.825806 -0.585996 100
-3.465515 18.663902 -0.805577 50
-2.843293 18.627056 -1.416798 48
-2.858184 18.745523 -1.133203 83
-2.243644 18.790264 -0.875871 100
-3.428402 18.619356 -1.094949 50
-2.830578 18.752928 -0.841311 100
-2.835011 18.803499 -0.551095 100
-2.824683 18.819433 -0.259085 58
-2.209832 18.825697 -0.585749 101
-3.398913 18.668022 -0.805238 59
-2.774726 18.613195 -1.414999 58
-2.792145 18.751436 -1.132964 81
-3.366225 18.646931 -1.095872 58
-2.764518 18.758739 -0.841134 100
-2.768193 18.805368 -0.550863 100
-2.761962 18.848951 -0.259358 55
-2.145030 18.841238 -0.585996 101
-3.331576 18.667978 -0.804729 54
-3.337230 18.717869 -0.514478 39
-2.713644 18.650415 -1.417098 63
-2.723079 18.737383 -1.131533 94
-3.304940 18.682222 -1.097258 65
-2.699138 18.772297 -0.841311 100
-2.702046 18.814987 -0.550863 100
-2.695018 18.850559 -0.259249 62
-3.263638 18.663748 -0.804051 53
-3.267056 18.701832 -0.513720 31
-2.645162 18.636078 -1.415298 68
-2.660459 18.766541 -1.132726 91
-3.238343 18.685776 -1.096796 74
-3.249254 18.767500 -0.222737 43
-2.632484 18.773689 -0.840956 94
-2.635798 18.820345 -0.550747 100
-2.626440 18.840046 -0.258977 15
-3.197795 18.671087 -0.803881 59
-3.197708 18.689474 -0.513071 34
-2.581188 18.653101 -1.415898 70
-2.593296 18.763847 -1.132010 96
-3.172429 18.693027 -1.096565 78
-3.177706 18.743237 -0.222316 52
-2.566936 18.782764 -0.840956 100
-2.566842 18.805662 -0.550052 100
-3.131941 18.678194 -0.803711 73
-3.131790 18.696579 -0.512963 37
-2.516061 18.661997 -1.415898 71
-2.526183 18.760914 -1.131294 88
-3.109122 18.715807 -1.097258 92
-3.111606 18.750269 -0.222269 45
-2.502410 18.799532 -0.841311 100
-2.503290 18.830360 -0.550516 100
-3.072547 18.724506 -0.805238 86
-3.069095 18.723181 -0.513396 46
-2.450903 18.670666 -1.415898 32
-2.460680 18.769617 -1.131294 83
-3.036169 18.659941 -1.385004 38
-3.043132 18.722603 -1.097027 92
-3.048059 18.772860 -0.222409 51
-2.435746 18.800226 -0.840956 100
-2.439084 18.850880 -0.550863 100
-3.613224 18.651573 -1.062172 27
-3.073932 19.130505 -1.719027 6
-3.009067 18.746954 -0.805747 90
-3.004986 18.741676 -0.513612 61
-2.395652 18.782053 -1.131533 89
-2.964119 18.627089 -1.381789 66
-2.975252 18.717337 -1.096103 97
-2.981257 18.775484 -0.222316 63
-2.371105 18.816544 -0.841311 100
-2.371270 18.843410 -0.550400 100
-3.544336 18.644461 -1.061055 66
-2.994157 19.058458 -1.711604 22
-2.944255 18.761288 -0.805916 100
-2.945165 18.787596 -0.514586 72
-2.327210 18.766516 -1.130101 20
-2.897417 18.625467 -1.380912 60
-2.908254 18.715740 -1.095410 100
-2.918369 18.801554 -0.222503 78
-2.304691 18.816742 -0.840956 100
-2.306724 18.859478 -0.550632 100
-3.474840 18.633162 -1.059716 69
-2.936077 19.123930 -1.716552 5
-2.875113 18.747749 -0.804899 95
-2.878961 18.793810 -0.514478 79
-3.451528 18.663967 -0.768969 75
-2.838378 18.674908 -1.383835 75
-2.840509 18.709986 -1.094487 100
-2.855120 18.827444 -0.222690 100
-2.237578 18.812767 -0.840425 96
-2.240878 18.867414 -0.550632 100
-3.406185 18.625536 -1.058599 61
-2.860441 19.074957 -1.711250 16
-2.812614 18.777433 -0.805747 90
-2.815707 18.819563 -0.514911 73
-3.387784 18.683767 -0.769293 101
-2.773759 18.688648 -1.384127 87
-2.776938 18.731636 -1.095179 100
-2.789969 18.841251 -0.222737 100
-2.175005 18.875122 -0.550632 100
-3.342558 18.645174 -1.059046 70
-2.791531 19.069057 -1.709836 19
-2.744161 18.767365 -0.804899 100
-2.748264 18.817408 -0.514586 80
-3.314852 18.652193 -0.767512 101
-3.328781 18.748770 -0.478678 88
-2.707935 18.694269 -1.383835 100
-2.712108 18.745169 -1.095410 100
-2.110881 18.898493 -0.551095 97
-3.277454 18.656729 -1.059046 76
-2.675812 18.757048 -0.804051 100
-2.681434 18.818970 -0.514370 100
-3.248352 18.655775 -0.767188 101
-3.255778 18.716940 -0.477572 79
-2.643221 18.707558 -1.384127 93
-2.643868 18.734751 -1.094256 101
-3.216374 18.691669 -1.060385 90
-3.226244 18.767809 -0.186130 55
-2.613074 18.786064 -0.804899 100
-2.613527 18.812372 -0.513937 75
-3.182540 18.663061 -0.767026 100
-3.190423 18.728191 -0.477572 70
-2.576271 18.704815 -1.383250 100
-2.579544 18.751778 -1.094718 100
-3.141915 18.628902 -1.347567 32
-3.148485 18.687025 -1.059492 78
-3.163380 18.794731 -0.186286 90
-2.546383 18.787155 -0.804559 88
-2.548335 18.825350 -0.514045 91
-3.117893 18.678020 -0.767188 101
-3.125530 18.743185 -0.477673 71
-2.511847 18.721624 -1.383835 100
-2.512816 18.752777 -1.094256 101
-3.075569 18.631884 -1.346998 68
-3.083885 18.701843 -1.059716 78
-3.100355 18.821445 -0.186443 100
-2.480265 18.791967 -0.804390 100
-2.482606 18.834129 -0.514045 80
-3.053964 18.696680 -0.767512 101
-3.060729 18.757927 -0.477773 89
-2.444415 18.714457 -1.382666 46
-2.447341 18.761435 -1.094256 100
-3.011785 18.650383 -1.347567 70
-3.018585 18.712494 -1.059716 100
-3.032092 18.816359 -0.186286 95
-2.412617 18.784655 -0.803711 100
-2.417356 18.846647 -0.514153 80
-2.986160 18.691439 -0.766864 101
-2.995863 18.772446 -0.477874 100
-2.381836 18.769863 -1.094256 100
-3.564110 18.622396 -1.023539 49
-3.023491 19.069223 -1.675600 16
-2.944175 18.645020 -1.346429 56
-2.953248 18.722916 -1.059716 88
-2.960167 18.787317 -0.185896 100
-2.347032 18.792963 -0.803711 100
-2.352544 18.862906 -0.514370 91
-2.924597 18.725443 -0.767836 101
-2.929701 18.778837 -0.477773 100
-2.317281 18.785990 -1.094718 39
-3.507192 18.677904 -1.025911 76
-2.960570 19.103289 -1.677675 12
-2.877249 18.643353 -1.345575 68
-2.885441 18.717321 -1.058822 88
-2.893960 18.793581 -0.185856 101
-2.283825 18.820877 -0.804559 100
-2.283800 18.847185 -0.513720 73
-3.472734 18.698088 -0.733916 42
-2.854392 18.703930 -0.766540 101
-2.863530 18.784996 -0.477673 100
-3.436185 18.658609 -1.024186 71
-2.893869 19.113506 -1.677675 6
-2.811836 18.629120 -1.343867 85
-2.825737 18.742584 -1.059716 93
-2.831027 18.799120 -0.185817 90
-2.219527 18.812471 -0.803881 93
-2.222224 18.862598 -0.513937 78
-3.407842 18.693773 -0.733299 58
-2.796480 18.740963 -0.767674 101
-2.800042 18.786478 -0.477472 100
-3.370740 18.650248 -1.023108 63
-2.821135 19.059925 -1.672141 16
-2.748767 18.674828 -1.346429 100
-2.752957 18.725157 -1.058152 100
-2.153074 18.870615 -0.513937 83
-3.336493 18.690399 -0.732682 79
-3.337038 18.711643 -0.441284 24
-2.726622 18.743176 -0.767350 101
-2.732317 18.804529 -0.477673 101
-3.298882 18.642813 -1.022030 55
-2.758656 19.121412 -1.676637 6
-2.683563 18.684309 -1.346429 100
-2.687577 18.734652 -1.058152 100
-2.085872 18.866093 -0.513612 32
-3.267788 18.682245 -0.731911 81
-3.271013 18.719238 -0.441191 24
-2.660056 18.744665 -0.767026 101
-2.667221 18.817911 -0.477773 101
-3.233858 18.636003 -1.312679 15
-3.232421 18.646343 -1.021599 62
-2.618880 18.697514 -1.346713 101
-2.624378 18.759741 -1.059046 93
-3.199180 18.673840 -0.731140 91
-3.204302 18.722658 -0.441005 28
-2.593513 18.745918 -0.766702 101
-2.602066 18.831068 -0.477874 101
-3.169455 18.651112 -1.312956 52
-3.169319 18.669325 -1.022246 84
-3.181391 18.759563 -0.149444 60
-2.554613 18.690294 -1.345575 101
-2.559398 18.748562 -1.057929 98
-3.138675 18.692211 -0.731448 89
-3.146315 18.756821 -0.441562 36
-2.532119 18.758343 -0.766864 101
-2.538821 18.831631 -0.477673 101
-3.106004 18.649649 -1.312125 50
-3.106498 18.671783 -1.021814 97
-3.116994 18.754152 -0.149318 66
-2.490409 18.707008 -1.346144 101
-2.494464 18.761341 -1.058152 100
-3.077297 18.726717 -0.732374 100
-3.082118 18.775581 -0.441748 33
-2.465063 18.755180 -0.766378 101
-2.472030 18.832447 -0.477472 101
-3.038960 18.648561 -1.311295 55
-3.042585 18.690397 -1.022246 100
-3.053437 18.776762 -0.149413 71
-2.423556 18.703716 -1.345290 60
-2.426397 18.750130 -1.057036 100
-3.068523 19.069288 -1.638867 18
-3.011276 18.733398 -0.732219 100
-3.015292 18.778328 -0.441562 38
-2.397552 18.747812 -0.765731 101
-2.404251 18.825096 -0.477070 101
-2.975731 18.670877 -1.312125 64
-2.979209 18.712738 -1.022892 101
-2.985362 18.771505 -0.149287 56
-2.360987 18.758478 -1.057036 100
-2.999381 19.064146 -1.637514 19
-2.944510 18.735916 -0.731911 100
-2.947096 18.772961 -0.441191 44
-2.332832 18.764030 -0.766054 101
-2.339226 18.841345 -0.477271 101
-2.909542 18.677267 -1.311849 70
-2.912226 18.715195 -1.022461 101
-2.924281 18.813501 -0.149538 50
-2.941902 19.133591 -1.642587 14
-2.877878 18.738178 -0.731602 100
-2.886399 18.814754 -0.441934 40
-2.267319 18.772058 -0.766054 101
-2.273922 18.853367 -0.477371 101
-2.842527 18.675474 -1.311018 75
-2.845079 18.713400 -1.021814 100
-2.868954 19.080179 -1.637176 17
-2.814537 18.739714 -0.731294 100
-2.820432 18.800495 -0.441376 38
-2.206921 18.795353 -0.766702 101
-2.210924 18.856831 -0.477271 101
-2.781169 18.688745 -1.311295 75
-2.783594 18.726683 -1.022030 100
-2.797785 19.058519 -1.634471 17
-2.753859 18.781046 -0.732528 99
-2.756675 18.822073 -0.441655 36
-2.144469 18.856455 -0.477070 31
-2.718594 18.714079 -1.312402 71
-2.718053 18.732271 -1.021814 100
-2.681612 18.767271 -0.731602 100
-2.685976 18.820175 -0.441376 36
-2.648866 18.716017 -1.311849 76
-2.647141 18.726290 -1.020952 100
-2.613940 18.714430 -1.603357 1
-2.619915 18.780020 -0.731757 100
-2.623551 18.828978 -0.441376 37
-2.585695 18.716791 -1.311295 66
-2.585028 18.734964 -1.020952 100
-2.538193 18.672564 -1.598961 46
-2.549763 18.781607 -0.731448 100
-2.553152 18.830582 -0.441191 34
-2.515783 18.722290 -1.311018 70
-2.516576 18.752342 -1.021383 100
-2.483140 18.782467 -0.731140 100
-2.487929 18.843344 -0.441284 32
-2.449380 18.723045 -1.310464 71
-2.450585 18.757051 -1.021168 100
-2.422884 18.806456 -0.731757 99
-2.423387 18.835627 -0.440912 31
-2.388875 18.769037 -1.021383 100
-2.355029 18.794931 -0.730985 100
-2.360484 18.863764 -0.441376 30
-2.319503 18.737490 -1.019227 101
-2.288925 18.799070 -0.730831 100
-2.293658 18.863949 -0.441191 27
-2.225167 18.822823 -0.731448 100