# This PCD file was generated using the MATLAB® pcwrite function
# from Computer Vision Toolbox®.
# .PCD v.7 - Point Cloud Data file format
VERSION .7
FIELDS x y z intensity
SIZE 4 4 4 1
TYPE F F F U
COUNT 1 1 1 1
WIDTH 1461
HEIGHT 1
VIEWPOINT 0 0 0 1 0 0 0
POINTS 1461
DATA ascii
-0.299243 10.473351 -0.223134 24
-0.948379 10.304166 -0.818017 79
-1.315645 10.593384 0.162102 18
-0.302690 10.656427 0.264266 37
-0.957876 10.426454 -0.343679 65
-0.301999 10.695110 0.429731 72
-0.629518 10.523284 -1.180622 11
-0.961615 10.486398 -0.183809 77
-0.616070 10.327442 -0.678100 43
-0.970913 10.607293 0.304969 30
-0.619870 10.420469 -0.523332 51
-0.613076 10.419681 -0.362669 28
-0.615325 10.487993 -0.203560 27
-0.285567 10.608029 -0.716002 6
-0.622331 10.638012 0.284626 25
-1.280185 10.448843 -0.325306 2
-0.277954 10.390208 -0.541085 50
-1.280825 10.468665 -0.163840 31
-0.280083 10.536093 -0.062545 29
-0.931425 10.345158 -0.660775 100
-0.279571 10.583838 0.099788 55
-0.934059 10.393995 -0.503097 53
-0.609330 10.537401 -1.018191 14
-0.944469 10.529704 -0.022142 48
-0.607697 10.539931 -0.854995 24
-0.947610 10.584732 0.140971 42
-0.599781 10.494790 -0.042198 100
-0.603215 10.586145 0.120296 21
-0.263208 10.429667 -0.382560 29
-1.269445 10.507595 -0.001847 16
-0.262372 10.466338 -0.222964 20
-0.910891 10.291534 -0.816757 69
-1.278070 10.593954 0.162041 18
-0.265169 10.649426 0.264068 38
-0.921004 10.425762 -0.343548 65
-0.265124 10.720077 0.430694 66
-0.591980 10.513518 -1.179287 12
-0.924874 10.489702 -0.183809 69
-0.580548 10.341493 -0.678885 43
-0.934088 10.614613 0.305084 28
-0.581555 10.390669 -0.521729 50
-0.579406 10.437622 -0.363224 29
-0.580321 10.485983 -0.203483 31
-0.250200 10.600939 -0.715464 8
-0.587270 10.644010 0.284733 23
-1.242689 10.429211 -0.324565 23
-0.243404 10.387079 -0.540877 48
-0.587366 10.678391 0.450104 5
-1.244213 10.456968 -0.163592 26
-0.244864 10.524966 -0.062474 27
-0.895735 10.332281 -0.659760 100
-0.244472 10.584707 0.099788 54
-0.898898 10.389074 -0.502712 57
-0.573517 10.523461 -1.016654 15
-0.909546 10.532779 -0.022142 41
-0.572743 10.541888 -0.854995 29
-0.910444 10.563907 0.140653 46
-0.565621 10.508704 -0.042246 100
-0.568107 10.588088 0.120296 21
-1.220103 10.373311 -0.483430 12
-0.228971 10.446468 -0.383147 25
-1.235527 10.519692 -0.001849 17
-0.227837 10.475147 -0.223134 20
-0.876420 10.290525 -0.816441 66
-1.241068 10.582245 0.161798 18
-0.229680 10.642252 0.263870 36
-0.885749 10.420792 -0.343285 55
-0.556902 10.511454 -1.178842 23
-0.889070 10.480756 -0.183599 67
-0.546041 10.339375 -0.678623 44
-0.899221 10.621636 0.305198 29
-0.547726 10.404509 -0.522330 49
-0.542553 10.431597 -0.362946 28
-0.544129 10.495933 -0.203638 31
-0.212953 10.589777 -0.714656 3
-0.549287 10.630021 0.284305 24
-1.199849 10.377882 -0.322835 15
-0.206906 10.375885 -0.540253 47
-0.551115 10.700332 0.450945 31
-1.205410 10.441382 -0.163281 25
-0.208756 10.557751 -0.062664 25
-0.859994 10.339323 -0.660014 92
-0.207758 10.597493 0.099901 53
-0.862628 10.392149 -0.502712 55
-0.535968 10.509494 -1.015118 21
-0.870463 10.507985 -0.022083 45
-0.535739 10.539842 -0.854672 31
-0.874552 10.578979 0.140812 40
-0.528935 10.510614 -0.042246 100
-1.180571 10.333007 -0.641571 4
-0.530944 10.586012 0.120251 22
-1.181622 10.357656 -0.482506 21
-0.192579 10.451200 -0.383293 25
-1.200609 10.539839 -0.001851 19
-0.191270 10.475879 -0.223134 23
-0.840494 10.293522 -0.816441 24
-1.203218 10.578565 0.161677 18
-0.192241 10.626996 0.263473 29
-0.849043 10.419835 -0.343154 62
-0.520993 10.529215 -1.180622 8
-0.852804 10.487782 -0.183669 67
-0.509553 10.333245 -0.678100 41
-0.861816 10.620725 0.305084 29
-0.511600 10.410347 -0.522531 53
-0.506281 10.437423 -0.363085 26
-0.506685 10.481791 -0.203328 32
-0.512166 10.631875 0.284305 24
-1.165385 10.397902 -0.323329 15
-0.170890 10.388526 -0.540877 41
-0.513385 10.694206 0.450608 43
-1.169408 10.449500 -0.163343 25
-0.172123 10.570413 -0.062735 27
-0.824241 10.346240 -0.660267 78
-0.170488 10.578156 0.099713 51
-0.824808 10.375179 -0.501749 55
-0.501045 10.547091 -1.018575 16
-0.835740 10.534879 -0.022134 48
-0.500724 10.577486 -0.857578 27
-0.836756 10.569999 0.140653 45
-0.491821 10.500403 -0.042198 100
-1.140677 10.301336 -0.639355 17
-0.494708 10.599779 0.120387 24
-1.145177 10.357730 -0.482321 25
-0.156153 10.443813 -0.383000 26
-1.163989 10.543945 -0.001851 18
-0.154838 10.472481 -0.223049 20
-1.167359 10.590630 0.161798 18
-0.813501 10.430691 -0.343416 64
-0.484836 10.538900 -1.181513 10
-0.815803 10.482702 -0.183530 74
-0.473547 10.330962 -0.677838 40
-0.824993 10.623649 0.305084 30
-0.476074 10.424029 -0.523131 51
-0.470024 10.443120 -0.363224 25
-0.470451 10.491487 -0.203483 31
-1.116797 10.272788 -0.796920 41
-0.475586 10.645581 0.284626 27
-1.130809 10.417806 -0.323824 16
-0.134730 10.397047 -0.541292 42
-0.476052 10.695933 0.450608 44
-1.135942 10.481353 -0.163778 28
-0.134866 10.542952 -0.062569 25
-0.787211 10.337112 -0.659506 87
-0.133814 10.598684 0.099901 11
-0.790101 10.397914 -0.502712 53
-0.464050 10.544798 -1.018191 13
-0.797449 10.517789 -0.022092 44
-0.463973 10.583153 -0.857901 28
-0.798949 10.560890 0.140493 44
-0.454818 10.494064 -0.042166 100
-1.104712 10.305256 -0.639355 17
-0.457532 10.597445 0.120341 23
-1.109015 10.361664 -0.482321 31
-0.119605 10.436300 -0.382707 28
-1.125902 10.536013 -0.001849 16
-0.118462 10.488953 -0.223389 20
-1.130383 10.594640 0.161798 17
-0.776493 10.425493 -0.343154 67
-0.448720 10.556415 -1.183294 12
-0.780095 10.497451 -0.183739 72
-0.437482 10.332553 -0.677838 44
-0.787313 10.618489 0.304855 32
-0.438843 10.405670 -0.522130 48
-0.433236 10.436708 -0.362946 27
-0.433166 10.477081 -0.203173 32
-1.080097 10.268691 -0.796304 44
-0.437765 10.631196 0.284199 24
-1.094019 10.417713 -0.323700 15
-0.098437 10.397454 -0.541292 42
-0.438222 10.685551 0.450104 50
-0.772071 10.603745 -1.170007 3
-1.098931 10.481277 -0.163716 31
-0.097617 10.495361 -0.062284 11
-0.752280 10.355723 -0.660521 75
-0.753512 10.396624 -0.502519 55
-0.428206 10.570223 -1.020495 12
-0.761307 10.528488 -0.022108 51
-0.427511 10.596659 -0.858870 23
-0.761217 10.551647 0.140334 44
-0.418344 10.499584 -0.042182 100
-1.068321 10.305078 -0.639109 18
-0.420696 10.602974 0.120387 23
-1.069959 10.337650 -0.481026 33
-0.083238 10.444649 -0.383000 26
-0.758227 10.633479 -1.007712 4
-1.089940 10.547836 -0.001851 19
-0.081786 10.481304 -0.223219 20
-0.760295 10.687564 -0.847018 3
-1.093394 10.598521 0.161798 19
-0.740096 10.428140 -0.343154 67
-0.412799 10.581749 -1.185965 7
-0.742600 10.488142 -0.183530 74
-0.401412 10.334017 -0.677838 43
-0.750243 10.621172 0.304855 32
-0.401591 10.383187 -0.520928 55
-0.396245 10.422176 -0.362391 29
-0.397227 10.494514 -0.203483 29
-1.043873 10.268429 -0.795997 38
-0.400966 10.640651 0.284412 26
-1.057660 10.421467 -0.323700 15
-0.062040 10.381757 -0.540461 44
-0.400913 10.687016 0.450104 50
-0.735870 10.618276 -1.171320 27
-1.060315 10.465153 -0.163405 34
-0.714725 10.338376 -0.659252 82
-1.074282 10.620826 0.326151 15
-0.716622 10.391222 -0.502134 59
-0.392273 10.599507 -1.023184 10
-0.724213 10.527095 -0.022100 48
-0.392343 10.649885 -0.863067 25
-0.725392 10.570207 0.140547 40
-0.381987 10.512978 -0.042230 101
-1.032604 10.312731 -0.639355 18
-1.401716 10.590074 0.182733 17
-0.383088 10.592393 0.120251 22
-1.036494 10.369169 -0.482321 31
-0.046692 10.464863 -0.383733 25
-0.718501 10.600315 -1.004324 6
-1.051347 10.535673 -0.001848 19
-0.716060 10.590704 -0.839138 12
-1.056194 10.602293 0.161798 21
-0.703477 10.430675 -0.343154 65
-0.377738 10.642724 -1.192642 7
-0.706020 10.494677 -0.183599 69
-0.365511 10.347330 -0.678623 41
-0.713443 10.631722 0.305084 32
-0.365778 10.404498 -0.521930 56
-0.360276 10.435482 -0.362808 26
-0.360592 10.495836 -0.203483 29
-1.006855 10.260102 -0.795074 41
-1.373225 10.534861 0.018542 1
-0.363411 10.629996 0.284092 29
-1.020886 10.421117 -0.323577 16
-0.025820 10.389899 -0.540877 37
-0.363605 10.688350 0.450104 62
-0.692797 10.529529 -1.161256 26
-1.023000 10.460830 -0.163281 33
-0.678633 10.340808 -0.659252 80
-1.036425 10.616552 0.325907 30
-0.680606 10.397647 -0.502326 59
-0.688504 10.545525 -0.022134 47
-0.358754 10.758778 -0.871785 7
-0.687971 10.564692 0.140440 42
-0.345550 10.522243 -0.042262 97
-0.996600 10.316272 -0.639355 16
-1.364741 10.594902 0.182733 38
-0.345981 10.589667 0.120205 24
-1.001059 10.380679 -0.482691 34
-0.010147 10.448973 -0.383147 7
-0.679706 10.574940 -1.001689 7
-1.015714 10.551224 -0.001850 19
-0.678577 10.585180 -0.838507 11
-1.018413 10.597953 0.161677 18
-0.667063 10.433066 -0.343154 61
-0.669128 10.493085 -0.183530 67
-0.329771 10.360512 -0.679408 41
-0.677596 10.654099 0.305656 32
-0.329331 10.401718 -0.521729 54
-0.323971 10.440671 -0.362946 26
-0.324076 10.501029 -0.203560 28
-0.972537 10.279436 -0.796304 40
-1.333927 10.519749 0.018507 38
-0.326180 10.627204 0.283985 27
-0.984127 10.420636 -0.323453 15
0.010452 10.393921 -0.541085 38
-0.325928 10.677569 0.449599 55
-0.654802 10.512041 -1.159068 26
-0.989106 10.492209 -0.163716 32
-0.643275 10.355066 -0.660014 85
-1.001982 10.647969 0.326762 23
-0.643566 10.387997 -0.501749 59
-0.651443 10.543872 -0.022125 53
-0.653057 10.598966 0.140865 41
-0.308349 10.507392 -0.042198 100
-0.960583 10.319688 -0.639355 20
-1.324767 10.575790 0.182322 37
-0.309247 10.598807 0.120296 22
-0.965187 10.388088 -0.482876 34
-0.642064 10.565324 -1.000560 9
-0.977400 10.538774 -0.001847 17
-0.639211 10.547682 -0.835355 10
-0.982151 10.609408 0.161798 18
-0.631123 10.443313 -0.343416 62
-0.632015 10.487372 -0.183390 71
-0.292925 10.337661 -0.677838 25
-0.638004 10.616488 0.304511 31
-0.292457 10.382837 -0.520728 55
-0.287222 10.429749 -0.362530 26
-1.290549 10.455678 -0.143428 29
-0.287217 10.494100 -0.203405 30
-0.936666 10.282766 -0.796304 47
-1.298194 10.532279 0.018521 29
-0.289524 10.644265 0.284412 27
-0.948839 10.435952 -0.323824 16
-0.289082 10.694622 0.450272 51
-0.618567 10.522202 -1.159943 28
-0.951387 10.483649 -0.163529 36
-0.606410 10.345294 -0.659252 79
-0.964071 10.643440 0.326518 24
-0.607976 10.402146 -0.502326 55
-0.613899 10.534103 -0.022100 48
-0.614848 10.581219 0.140600 45
-0.270971 10.484414 -0.042101 100
-0.923409 10.311056 -0.638616 23
-1.284864 10.556540 0.181912 34
-0.272261 10.603823 0.120341 22
-0.928476 10.387423 -0.482691 35
-0.603486 10.539676 -0.997925 9
-0.940506 10.542130 -0.001847 19
-0.602505 10.553836 -0.835670 14
-0.944289 10.604815 0.161677 18
-0.593862 10.433484 -0.343023 67
-0.595951 10.501501 -0.183599 69
-0.258778 10.422418 -0.683332 12
-0.601022 10.622651 0.304626 35
-0.256849 10.415749 -0.522330 50
-1.260527 10.459897 -0.305327 30
-0.251198 10.446674 -0.363085 26
-1.252616 10.448206 -0.143265 30
-0.250297 10.483045 -0.203173 30
-0.900767 10.285974 -0.796304 38
-1.261897 10.540718 0.018528 31
-0.252556 10.653206 0.284626 24
-0.912057 10.435218 -0.323700 16
-0.251655 10.691571 0.450104 49
-0.581175 10.512386 -1.158631 31
-0.913396 10.470969 -0.163281 28
-0.570075 10.343362 -0.658998 77
-0.926913 10.646741 0.326518 26
-0.571443 10.400216 -0.502134 60
-0.577344 10.540176 -0.022108 47
-0.577037 10.567326 0.140387 44
-0.235176 10.521287 -0.042246 100
-0.888096 10.322171 -0.639109 17
-1.248476 10.564932 0.181980 39
-0.235334 10.608707 0.120387 24
-0.889818 10.362733 -0.481396 35
-0.567119 10.549671 -0.998677 10
-0.904043 10.549334 -0.001848 20
-0.565234 10.547912 -0.835040 10
-0.906925 10.604061 0.161616 19
-0.557652 10.439487 -0.343154 65
-0.558439 10.487543 -0.183320 67
-0.225290 10.558936 -0.692227 3
-0.564363 10.632669 0.304855 30
-1.217650 10.394631 -0.464263 28
-0.220236 10.404600 -0.521729 58
-1.218434 10.416578 -0.303937 21
-0.216389 10.439456 -0.362808 28
-1.219350 10.464220 -0.143428 30
-0.216026 10.507807 -0.203638 28
-0.865648 10.276982 -0.795382 40
-1.225549 10.532925 0.018507 27
-0.217065 10.645989 0.284412 25
-0.877112 10.434201 -0.323577 16
-0.545899 10.506315 -1.157756 27
-0.880005 10.489882 -0.163529 32
-0.536598 10.361142 -0.660014 78
-0.890935 10.641788 0.326273 26
-0.536333 10.390084 -0.501556 65
-0.541771 10.530049 -0.022083 48
-0.543015 10.589153 0.140653 40
-1.196680 10.376589 -0.624228 2
-0.200133 10.514010 -0.042214 100
-0.853861 10.325060 -0.639109 22
-1.212522 10.561068 0.181843 38
-0.199851 10.593433 0.120205 22
-0.855450 10.365626 -0.481396 35
-0.531330 10.535585 -0.997172 9
-0.866757 10.524368 -0.001843 22
-0.530453 10.553710 -0.835355 9
-0.870445 10.591065 0.161373 18
-0.522231 10.425306 -0.342629 65
-0.523459 10.485343 -0.183250 72
-0.189843 10.535680 -0.690657 8
-0.528902 10.630489 0.304740 34
-1.183173 10.398612 -0.464263 40
-0.185589 10.397285 -0.521329 72
-1.182079 10.404671 -0.303473 19
-0.179938 10.444146 -0.362946 26
-1.182738 10.468422 -0.143428 32
-0.179298 10.508498 -0.203638 29
-0.830043 10.283920 -0.795689 36
-1.188727 10.537144 0.018507 28
-0.841309 10.445170 -0.323824 17
-0.510195 10.528012 -1.159943 37
-0.841792 10.472956 -0.163219 29
-0.499505 10.343014 -0.658744 80
-0.852545 10.628888 0.325785 29
-0.500324 10.395880 -0.501749 67
-0.504920 10.527876 -0.022075 45
-0.505225 10.571003 0.140387 44
-1.157918 10.356879 -0.622796 47
-0.163400 10.498644 -0.042150 100
-0.816769 10.312040 -0.638123 21
-1.176312 10.569186 0.181912 40
-0.163184 10.598062 0.120251 20
-0.820136 10.376496 -0.481766 33
-0.496137 10.565207 -0.999807 8
-0.832495 10.555222 -0.001848 21
-0.494479 10.567432 -0.836301 10
-0.835663 10.617938 0.161738 18
-0.486171 10.427051 -0.342629 64
-0.487221 10.487089 -0.183250 72
-0.492007 10.628258 0.304626 33
-1.146385 10.394691 -0.463909 43
-0.149889 10.409846 -0.521930 64
-0.493648 10.702250 0.471514 5
-1.147050 10.416636 -0.303705 21
-0.143151 10.420728 -0.362113 25
-1.146190 10.472486 -0.143428 34
-0.142344 10.489065 -0.203250 26
-0.794754 10.294707 -0.796304 35
-1.150634 10.529300 0.018487 30
-0.803615 10.432098 -0.323329 16
-0.473264 10.525758 -1.159506 33
-0.805536 10.479818 -0.163281 39
-0.462683 10.328742 -0.657728 94
-0.815744 10.635785 0.325907 29
-0.464210 10.401555 -0.501941 67
-0.469056 10.549555 -0.022117 50
-1.111139 10.246837 -0.774980 30
-0.468676 10.580693 0.140493 45
-1.119610 10.341010 -0.621603 31
-0.126994 10.519149 -0.042230 87
-0.781672 10.326772 -0.638862 22
-1.139840 10.577204 0.181980 44
-0.783910 10.379296 -0.481766 34
-0.460292 10.590746 -1.002065 7
-0.794443 10.542108 -0.001845 20
-0.458106 10.581046 -0.837246 9
-0.798295 10.616802 0.161677 19
-0.449943 10.432678 -0.342760 69
-0.450955 10.496717 -0.183390 74
-0.454905 10.629910 0.304626 30
-1.107548 10.374789 -0.462845 42
-0.113638 10.418296 -0.522330 67
-0.456287 10.703908 0.471514 18
-1.113225 10.444430 -0.304400 27
-0.107021 10.445148 -0.362946 26
-1.108784 10.468469 -0.143319 39
-0.105850 10.501495 -0.203483 30
-0.759107 10.301396 -0.796612 32
-1.114294 10.537230 0.018493 31
-0.767195 10.434840 -0.323329 16
-0.437507 10.551181 -1.162131 39
-0.768950 10.482567 -0.163281 32
-0.428109 10.366191 -0.660014 85
-0.778613 10.638568 0.325907 31
-0.427735 10.399119 -0.501749 65
-0.431082 10.523151 -0.022058 55
-1.075365 10.250653 -0.774980 34
-0.431414 10.574272 0.140387 41
-1.081843 10.328970 -0.620649 27
-0.745620 10.329437 -0.638862 22
-1.102912 10.581119 0.181980 42
-0.747675 10.381969 -0.481766 32
-0.423798 10.604225 -1.003195 8
-0.758212 10.552796 -0.001847 22
-0.422437 10.614456 -0.839768 9
-0.760944 10.615535 0.161616 20
-0.413365 10.430190 -0.342629 72
-0.414312 10.498227 -0.183390 69
-0.417954 10.635429 0.304740 25
-1.069685 10.362692 -0.462136 42
-0.077152 10.402649 -0.521529 74
-0.418608 10.697450 0.471162 22
-0.753822 10.615264 -1.150453 30
-1.076350 10.444276 -0.304284 31
-0.070419 10.421473 -0.362113 25
-0.744061 10.576508 -0.981712 9
-1.071850 10.468294 -0.143265 33
-0.069127 10.489803 -0.203250 20
-0.723158 10.303983 -0.796612 17
-1.076299 10.529117 0.018473 32
-0.731888 10.453408 -0.323824 18
-0.401576 10.576483 -1.164756 28
-0.732908 10.493167 -0.163405 30
-0.391458 10.355656 -0.659252 80
-0.741462 10.641222 0.325907 35
-0.391413 10.400550 -0.501749 55
-0.394618 10.532587 -0.022075 57
-1.041561 10.274189 -0.776480 37
-1.412439 10.572136 0.202937 18
-0.394463 10.575715 0.140387 43
-1.046952 10.344605 -0.621365 34
-0.710046 10.339948 -0.639355 21
-1.063905 10.565014 0.181638 45
-0.711089 10.380534 -0.481581 41
-0.388006 10.641459 -1.006582 7
-0.721020 10.551394 -0.001846 21
-0.387031 10.663688 -0.843551 11
-0.724069 10.622123 0.161677 19
-0.377293 10.443559 -0.343023 83
-0.377417 10.495617 -0.183320 72
-0.380428 10.628836 0.304511 27
-0.716543 10.590009 -1.558287 6
-1.036171 10.394208 -0.463377 45
-0.040799 10.422831 -0.522531 62
-0.381996 10.722812 0.472218 24
-0.711554 10.542450 -1.142285 14
-1.039371 10.444002 -0.304168 34
-0.034120 10.445641 -0.362946 24
-0.704481 10.539300 -0.978024 8
-1.038057 10.499834 -0.143646 37
-0.706819 10.600914 -0.819372 9
-1.039146 10.528829 0.018466 32
-0.694333 10.439941 -0.323329 17
-0.367532 10.661266 -1.173945 12
-0.696011 10.491671 -0.163343 32
-0.354897 10.344991 -0.658490 73
-0.703784 10.635766 0.325663 32
-0.355515 10.413833 -0.502326 64
-0.357850 10.533900 -0.022075 48
-1.003748 10.257914 -0.774980 39
-1.374496 10.569070 0.202785 29
-0.357950 10.589020 0.140547 37
-1.012000 10.360119 -0.622081 43
-0.672650 10.322443 -0.638123 20
-1.028567 10.584586 0.181912 46
-0.674590 10.378965 -0.481396 36
-0.683408 10.541871 -0.001844 24
-0.686728 10.620594 0.161616 18
-0.340836 10.444812 -0.343023 63
-0.341037 10.504865 -0.183460 64
-1.354236 10.537263 0.038939 14
-0.343969 10.650081 0.305084 27
-0.679826 10.596395 -1.558868 36
-1.000265 10.401740 -0.463554 51
-0.004409 10.406929 -0.521729 58
-0.344051 10.708103 0.471514 28
-0.673226 10.521058 -1.139705 11
-1.003673 10.455527 -0.304400 36
-0.665170 10.501945 -0.974336 7
-0.999122 10.479504 -0.143319 34
-0.669057 10.591375 -0.818450 8
-1.002387 10.532392 0.018466 28
-0.657635 10.438312 -0.323206 16
-0.659384 10.494036 -0.163343 36
-0.319276 10.362126 -0.659506 86
-0.666654 10.638158 0.325663 37
-0.318917 10.407022 -0.501941 67
-0.321200 10.539083 -0.022083 50
-0.969434 10.277239 -0.776180 41
-1.337594 10.573804 0.202785 33
-0.321591 10.610193 0.140812 41
-0.977328 10.379489 -0.623035 53
-0.636614 10.324728 -0.638123 23
-0.989749 10.568202 0.181570 44
-0.637621 10.369292 -0.480841 34
-0.994303 10.635994 0.346905 8
-0.647586 10.560163 -0.001847 21
-0.649407 10.618935 0.161555 21
-0.304258 10.441942 -0.342891 77
-1.311181 10.477555 -0.123483 36
-0.304135 10.497995 -0.183320 67
-1.315958 10.530019 0.038895 15
-0.306331 10.635229 0.304626 27
-0.639000 10.535499 -1.549572 33
-0.962844 10.393230 -0.463022 47
0.031734 10.346957 -0.518725 12
-0.306670 10.709239 0.471514 32
-0.635776 10.511435 -1.138415 11
-0.967538 10.462948 -0.304516 31
-0.628773 10.508177 -0.974705 8
-0.962563 10.482925 -0.143319 38
-0.629724 10.553835 -0.815374 8
-0.967093 10.551759 0.018493 31
-0.620964 10.436552 -0.323082 17
-0.622745 10.496274 -0.163343 33
-0.282762 10.351207 -0.658744 84
-0.629737 10.644413 0.325785 32
-0.282129 10.392097 -0.501171 59
-1.288009 10.461148 -0.285208 4
-0.284482 10.544140 -0.022092 47
-0.931715 10.260702 -0.774680 37
-1.300641 10.578413 0.202785 39
-0.283649 10.579268 0.140387 43
-0.939964 10.370912 -0.622319 48
-0.600957 10.334864 -0.638616 22
-0.952056 10.563633 0.181433 48
-0.602722 10.395394 -0.481951 33
-0.958514 10.655335 0.347424 35
-0.610620 10.562365 -0.001847 17
-0.611995 10.617150 0.161495 19
-0.267380 10.430954 -0.342498 79
-1.273031 10.470171 -0.123342 28
-0.267561 10.506992 -0.183460 67
-1.280990 10.550447 0.038954 20
-0.269365 10.648229 0.304969 22
-0.605013 10.589038 -1.557125 26
-0.926774 10.400521 -0.463200 49
-0.269231 10.714243 0.471690 34
-0.598702 10.509628 -1.137986 12
-0.931212 10.470258 -0.304632 32
-0.590969 10.490424 -0.972861 8
-0.926669 10.494189 -0.143428 36
-0.592209 10.544023 -0.814451 8
-0.929202 10.543117 0.018473 26
-0.585200 10.450632 -0.323453 18
-0.585880 10.494390 -0.163281 33
-0.246342 10.340158 -0.657982 59
-0.591467 10.626586 0.325174 34
-1.244974 10.396297 -0.444339 5
-0.245663 10.385031 -0.500786 59
-1.243414 10.398087 -0.283368 20
-0.247392 10.533072 -0.022067 44
-0.896240 10.267865 -0.774980 41
-1.264181 10.586860 0.202861 37
-0.246905 10.588190 0.140493 44
-0.904796 10.386064 -0.623035 55
-0.565531 10.348858 -0.639355 20
-0.914831 10.562907 0.181364 49
-0.565779 10.385466 -0.481396 39
-0.921314 10.658616 0.347424 64
-0.572228 10.536472 -0.001842 24
-0.574498 10.611235 0.161373 23
-0.231322 10.447811 -0.343023 85
-1.236944 10.478523 -0.123389 37
-0.230707 10.499866 -0.183320 67
-1.242281 10.538964 0.038895 20
-0.232456 10.661097 0.305313 22
-0.571650 10.658267 -1.567002 12
-0.890123 10.399712 -0.463022 49
-0.562013 10.511654 -1.137986 21
-0.893638 10.461493 -0.304284 34
-0.554557 10.496401 -0.973229 9
-0.889693 10.493375 -0.143374 39
-0.556029 10.557974 -0.815374 10
-0.891382 10.534338 0.018452 32
-0.548298 10.444626 -0.323206 17
-0.549244 10.496371 -0.163281 30
-0.212357 10.444724 -0.664585 37
-0.555202 10.644557 0.325663 38
-1.208215 10.396610 -0.444170 62
-0.209733 10.401803 -0.501556 70
-1.208032 10.410307 -0.283585 21
-0.210464 10.525873 -0.022050 46
-0.861059 10.278881 -0.775580 40
-1.224917 10.571344 0.202480 38
-0.209785 10.580990 0.140387 40
-0.867871 10.381200 -0.622558 50
-0.528180 10.326845 -0.637877 23
-0.879279 10.581979 0.181638 45
-0.529727 10.391368 -0.481581 38
-0.884764 10.669735 0.347684 57
-0.535649 10.542400 -0.001842 28
-0.537050 10.605186 0.161252 21
-1.187006 10.350751 -0.602557 33
-0.194627 10.436563 -0.342629 85
-1.199450 10.474830 -0.123296 39
-0.194202 10.508605 -0.183460 63
-1.204123 10.531314 0.038851 23
-0.532659 10.624624 -1.561773 32
-0.855450 10.422668 -0.463909 53
-0.525119 10.509580 -1.137556 16
-0.855809 10.448608 -0.303821 34
-0.518307 10.506228 -0.973967 8
-0.851763 10.480471 -0.143156 36
-0.517997 10.535951 -0.813528 8
-0.855575 10.549346 0.018473 27
-0.511640 10.442483 -0.323082 17
-0.512211 10.490235 -0.163157 36
-0.177241 10.525229 -0.669664 19
-0.517848 10.642437 0.325541 38
-1.171470 10.396793 -0.444000 56
-0.173290 10.394483 -0.501171 72
-1.173474 10.430354 -0.284018 25
-0.174050 10.546541 -0.022092 44
-0.823259 10.257968 -0.773780 41
-1.188009 10.575556 0.202480 36
-0.172915 10.585656 0.140440 41
-0.832585 10.396107 -0.623274 51
-0.492319 10.332614 -0.638123 21
-0.840749 10.565049 0.181296 48
-0.492694 10.377189 -0.480841 39
-0.848147 10.680730 0.347944 77
-0.499791 10.564184 -0.001846 23
-1.150126 10.332324 -0.761621 19
-0.500216 10.610991 0.161312 20
-1.152632 10.370707 -0.603480 36
-0.158196 10.437180 -0.342629 81
-1.164202 10.490879 -0.123436 39
-0.157519 10.509218 -0.183460 68
-1.169997 10.559307 0.038939 23
-0.493356 10.578979 -1.554801 35
-0.819063 10.425591 -0.463909 54
-0.489722 10.539157 -1.140565 17
-0.820582 10.467477 -0.304284 31
-0.482907 10.535826 -0.976548 8
-0.815175 10.483380 -0.143156 39
-0.482672 10.569567 -0.815989 7
-0.818745 10.552269 0.018473 27
-0.475186 10.444205 -0.323082 18
-0.475771 10.495955 -0.163219 29
-0.480335 10.636191 0.325296 35
-1.130401 10.357118 -0.442135 44
-0.137058 10.399019 -0.501363 65
-1.137925 10.442337 -0.284234 29
-0.137131 10.539084 -0.022075 49
-0.788973 10.280664 -0.775280 43
-1.153249 10.599517 0.202861 32
-0.795986 10.394968 -0.623035 47
-0.456073 10.330281 -0.637877 21
-0.804169 10.571908 0.181364 42
-0.456818 10.386829 -0.481211 37
-0.808438 10.651733 0.346905 74
-0.463787 10.585845 -0.001849 18
-1.112342 10.320411 -0.760451 81
-0.463523 10.620665 0.161434 19
-1.112579 10.338933 -0.601402 32
-0.121902 10.449661 -0.343023 71
-1.129284 10.510786 -0.123623 42
-0.120650 10.493708 -0.183180 70
-1.131425 10.547419 0.038880 24
-0.456767 10.588545 -1.555963 34
-0.781469 10.412447 -0.463200 55
-0.452077 10.520936 -1.138415 15
-0.783143 10.458316 -0.303937 34
-0.446127 10.537447 -0.976548 7
-0.779168 10.494139 -0.143265 38
-0.446950 10.599079 -0.818142 7
-0.781611 10.551073 0.018466 30
-0.439230 10.457784 -0.323453 15
-0.439298 10.501548 -0.163281 33
-0.443205 10.637803 0.325296 32
-1.092143 10.341129 -0.441287 44
-0.100913 10.415415 -0.502134 61
-0.777196 10.588175 -1.425996 7
-1.101886 10.450222 -0.284342 33
-0.752499 10.275400 -0.774680 40
-1.114568 10.587569 0.202556 43
-0.760278 10.405648 -0.623512 51
-0.419848 10.327821 -0.637631 21
-0.767840 10.582628 0.181501 47
-0.419751 10.368398 -0.480286 33
-0.770386 10.642529 0.346515 71
-0.425866 10.563419 -0.001845 21
-1.076311 10.324230 -0.760451 86
-0.426607 10.626214 0.161495 20
-1.075656 10.334810 -0.600940 35
-0.085392 10.446025 -0.342891 66
-0.765989 10.656467 -1.134243 15
-1.091347 10.502728 -0.123483 46
-0.084212 10.518061 -0.183599 65
-1.096252 10.567218 0.038939 21
-0.420744 10.613802 -1.559449 27
-0.743692 10.395183 -0.462313 49
-0.417232 10.570135 -1.143574 12
-0.746347 10.456998 -0.303821 37
-0.410733 10.574759 -0.979868 8
-0.743379 10.508763 -0.143428 35
-0.411029 10.628471 -0.820295 6
-0.743649 10.537777 0.018438 34
-0.402569 10.455258 -0.323329 19
-0.402178 10.491027 -0.163094 25
-0.406070 10.639285 0.325296 36
-1.057662 10.360782 -0.441965 58
-0.064531 10.411708 -0.501941 54
-0.405863 10.681021 0.490981 3
-0.737743 10.555230 -1.421203 12
-1.065402 10.454004 -0.284342 31
-0.717182 10.285922 -0.775280 37
-1.078413 10.599353 0.202708 39
-0.723951 10.408238 -0.623512 50
-0.383498 10.321244 -0.637138 21
-0.730895 10.585244 0.181501 41
-0.383999 10.381779 -0.480841 36
-0.732957 10.641164 0.346386 78
-0.389285 10.572836 -0.001847 22
-1.037467 10.300140 -0.758406 82
-1.406210 10.584656 0.223665 21
-0.389512 10.627638 0.161495 19
-1.037177 10.314662 -0.599554 36
-0.048947 10.450257 -0.343023 74
-0.723360 10.579708 -1.125797 14
-1.053481 10.494535 -0.123342 43
-0.720774 10.568011 -0.960271 6
-1.058162 10.559040 0.038895 20
-0.708758 10.417649 -0.463200 51
-0.382048 10.619218 -1.148733 19
-0.709570 10.455550 -0.303705 38
-0.375225 10.615933 -0.983555 5
-0.705887 10.499323 -0.143265 35
-0.375188 10.665712 -0.823063 9
-0.708467 10.564255 0.018480 29
-0.366490 10.468587 -0.323700 15
-0.365555 10.492367 -0.163094 28
-1.382973 10.569742 0.059536 2
-0.369068 10.644633 0.325418 36
-1.025409 10.404181 -0.443661 63
-0.028154 10.399884 -0.501363 62
-0.369679 10.714320 0.492449 10
-0.699581 10.537963 -1.418541 23
-1.028121 10.449701 -0.284126 28
-0.681273 10.288363 -0.775280 25
-1.040235 10.591112 0.202480 41
-0.686036 10.386797 -0.622081 52
-0.348140 10.342471 -0.638370 19
-0.693156 10.575758 0.181296 39
-0.348426 10.403024 -0.481766 31
-0.697634 10.671583 0.347294 77
-0.352110 10.566134 -0.001845 22
-1.001507 10.303699 -0.758406 76
-1.368742 10.585534 0.223581 24
-0.352015 10.616941 0.161312 19
-1.003865 10.346043 -0.601171 36
-0.012488 10.466355 -0.343548 15
-0.683593 10.538507 -1.121152 14
-1.017227 10.502130 -0.123389 45
-0.685681 10.598290 -0.962799 4
-1.022067 10.570632 0.038924 21
-0.672390 10.420059 -0.463200 51
-0.673326 10.461953 -0.303821 33
-0.671066 10.501606 -0.143265 36
-0.672922 10.558562 0.018466 32
-0.331013 10.445767 -0.322959 18
-1.342054 10.514189 -0.103601 4
-0.330508 10.485527 -0.162970 29
-1.343869 10.542527 0.059358 24
-0.333767 10.645799 0.325418 33
-0.989766 10.395590 -0.443152 77
0.006331 10.395925 -0.501171 32
-0.334272 10.719481 0.492633 18
-0.667876 10.591660 -1.425463 22
-0.992706 10.445092 -0.283909 25
-0.651408 10.358240 -0.780379 10
-1.004352 10.586540 0.202328 36
-0.651838 10.393000 -0.622319 53
-0.313599 10.335588 -0.637877 22
-0.658082 10.577999 0.181296 38
-0.313324 10.384152 -0.480841 44
-0.661747 10.665857 0.347035 74
-0.317429 10.579239 -0.001847 21
-0.966960 10.302991 -0.758113 81
-1.333132 10.586047 0.223498 25
-0.316925 10.622047 0.161373 23
-0.970296 10.357266 -0.601633 42
-0.648154 10.532775 -1.120307 12
-0.980161 10.481551 -0.123109 43
-0.647848 10.556767 -0.958826 5
-0.987380 10.577946 0.038939 19
-0.636611 10.402289 -0.462313 48
-0.639116 10.472111 -0.304052 29
-0.633418 10.487916 -0.143047 38
-0.635567 10.552862 0.018452 27
-0.294318 10.438867 -0.322712 17
-1.300413 10.479116 -0.103210 24
-0.294019 10.490614 -0.163032 34
-1.308539 10.559062 0.059425 28
-0.296504 10.642902 0.325296 33
-0.955673 10.422858 -0.444170 83
-0.296098 10.692622 0.491348 19
-0.629977 10.578096 -1.423333 20
-0.957353 10.460438 -0.284234 24
-0.624969 10.523700 -0.792675 8
-0.967784 10.593962 0.202404 38
-0.615356 10.391224 -0.622081 43
-0.277686 10.340609 -0.638123 20
-0.621450 10.584221 0.181364 37
-0.277143 10.385181 -0.480841 34
-0.624816 10.672090 0.347165 72
-1.277952 10.426657 -0.264067 21
-0.280259 10.568284 -0.001845 22
-0.931425 10.310270 -0.758406 81
-1.298193 10.606504 0.223833 25
-0.280143 10.631083 0.161495 18
-0.934580 10.364559 -0.601864 42
-0.611478 10.534968 -1.120307 17
-0.944737 10.496851 -0.123249 47
-0.610406 10.547028 -0.957743 8
-0.949479 10.569367 0.038895 19
-0.600866 10.412420 -0.462668 51
-0.601757 10.458304 -0.303589 37
-0.596577 10.486070 -0.142992 36
-0.598274 10.547029 0.018438 28
-0.258372 10.459815 -0.323329 18
-1.262390 10.471679 -0.103093 26
-0.257497 10.495575 -0.163094 30
-1.270717 10.555623 0.059380 30
-0.259254 10.639875 0.325174 32
-0.917881 10.410207 -0.443491 83
-0.259061 10.705574 0.491898 18
-0.593936 10.596064 -1.425463 26
-0.920132 10.455750 -0.284018 27
-0.588231 10.525818 -0.792675 8
-0.930799 10.597276 0.202404 41
-0.579746 10.405269 -0.622796 42
-0.241682 10.345506 -0.638370 18
-0.584720 10.590319 0.181433 42
-1.239830 10.401777 -0.424398 31
-0.240890 10.386086 -0.480841 33
-0.586680 10.658238 0.346645 79
-1.241548 10.431054 -0.264067 29
-0.243459 10.573197 -0.001846 21
-0.894740 10.305510 -0.757821 100
-1.261161 10.610971 0.223833 21
-0.243032 10.631996 0.161495 20
-0.898395 10.367759 -0.601864 50
-0.574050 10.525123 -1.119041 25
-0.907401 10.492115 -0.123155 49
-0.573370 10.545116 -0.957382 7
-0.911548 10.560661 0.038851 21
-0.565165 10.426425 -0.463200 47
-0.566326 10.480303 -0.304168 34
-0.560184 10.492083 -0.143047 38
-0.562305 10.565031 0.018466 32
-0.221859 10.460653 -0.323329 16
-1.225365 10.472049 -0.103054 26
-0.220774 10.492412 -0.163032 31
-1.232006 10.544103 0.059291 26
-0.222196 10.644713 0.325296 29
-0.881874 10.417330 -0.443661 77
-0.558818 10.633702 -1.430256 23
-0.883292 10.454913 -0.283909 28
-0.552946 10.555690 -0.794775 9
-0.893466 10.596475 0.202328 43
-0.543005 10.399254 -0.622319 48
-0.899035 10.683900 0.368788 9
-0.205251 10.330320 -0.637385 18
-0.547337 10.584307 0.181296 38
-1.193871 10.322666 -0.420998 27
-0.204241 10.366888 -0.479917 41
-0.549679 10.664214 0.346775 74
-1.205588 10.439297 -0.264168 28
-0.206394 10.565984 -0.001844 22
-0.860417 10.328448 -0.759282 96
-1.222282 10.599418 0.223498 23
-0.205530 10.612786 0.161191 19
-0.862199 10.370831 -0.601864 42
-0.538524 10.550898 -1.121574 26
-0.871763 10.507176 -0.123296 45
-0.535950 10.535118 -0.956298 8
-0.875009 10.567765 0.038866 21
-0.528362 10.420352 -0.462845 49
-0.529336 10.474230 -0.303937 33
-0.524005 10.501961 -0.143156 37
-1.172250 10.299166 -0.739383 6
-0.524261 10.542957 0.018424 33
-1.175710 10.345146 -0.582107 48
-0.184859 10.433381 -0.322465 17
-1.189717 10.484209 -0.103132 28
-0.184211 10.497117 -0.163094 32
-1.194285 10.540391 0.059246 36
-0.844510 10.408397 -0.443152 81
-0.517766 10.556397 -1.419606 16
-0.846102 10.449965 -0.283693 25
-0.514474 10.525687 -0.792375 8
-0.855763 10.591561 0.202176 44
-0.506814 10.405079 -0.622558 41
-0.859082 10.655102 0.367688 17
-0.169249 10.342952 -0.638123 15
-0.510054 10.582165 0.181228 37
-1.159920 10.346645 -0.421808 24
-0.168413 10.399502 -0.481396 38
-0.511522 10.650103 0.346256 77
-1.168094 10.435512 -0.263967 27
-0.169395 10.570642 -0.001845 22
-0.822598 10.311519 -0.757821 96
-1.184208 10.595692 0.223330 26
-0.168411 10.621440 0.161312 15
-0.825799 10.373794 -0.601864 44
-0.501286 10.548750 -1.121152 24
-0.835182 10.514160 -0.123342 43
-0.500444 10.568769 -0.959187 5
-0.837563 10.566787 0.038851 23
-0.491733 10.422145 -0.462845 57
-0.492311 10.472033 -0.303821 35
-0.487343 10.503726 -0.143156 40
-1.135417 10.295263 -0.738814 13
-0.488195 10.560706 0.018452 28
-1.140028 10.353156 -0.582330 44
-0.148666 10.449954 -0.322959 17
-1.154861 10.504202 -0.103288 33
-0.147512 10.493697 -0.163032 33
-1.157922 10.548471 0.059268 31
-0.808173 10.411282 -0.443152 77
-0.478208 10.498736 -1.411619 14
-0.809929 10.456841 -0.283801 23
-0.479176 10.559296 -0.794775 8
-0.818170 10.586510 0.202024 43
-0.468867 10.370885 -0.620410 50
-0.821883 10.658036 0.367688 24
-0.133555 10.375416 -0.640094 10
-0.472933 10.579885 0.181159 36
-1.124227 10.354605 -0.421970 27
-0.131655 10.364068 -0.479732 33
-0.474165 10.647829 0.346126 81
-1.129505 10.419648 -0.263464 29
-0.132245 10.551171 -0.001842 18
-0.786902 10.318305 -0.758113 89
-1.147215 10.599760 0.223330 27
-0.790491 10.388558 -0.602557 41
-0.463936 10.538514 -1.119885 18
-0.798173 10.513023 -0.123296 43
-0.463898 10.578412 -0.959910 6
-0.800975 10.573634 0.038866 20
-0.455002 10.415813 -0.462491 55
-0.455754 10.473687 -0.303821 29
-0.452508 10.505284 -0.143156 41
-1.099149 10.279135 -0.737391 30
-0.452829 10.554275 0.018438 26
-1.102722 10.329082 -0.580767 47
-0.114099 10.458385 -0.323206 15
-1.120446 10.511950 -0.103327 29
-0.112713 10.494128 -0.163032 26
-1.122089 10.544298 0.059224 32
-0.773939 10.417890 -0.443322 86
-0.443223 10.496304 -1.411086 13
-0.775839 10.467445 -0.284018 23
-0.443822 10.552856 -0.794175 8
-0.783944 10.601130 0.202252 36
-0.435476 10.396319 -0.621842 46
-0.786535 10.660703 0.367688 25
-0.438177 10.589388 0.181296 34
-1.091139 10.370200 -0.422455 27
-0.097585 10.396412 -0.481211 38
-0.439017 10.653337 0.346256 82
-0.767349 10.497500 -1.320350 16
-1.098288 10.455151 -0.264268 29
-0.751520 10.304943 -0.756944 87
-1.113310 10.615438 0.223581 22
-0.755168 10.379174 -0.601864 46
-0.430927 10.587687 -1.124953 13
-0.764464 10.531569 -0.123483 45
-0.430430 10.619696 -0.963521 6
-0.764462 10.556285 0.038792 19
-0.421426 10.441222 -0.463554 45
-0.420859 10.471146 -0.303705 39
-0.415256 10.494815 -0.142992 37
-1.063159 10.282920 -0.737391 34
-0.416234 10.563787 0.018452 27
-1.065776 10.324929 -0.580320 47
-0.077567 10.458719 -0.323206 16
-0.756087 10.631418 -1.110826 6
-1.082490 10.503864 -0.103210 30
-0.076154 10.502457 -0.163157 24
-0.754883 10.639359 -0.946295 5
-1.087338 10.568044 0.059335 29
-0.737060 10.412551 -0.442983 79
-0.409900 10.580973 -1.422268 14
-0.739673 10.474072 -0.284126 26
-0.408503 10.590208 -0.796874 8
-0.747071 10.603792 0.202252 39
-0.399357 10.397769 -0.621842 47
-0.750057 10.671347 0.367963 22
-0.401206 10.582849 0.181159 40
-1.056439 10.385844 -0.422941 26
-0.061485 10.372713 -0.480101 33
-0.402169 10.654792 0.346256 79
-0.730487 10.492173 -1.319354 22
-1.059697 10.435018 -0.263665 31
-0.715914 10.307478 -0.756944 87
-1.074208 10.595348 0.223079 25
-0.719345 10.381719 -0.601864 46
-0.395316 10.612959 -1.127486 24
-0.726777 10.514191 -0.123249 44
-0.394746 10.645000 -0.965688 6
-0.729485 10.578807 0.038866 21
-0.384774 10.422643 -0.462668 50
-0.385321 10.484517 -0.304052 30
-0.379196 10.512188 -0.143210 35
-1.029637 10.310390 -0.739099 33
-1.395296 10.585648 0.244164 17
-0.379357 10.565175 0.018452 28
-1.031314 10.344483 -0.581214 47
-0.041074 10.462925 -0.323329 14
-0.714410 10.566513 -1.103777 5
-1.046611 10.515539 -0.103288 27
-0.715595 10.610126 -0.943468 6
-1.049255 10.559834 0.059268 32
-0.699099 10.391136 -0.441965 93
-0.373521 10.598187 -1.424398 6
-0.702840 10.472600 -0.284018 27
-0.373911 10.659336 -0.801972 8
-0.709785 10.602345 0.202176 40
-0.362921 10.395109 -0.621603 43
-0.712802 10.673900 0.367963 23
-0.364538 10.592178 0.181296 39
-1.021351 10.401402 -0.423427 27
-0.025297 10.380856 -0.480471 32
-0.364564 10.644144 0.345866 84
-0.696214 10.530301 -1.323835 58
-1.024826 10.454572 -0.264067 27
-0.680980 10.325837 -0.758113 78
-1.037996 10.606995 0.223246 23
-0.682840 10.380181 -0.601633 46
-0.690071 10.516664 -0.123249 45
-0.691508 10.565323 0.038807 19
-0.348389 10.423923 -0.462668 49
-0.348455 10.477806 -0.303821 34
-1.364306 10.580098 0.080062 48
-0.342369 10.509450 -0.143156 38
-0.993258 10.309949 -0.738814 39
-1.357828 10.586487 0.244073 25
-0.342735 10.574431 0.018466 29
-0.997492 10.371872 -0.582553 47
-0.677012 10.561002 -1.102948 5
-1.011045 10.531073 -0.103406 28
-0.677284 10.592678 -0.941700 6
-1.012770 10.567414 0.059291 33
-0.663586 10.405478 -0.442474 84
-0.664756 10.451047 -0.283368 27
-0.673025 10.608749 0.202252 37
-0.327009 10.408285 -0.622319 47
-0.675791 10.680312 0.368100 21
-0.327562 10.593387 0.181296 42
-0.982777 10.381030 -0.422455 29
0.010927 10.368894 -0.479917 13
-0.327775 10.657340 0.346256 68
-0.657220 10.497017 -1.319354 61
-0.987574 10.450123 -0.263866 31
-0.644186 10.316206 -0.757237 83
-1.000213 10.602590 0.223079 24
-0.646602 10.382502 -0.601633 44
-0.653109 10.515017 -0.123202 43
-0.654872 10.571665 0.038822 20
-0.312121 10.429070 -0.462845 51
-1.316655 10.485331 -0.083000 31
-0.311760 10.474962 -0.303705 33
-1.319901 10.525265 0.079611 41
-0.303887 10.506632 -0.143101 38
-0.953039 10.285696 -0.736822 39
-1.318679 10.587405 0.243981 31
-0.303727 10.563619 0.018445 28
-0.957726 10.355566 -0.581437 51
-0.306255 10.715355 0.513030 8
-0.637137 10.543554 -1.100875 5
-0.969535 10.502841 -0.103093 29
-0.636276 10.559297 -0.938519 9
-0.972174 10.551142 0.059179 37
-0.626322 10.423801 -0.443152 83
-0.626547 10.457413 -0.283477 23
-0.633460 10.603172 0.202100 41
-0.288603 10.409421 -0.622319 50
-0.636142 10.678742 0.367963 25
-1.288860 10.449981 -0.244456 36
-0.288078 10.586532 0.181159 39
-0.945740 10.400522 -0.423103 29
-0.288319 10.662479 0.346386 88
-0.621982 10.562777 -1.327320 38
-0.949859 10.465664 -0.264168 30
-0.606063 10.322513 -0.757529 47
-0.961871 10.618184 0.223330 21
-0.608406 10.392811 -0.602095 43
-0.613428 10.509393 -0.123109 49
-0.614922 10.566051 0.038792 21
-0.272693 10.414186 -0.462136 54
-1.274527 10.466358 -0.082812 26
-0.272417 10.472059 -0.303589 33
-1.280949 10.534105 0.079641 37
-0.267312 10.511627 -0.143156 43
-0.918546 10.304856 -0.737960 38
-1.284116 10.611794 0.244439 33
-0.266952 10.568613 0.018452 26
-0.921573 10.358846 -0.581437 50
-0.268850 10.716359 0.513030 11
-0.599651 10.533797 -1.099631 8
-0.934283 10.522099 -0.103249 31
-0.599413 10.561453 -0.938519 10
-0.936044 10.562440 0.059224 29
-0.589481 10.417944 -0.442813 86
-0.591616 10.487481 -0.284234 27
-0.596444 10.605319 0.202100 44
-1.251187 10.429399 -0.405366 15
-0.251879 10.394399 -0.621365 45
-0.597967 10.664932 0.367413 22
-1.250472 10.438535 -0.244085 48
-0.251312 10.595469 0.181296 36
-0.908734 10.395797 -0.422779 30
-0.250910 10.655428 0.346126 82
-0.586205 10.584698 -1.329810 41
-0.911931 10.452982 -0.263765 24
-0.572226 10.364397 -0.760451 20
-0.923760 10.609525 0.223079 26
-0.571247 10.378922 -0.601171 48
-0.576520 10.507476 -0.123062 47
-0.578035 10.568132 0.038792 20
-0.236430 10.419068 -0.462313 54
-1.237046 10.462799 -0.082749 28
-0.235861 10.472946 -0.303589 33
-1.245108 10.546457 0.079701 38
-0.230530 10.508497 -0.143101 38
-0.882229 10.304025 -0.737676 36
-1.244267 10.592381 0.243890 31
-0.230059 10.569481 0.018452 27
-0.885408 10.362000 -0.581437 51
-0.562241 10.523909 -1.098387 11
-0.896868 10.517324 -0.103171 30
-0.561696 10.547566 -0.937105 8
-0.898151 10.553686 0.059157 31
-0.553324 10.423929 -0.442983 75
-0.553314 10.457539 -0.283368 27
-0.559421 10.607336 0.202100 42
-1.212001 10.409882 -0.404440 60
-0.216008 10.415174 -0.622558 46
-0.560945 10.670947 0.367550 22
-1.216336 10.462696 -0.244549 49
-0.214001 10.580288 0.181022 38
-0.871772 10.390941 -0.422455 28
-0.213955 10.668230 0.346515 66
-0.550076 10.602533 -1.331801 31
-0.875772 10.460086 -0.263866 27
-0.548199 10.601387 -0.777695 17
-0.886387 10.608699 0.222995 30
-0.534809 10.376864 -0.600940 48
-0.540249 10.517413 -0.123155 44
-0.541347 10.574080 0.038807 19
-1.188745 10.348783 -0.562332 31
-0.200059 10.419830 -0.462313 52
-1.198693 10.451159 -0.082623 24
-0.199530 10.485699 -0.303937 33
-1.210107 10.566634 0.079822 38
-0.193594 10.501243 -0.142992 39
-0.845827 10.303074 -0.737391 33
-1.206274 10.588726 0.243707 33
-0.192879 10.558223 0.018431 28
-0.849821 10.372993 -0.581883 50
-0.525279 10.521834 -1.097972 10
-0.861755 10.540326 -0.103367 29
-0.525087 10.553441 -0.937458 7
-0.861972 10.564729 0.059201 34
-0.516791 10.421803 -0.442813 81
-0.516704 10.455408 -0.283260 23
-0.523511 10.629189 0.202480 40
-1.168615 10.350485 -0.401973 46
-0.179549 10.399893 -0.621603 48
-0.524067 10.676825 0.367688 21
-1.177294 10.443016 -0.243992 51
-0.177634 10.596961 0.181296 31
-0.836749 10.405849 -0.422941 29
-0.509371 10.521124 -1.321346 24
-0.838948 10.455081 -0.263665 28
-0.511953 10.611187 -0.778279 14
-0.849410 10.607712 0.222911 20
-0.498611 10.370671 -0.600478 38
-0.503032 10.499238 -0.122921 44
-1.147988 10.291262 -0.718650 31
-0.505504 10.587869 0.038851 21
-1.154870 10.368692 -0.563195 38
-0.164406 10.432444 -0.462845 46
-1.163180 10.459195 -0.082654 24
-0.163501 10.486322 -0.303937 32
-1.172911 10.562779 0.079761 41
-0.158709 10.497828 -0.142938 36
-0.812282 10.313777 -0.737960 38
-1.173790 10.616516 0.244256 29
-0.157806 10.554804 0.018424 25
-0.815105 10.371773 -0.581660 49
-0.491125 10.539415 -1.099631 10
-0.823670 10.503250 -0.102976 26
-0.490088 10.555124 -0.937458 6
-0.826933 10.567530 0.059201 33
-0.482597 10.431444 -0.443152 83
-0.482583 10.469048 -0.283585 25
-0.487893 10.622877 0.202328 41
-1.135591 10.366222 -0.402435 57
-0.145116 10.404424 -0.621842 43
-0.488659 10.678503 0.367688 22
-1.143092 10.450838 -0.244085 52
-0.800701 10.388641 -0.422131 25
-0.473585 10.502931 -1.318857 24
-0.804580 10.461792 -0.263765 27
-0.475867 10.592900 -0.776818 17
-0.815759 10.630407 0.223330 23
-0.464396 10.376257 -0.600709 38
-0.816676 10.665727 0.388500 5
-0.468391 10.504844 -0.122968 46
-1.113425 10.291044 -0.718373 69
-0.469503 10.569507 0.038778 18
-1.116619 10.336726 -0.561254 35
-0.129512 10.408957 -0.461782 49
-1.131921 10.494809 -0.082906 26
-0.128677 10.482809 -0.303821 33
-1.136593 10.554680 0.079671 39
-0.122064 10.498318 -0.142938 34
-0.775078 10.300635 -0.736822 34
-1.135448 10.608620 0.243981 30
-0.120916 10.551291 0.018417 12
-0.780092 10.390486 -0.582553 49
-0.453990 10.533115 -1.098802 8
-0.787600 10.514038 -0.103054 26
-0.455462 10.608520 -0.942054 6
-0.789444 10.562374 0.059157 26
-0.446011 10.429072 -0.442983 84
-0.446376 10.478658 -0.283801 20
-1.088748 10.253306 -0.874897 24
-0.450810 10.624516 0.202328 39
-1.101085 10.386023 -0.403052 60
-0.108797 10.404867 -0.621842 47
-0.451550 10.684138 0.367825 20
-0.784727 10.594599 -1.276194 2
-1.107867 10.466695 -0.244363 50
-0.763847 10.383401 -0.421808 28
-0.437745 10.524347 -1.321346 29
-0.767178 10.452573 -0.263464 26
-0.440209 10.626384 -0.779156 14
-0.776603 10.605270 0.222744 21
-0.428173 10.377814 -0.600709 38
-0.780897 10.688446 0.389226 20
-0.431719 10.506414 -0.122968 47
-1.076665 10.286931 -0.717820 100
-0.433260 10.587068 0.038836 18
-1.077210 10.308780 -0.559529 31
-0.093213 10.413342 -0.461959 53
-0.770291 10.616558 -1.088734 3
-1.097770 10.522566 -0.083094 25
-0.091944 10.467201 -0.303357 34
-0.772509 10.671859 -0.928583 2
-1.099743 10.558583 0.079671 39
-0.083772 10.518692 -0.143210 27
-0.737346 10.303405 -0.736822 34
-1.096175 10.608729 0.243890 35
-0.740314 10.369371 -0.581214 50
-0.417112 10.578438 -1.103363 7
-0.748781 10.512864 -0.103015 28
-0.417199 10.626043 -0.943468 7
-0.750722 10.565197 0.059157 26
-0.407613 10.426644 -0.442813 93
-0.407009 10.456251 -0.283152 23
-1.054387 10.288950 -0.877602 13
-0.411675 10.622102 0.202252 45
-1.064602 10.405897 -0.403669 58
-0.070615 10.405196 -0.621842 35
-0.412186 10.681728 0.367688 22
-0.745008 10.585523 -1.274763 14
-1.067013 10.446820 -0.243806 51
-0.726265 10.394111 -0.422131 25
-0.401034 10.577443 -1.327818 24
-0.729052 10.459310 -0.263564 26
-0.402061 10.651848 -0.780909 16
-0.738459 10.620022 0.222995 24
-0.389875 10.375328 -0.600478 38
-0.739668 10.663330 0.388210 22
-0.393537 10.519922 -0.123109 46
-1.041242 10.314641 -0.719481 100
-0.394024 10.580595 0.038807 19
-1.040492 10.324594 -0.560176 32
-0.054905 10.413614 -0.461959 52
-0.727130 10.559772 -1.082629 12
-1.056251 10.498674 -0.082874 29
-0.053469 10.475466 -0.303589 32
-0.729958 10.626921 -0.924433 3
-1.060084 10.554599 0.079611 39
-0.703447 10.309773 -0.737106 34
-1.059795 10.600368 0.243616 32
-0.706466 10.379739 -0.581660 50
-0.384471 10.647352 -1.110412 6
-0.713644 10.511299 -0.102976 28
-0.383533 10.671167 -0.947356 6
-0.715683 10.567628 0.059157 28
-0.373035 10.427938 -0.442813 84
-0.372759 10.469532 -0.283477 21
-0.377015 10.639396 0.202556 41
-1.032057 10.429258 -0.404440 64
-0.036165 10.421345 -0.622796 16
-0.376762 10.683037 0.367688 19
-0.709104 10.576047 -1.273331 17
-1.034330 10.470199 -0.244270 52
-0.691527 10.392473 -0.421970 25
-0.368563 10.654078 -1.337278 5
-0.695158 10.473639 -0.263866 29
-0.368383 10.700966 -0.784416 18
-0.702710 10.614431 0.222827 25
-0.355331 10.372573 -0.600247 40
-0.703250 10.649769 0.387629 23
-0.358513 10.517172 -0.123062 44
-1.005093 10.298180 -0.718096 101
-0.359071 10.585841 0.038822 20
-1.007023 10.335938 -0.560607 36
-0.020364 10.409742 -0.461782 60
-0.692369 10.566096 -1.083036 14
-1.019882 10.486196 -0.082749 26
-0.691855 10.585542 -0.920629 4
-1.027397 10.581943 0.079792 35
-0.666939 10.304203 -0.736537 35
-1.021251 10.588081 0.243250 36
-0.669973 10.378156 -0.581437 49
-0.677205 10.517717 -0.103015 29
-0.679047 10.574054 0.059179 32
-0.336503 10.425182 -0.442643 95
-0.336596 10.482759 -0.283801 21
-0.338853 10.608668 0.201948 40
-0.996026 10.436776 -0.404595 65
-0.338707 10.660313 0.366863 22
-0.668908 10.526933 -1.267129 23
-0.997018 10.465784 -0.244085 49
-0.655498 10.398813 -0.422131 27
-0.658594 10.476003 -0.263866 30
-0.666405 10.628793 0.223079 26
-0.319981 10.401690 -0.601864 31
-0.668566 10.692055 0.389081 22
-0.321310 10.502368 -0.122875 46
-0.970261 10.313544 -0.718927 101
-0.321996 10.583032 0.038807 18
-0.974299 10.375181 -0.562548 35
0.015961 10.401758 -0.461427 18
-0.652526 10.520789 -1.078152 8
-0.985885 10.517569 -0.082969 24
-0.653916 10.571982 -0.919245 3
-0.988217 10.561569 0.079611 40
-0.631162 10.310454 -0.736822 35
-0.984976 10.599550 0.243433 34
-0.633468 10.376447 -0.581214 47
-0.639503 10.504048 -0.102858 28
-0.641412 10.564382 0.059112 35
-0.300251 10.430287 -0.442813 86
-0.299819 10.475874 -0.283585 20
-0.301998 10.613783 0.202024 38
-0.958189 10.424263 -0.403978 64
-0.301465 10.657432 0.366725 25
-0.631765 10.521271 -1.266175 27
-0.960927 10.473175 -0.244178 51
-0.619334 10.401030 -0.422131 28
-0.621232 10.462261 -0.263464 27
-0.628770 10.619067 0.222827 24
-0.283756 10.398746 -0.601633 38
-0.630732 10.682341 0.388646 20
-0.285080 10.511415 -0.122968 48
-0.933026 10.300953 -0.717820 101
-0.285180 10.580086 0.038792 18
-0.938308 10.378498 -0.562548 41
-0.616284 10.526961 -1.078559 13
-0.945824 10.481086 -0.082654 29
-0.614031 10.518489 -0.914404 4
-0.950900 10.556963 0.079551 41
-0.595857 10.324544 -0.737676 35
-0.947970 10.602924 0.243433 30
-0.596785 10.370621 -0.580767 53
-0.604438 10.534169 -0.103132 28
-0.605902 10.590516 0.059246 30
-0.263538 10.419287 -0.442304 96
-0.263149 10.472859 -0.283477 21
-0.264947 10.614772 0.202024 40
-0.923907 10.451433 -0.404903 63
-0.264559 10.670408 0.367138 21
-0.597053 10.559097 -1.270469 27
-0.923660 10.468498 -0.243992 49
-0.583471 10.411109 -0.422455 26
-0.584708 10.464366 -0.263464 30
-0.591921 10.625191 0.222911 27
-0.247266 10.391689 -0.601171 40
-0.593883 10.692459 0.388936 23
-0.248764 10.528341 -0.123155 47
-0.900524 10.343901 -0.720589 101
-0.248059 10.573019 0.038763 17
-0.901037 10.369772 -0.561901 40
-0.578660 10.513155 -1.076931 20
-0.911997 10.516203 -0.082906 25
-0.578621 10.544442 -0.916479 4
-0.915079 10.572172 0.079641 36
-0.559382 10.318593 -0.737106 33
-0.910269 10.598200 0.243250 34
-0.560797 10.376629 -0.580990 54
-0.567232 10.528227 -0.103054 28
-0.568502 10.584579 0.059201 29
-0.227427 10.432130 -0.442813 84
-0.226677 10.477713 -0.283585 24
-0.227979 10.619631 0.202100 41
-0.885053 10.426715 -0.403823 58
-0.227140 10.663274 0.366863 17
