# This PCD file was generated using the MATLAB® pcwrite function
# from Computer Vision Toolbox®.
# .PCD v.7 - Point Cloud Data file format
VERSION .7
FIELDS x y z intensity
SIZE 4 4 4 1
TYPE F F F U
COUNT 1 1 1 1
WIDTH 1503
HEIGHT 1
VIEWPOINT 0 0 0 1 0 0 0
POINTS 1503
DATA ascii
-0.021967 10.034765 -0.155887 38
0.944369 10.127888 -0.060362 32
0.296597 9.963437 -0.634111 101
-0.020460 10.115259 0.309050 33
0.948634 10.155336 0.096131 87
0.299110 9.991915 -0.481910 100
-0.018854 10.157272 0.466569 18
0.303528 10.083410 -0.021128 77
0.616138 9.932327 -0.805917 101
0.305301 10.086493 0.133861 53
0.629367 10.064260 -0.040480 101
-0.010148 9.909159 -0.611278 21
0.634761 10.123466 0.115078 36
-0.008547 9.965328 -0.461238 59
-0.006965 10.075997 -0.001759 25
0.310307 9.924173 -0.784919 35
-0.005307 10.110833 0.153538 26
0.315150 10.025646 -0.329244 100
-0.003649 10.180865 0.624472 20
0.318330 10.073436 -0.175920 100
0.633750 9.974442 -0.655078 46
0.322210 10.142725 0.290545 31
-0.000262 10.242210 -1.503672 40
-0.317380 9.969140 -0.442459 83
0.638514 10.023069 -0.503504 56
0.325375 10.188938 0.448651 41
0.001431 10.156822 -1.098004 12
-0.316278 9.986798 -0.289568 69
0.647544 10.061099 -0.350307 40
0.008042 10.116723 -0.936719 10
-0.310715 10.018254 -0.136458 59
0.650032 10.073153 -0.195579 54
0.009805 10.169797 -0.784309 14
0.658339 10.175088 0.272344 35
0.011338 10.003219 -0.309121 24
0.013061 10.026782 -0.155763 47
0.983223 10.160357 -0.060575 25
0.331413 9.962339 -0.634111 101
0.014900 10.123265 0.309294 33
0.983373 10.143994 0.096056 82
0.334721 10.010774 -0.482873 94
0.016656 10.149284 0.466202 16
0.339089 10.090281 -0.021145 100
0.651971 9.946022 -0.807208 101
0.340767 10.089358 0.133914 54
0.665231 10.069970 -0.040512 101
0.024677 9.921110 -0.612017 22
0.670069 10.117182 0.115032 38
0.026474 9.965297 -0.461238 52
0.028541 10.099959 -0.001763 26
0.345515 9.930989 -0.785549 72
0.030343 10.130787 0.153842 27
0.350326 10.020478 -0.329113 100
0.032241 10.188800 0.624962 22
0.353422 10.060261 -0.175711 100
0.668405 9.964179 -0.654555 44
0.357995 10.141525 0.290545 29
0.035890 10.246105 -1.504253 34
-0.282881 9.994164 -0.443523 83
0.674172 10.024738 -0.503704 51
0.362485 10.219674 0.450058 46
0.037282 10.152778 -1.097574 21
-0.280449 9.967869 -0.288989 53
0.680095 10.046931 -0.349890 42
0.041590 10.116641 -0.936719 10
-0.276828 9.995240 -0.136131 56
0.684245 10.082912 -0.195812 48
0.043444 10.149768 -0.782771 8
-0.276041 10.028186 0.017509 48
0.691535 10.164870 0.272130 34
0.044563 10.015120 -0.309492 26
0.046385 10.042681 -0.156012 38
0.364740 9.969165 -0.634619 101
0.048509 10.131156 0.309538 32
1.019002 10.160577 0.096244 81
0.367622 10.001623 -0.482488 88
0.050273 10.141182 0.465835 18
0.372252 10.081107 -0.021128 90
0.374223 10.088173 0.133914 52
0.697513 10.051747 -0.040448 101
0.057739 9.948920 -0.613741 25
0.703893 10.118895 0.115078 36
0.059639 9.985132 -0.462162 59
0.062009 10.095809 -0.001762 25
0.378293 9.925805 -0.785234 82
0.063811 10.110633 0.153538 25
0.383706 10.023256 -0.329244 90
0.065950 10.176660 0.624227 11
0.385705 10.031058 -0.175222 101
0.702004 9.969871 -0.655078 38
0.391778 10.144278 0.290660 26
-0.249438 9.983064 -0.442991 99
0.708536 10.038387 -0.504505 53
0.395754 10.202444 0.449354 39
0.070699 10.116807 -1.093704 27
-0.247789 9.984733 -0.289452 64
0.714025 10.028546 -0.349334 40
0.076722 10.092537 -0.934507 11
-0.241549 9.980152 -0.135914 60
0.718298 10.064507 -0.195502 53
0.078811 10.141578 -0.782156 12
-0.242092 10.073076 0.017586 40
0.727298 10.166383 0.272237 38
0.079427 10.002910 -0.309121 24
0.081538 10.054456 -0.156198 36
0.399376 9.963841 -0.634365 101
0.083773 10.118932 0.309172 37
1.053223 10.145022 0.096131 79
0.402693 10.004271 -0.482680 89
0.085874 10.164919 0.466936 18
0.407924 10.091737 -0.021153 90
0.409597 10.090802 0.133968 49
0.734049 10.069198 -0.040528 101
0.092430 9.944666 -0.613495 24
-0.227436 10.103962 0.172881 3
0.741833 10.152278 0.115486 35
0.094304 9.964886 -0.461238 60
0.097134 10.083532 -0.001760 22
0.412607 9.916455 -0.784603 85
0.099103 10.110349 0.153538 25
0.419192 10.033839 -0.329638 95
0.422729 10.077601 -0.176060 100
0.427186 10.142848 0.290660 31
0.104979 10.182305 -1.494956 31
-0.214418 9.975883 -0.442637 100
0.742687 10.023901 -0.503905 56
0.431871 10.212978 0.449882 40
0.106221 10.136382 -1.095854 26
-0.213446 10.009521 -0.290148 67
0.750915 10.049904 -0.350168 37
0.112141 10.100172 -0.935244 10
-0.207272 10.012927 -0.136349 56
0.753786 10.065921 -0.195579 51
0.114364 10.149217 -0.782771 9
-0.206949 10.077860 0.017593 39
0.763403 10.171755 0.272451 38
0.114550 10.018562 -0.309615 23
0.116387 10.034114 -0.155887 37
0.434449 9.970366 -0.634873 101
0.119041 10.118578 0.309172 37
0.437695 10.006800 -0.482873 95
0.121312 10.168553 0.467120 20
0.443369 10.098249 -0.021170 90
0.445706 10.113293 0.134286 49
0.771042 10.094514 -0.040640 101
0.126760 9.936302 -0.613002 25
-0.191003 10.028714 0.171581 71
0.776331 10.141675 0.115395 33
0.128769 9.964499 -0.461238 54
0.132179 10.099134 -0.001763 23
0.446826 9.914972 -0.784603 77
0.134312 10.133942 0.153903 28
0.453417 10.024346 -0.329375 97
0.457064 10.068095 -0.175920 101
0.462251 10.145313 0.290774 28
0.139511 10.146270 -1.489727 40
-0.180321 9.988547 -0.443168 100
0.776813 10.017307 -0.503704 59
0.465131 10.171515 0.448123 5
0.140991 10.131981 -1.095424 21
-0.179413 10.030184 -0.290727 57
0.783808 10.019323 -0.349195 40
0.147977 10.139544 -0.938932 9
-0.172457 10.021587 -0.136458 61
0.790481 10.083164 -0.195967 44
0.149732 10.144768 -0.782464 8
-0.171837 10.082520 0.017600 47
0.801097 10.196933 0.273198 39
0.149759 10.034092 -0.310110 22
0.151714 10.053642 -0.156198 41
0.469062 9.964801 -0.634619 101
0.154544 10.130094 0.309538 32
-0.481688 9.959384 -0.423140 27
0.472812 10.009202 -0.483065 85
0.157175 10.192040 0.468221 18
0.478048 10.084654 -0.021145 86
0.480055 10.091700 0.134021 48
-0.163913 10.212462 -0.610388 6
0.805636 10.083787 -0.040608 101
0.161703 9.951766 -0.613988 21
-0.156679 10.073308 0.172334 63
0.812685 10.150865 0.115531 35
0.163682 9.971980 -0.461608 59
-0.156184 10.149447 0.329638 6
0.167696 10.114610 -0.001766 23
0.481820 9.921318 -0.785234 86
0.169350 10.113416 0.153599 25
0.489184 10.038675 -0.329900 94
-0.153403 10.300965 -1.093704 16
0.492792 10.078423 -0.176130 100
0.497075 10.131657 0.290431 30
0.174723 10.133850 -1.487984 39
-0.145395 9.985121 -0.442991 100
0.176703 10.151308 -1.097574 18
-0.144342 10.026751 -0.290611 67
0.821383 10.048401 -0.350307 39
0.183442 10.142948 -0.939301 9
-0.137639 10.034126 -0.136622 67
0.826979 10.096287 -0.196277 47
0.185871 10.184058 -0.785539 9
-0.136154 10.047062 0.017537 37
0.835705 10.182118 0.272878 32
0.184415 10.013521 -0.309492 22
0.187030 10.065048 -0.156384 37
0.504045 9.967090 -0.634873 101
0.189754 10.121498 0.309294 30
-0.446921 9.961004 -0.423140 97
0.508355 10.019461 -0.483643 81
0.192373 10.171454 0.467303 16
0.513450 10.086918 -0.021153 83
0.516298 10.109935 0.134286 47
-0.125857 10.021329 -0.598934 67
0.840830 10.080914 -0.040608 101
0.196283 9.943158 -0.613495 21
-0.121709 10.089789 0.172607 60
0.847447 10.139995 0.115441 29
0.198569 9.975343 -0.461793 57
-0.120374 10.117949 0.328599 92
0.202601 10.093966 -0.001762 24
0.517278 9.935505 -0.786495 100
0.204975 10.128758 0.153842 26
0.524014 10.032914 -0.329769 94
-0.116900 10.253709 -1.088637 31
0.527550 10.068653 -0.175990 100
-0.115513 10.281188 -0.932102 3
0.533277 10.145831 0.290889 35
0.211818 10.216269 -1.500185 36
-0.110672 9.997555 -0.443523 98
0.211555 10.122798 -1.094564 16
-0.109210 10.015200 -0.290264 65
0.856719 10.049462 -0.350445 27
0.219115 10.158176 -0.940776 9
-0.102686 10.034545 -0.136622 63
0.859788 10.065450 -0.195734 44
0.221112 10.171387 -0.784617 9
-0.100967 10.031477 0.017509 42
0.219788 10.032803 -0.310110 24
0.222085 10.060335 -0.156322 37
0.539087 9.969254 -0.635127 101
0.225656 10.144755 0.310027 28
-0.411944 9.958512 -0.422970 100
0.542094 9.993685 -0.482488 92
0.228482 10.194688 0.468405 21
-0.095538 10.172199 -1.366357 15
-0.411311 9.983873 -0.270385 14
0.548970 10.089053 -0.021162 73
-0.094329 10.226696 -0.768982 10
0.551928 10.112058 0.134339 47
-0.090427 9.985774 -0.596787 39
0.876223 10.077899 -0.040608 101
0.231102 9.938416 -0.613249 21
-0.086143 10.074158 0.172334 63
0.884464 10.152892 0.115622 30
0.233435 9.966594 -0.461423 56
-0.084851 10.122308 0.328729 94
0.238382 10.105188 -0.001764 23
0.552245 9.933622 -0.786495 101
0.240244 10.111980 0.153599 25
0.559352 10.031006 -0.329769 90
-0.080405 10.206326 -1.083569 14
0.563043 10.066730 -0.175990 100
-0.078929 10.237712 -0.928129 4
0.568622 10.135902 0.290660 37
-0.075188 9.969912 -0.442282 99
0.249725 10.221378 -1.105312 20
-0.073788 10.007526 -0.290032 62
-0.067901 10.070838 -0.137112 69
0.896335 10.078321 -0.196044 44
0.250278 9.919378 -0.765240 28
-0.066186 10.067767 0.017572 38
0.254199 10.007994 -0.309368 23
-0.064982 10.144181 0.485495 26
0.257200 10.059499 -0.156322 38
0.574112 9.971296 -0.635381 101
0.260963 10.139910 0.309905 31
-0.376726 9.947909 -0.422462 100
0.578127 10.011676 -0.483451 81
0.264170 10.197823 0.468588 16
-0.059749 10.124899 -1.359968 18
-0.376759 9.993240 -0.270601 29
0.584415 10.091069 -0.021170 75
-0.058539 10.211008 -0.767782 10
0.586758 10.102084 0.134233 48
-0.055547 9.982036 -0.596548 46
0.911396 10.074779 -0.040608 101
0.266113 9.949522 -0.613988 20
-0.050835 10.046402 0.171855 65
0.920260 10.153727 0.115667 29
0.268654 9.981695 -0.462162 56
-0.049557 10.130538 0.328988 92
0.273654 10.104295 -0.001764 21
0.588093 9.951537 -0.788071 100
0.275867 10.123075 0.153781 26
0.594600 10.032983 -0.329900 100
-0.044812 10.214500 -1.084414 14
0.598416 10.068696 -0.176060 100
-0.043092 10.214024 -0.925962 6
0.606140 10.169778 0.291690 37
-0.040499 9.998085 -0.443523 96
-0.038947 10.031713 -0.290727 60
-0.032656 10.043016 -0.136730 68
0.934086 10.103006 -0.196586 22
0.285245 9.930404 -0.766162 49
-0.031055 10.071937 0.017579 39
0.289594 10.023030 -0.309863 22
-0.029595 10.152337 0.485878 29
0.291848 10.042548 -0.156074 41
0.609645 9.981185 -0.636142 100
0.296941 10.158918 0.310516 28
-0.342136 9.953157 -0.422631 101
0.613071 10.009597 -0.483451 77
0.298826 10.164886 0.467120 24
-0.024588 10.200369 -1.370085 23
-0.341601 9.986502 -0.270385 34
0.619881 10.092960 -0.021179 77
-0.022824 10.179240 -0.765383 10
0.623738 10.127918 0.134604 47
-0.020678 9.970191 -0.595832 45
0.949178 10.099413 -0.040721 101
0.300600 9.940551 -0.613495 22
-0.015848 10.098510 0.172744 68
0.956447 10.158417 0.115758 31
0.303738 9.988685 -0.462532 51
-0.014172 10.114658 0.328469 76
0.308557 10.091284 -0.001762 26
0.622577 9.945444 -0.787756 100
0.311447 10.130045 0.153903 27
0.630119 10.038827 -0.330163 99
-0.009117 10.170840 -1.079769 14
-0.328146 10.037951 -0.117449 97
0.634563 10.082512 -0.176339 100
-0.007435 10.210128 -0.925601 5
0.640880 10.155628 0.291346 33
-0.005590 9.982182 -0.442814 100
-0.003927 10.023790 -0.290495 62
0.002379 10.063067 -0.137003 62
0.319120 9.905432 -0.764317 55
0.004091 10.083983 0.017600 35
0.324831 10.029951 -0.310110 24
0.005825 10.132401 0.484922 23
0.327946 10.073447 -0.156571 38
0.007599 10.211582 0.646037 22
0.643725 9.967045 -0.635381 101
0.332283 10.153824 0.310393 30
-0.307377 9.954292 -0.422631 101
0.649580 10.031316 -0.484606 86
0.334988 10.183748 0.468038 19
0.011060 10.216250 -1.372215 27
-0.306224 9.971647 -0.269952 30
0.655920 10.102707 -0.021204 83
0.012713 10.155326 -0.763583 10
0.660432 10.145633 0.134870 42
0.014140 9.950237 -0.594639 50
0.984890 10.100012 -0.040737 101
0.335372 9.939439 -0.613495 24
0.019471 10.094504 0.172676 77
0.990821 10.143065 0.115622 31
0.338823 9.991554 -0.462717 51
0.021180 10.094656 0.327820 84
0.344285 10.102135 -0.001764 24
0.657132 9.939224 -0.787440 100
0.347871 10.156873 0.154328 27
0.664744 10.028580 -0.329900 92
0.026462 10.154900 -1.078079 22
-0.292755 10.031043 -0.117355 84
0.669881 10.080227 -0.176339 91
0.028201 10.162288 -0.921268 6
-0.292583 10.083689 0.036974 4
0.677794 10.173268 0.291919 34
0.029402 9.986135 -0.442991 94
0.031247 10.035738 -0.290843 60
0.037476 10.054998 -0.136894 62
0.354549 9.928171 -0.766162 73
0.039275 10.079908 0.017593 39
0.359840 10.028756 -0.310110 23
0.041178 10.128324 0.484730 25
0.362531 10.056253 -0.156322 38
0.679326 9.976685 -0.636142 101
0.367580 10.148606 0.310271 28
-0.273175 9.975279 -0.423479 101
0.684592 10.028987 -0.484606 84
0.370970 10.194496 0.468588 20
0.046704 10.212185 -1.371682 26
-0.271415 9.972655 -0.269952 33
0.690362 10.088385 -0.021179 75
0.048124 10.147242 -0.762984 10
0.695021 10.131295 0.134710 46
0.048991 9.974085 -0.596071 63
0.370511 9.950176 -0.614234 17
0.054750 10.102374 0.172813 69
1.027026 10.147504 0.115713 32
0.373848 9.994304 -0.462902 58
0.056528 10.114510 0.328469 100
0.379997 10.112864 -0.001766 25
0.382720 10.139609 0.154085 24
0.699747 10.026198 -0.329900 99
0.061885 10.150768 -1.077657 27
-0.257019 10.004015 -0.117028 70
0.704785 10.073838 -0.176269 100
0.063549 10.142209 -0.919462 8
-0.256158 10.036664 0.036798 30
0.713021 10.166851 0.291804 35
0.064363 10.001956 -0.443700 90
0.066199 10.023573 -0.290495 64
0.070707 10.038820 -0.136676 63
0.387781 9.934912 -0.766777 57
0.072672 10.075723 0.017586 36
0.393565 10.039493 -0.310480 21
0.075059 10.168085 0.486643 28
0.395719 10.051000 -0.156260 38
0.713828 9.994287 -0.637412 100
0.401390 10.151327 0.310393 31
-0.240191 9.980125 -0.423649 101
0.716705 10.010721 -0.483836 75
0.404457 10.185225 0.468221 8
0.079724 10.104939 -1.357305 23
-0.238629 9.985493 -0.270277 33
0.724958 10.101998 -0.021212 77
0.081741 10.143038 -0.762684 11
0.729475 10.140903 0.134870 48
0.082132 9.981853 -0.596548 64
0.403505 9.948894 -0.614234 22
0.088251 10.102137 0.172813 62
1.059007 10.128130 0.115531 31
0.406825 9.989017 -0.462717 47
0.090318 10.142251 0.329378 101
0.413366 10.107551 -0.001766 21
0.416178 10.134289 0.154024 25
0.733865 10.035785 -0.330294 92
0.095546 10.150507 -1.077657 27
-0.223217 9.976821 -0.116701 57
0.738479 10.075434 -0.176339 100
0.097334 10.157877 -0.920906 6
-0.223496 10.065452 0.036901 29
0.747611 10.176394 0.292148 46
0.097608 10.009680 -0.444055 100
0.099557 10.035293 -0.290843 50
0.106118 10.066507 -0.137057 65
0.422334 9.929511 -0.766470 66
0.107931 10.079407 0.017593 33
0.428795 10.042051 -0.310604 22
0.110830 10.191731 0.487790 27
0.431819 10.073532 -0.156633 47
0.437471 10.165843 0.310882 28
-0.205720 9.996884 -0.424327 101
0.752475 10.020116 -0.484414 86
0.114928 10.104599 -1.357305 17
-0.204328 10.010250 -0.270926 32
0.760120 10.099414 -0.021212 81
0.117096 10.146680 -0.762984 10
-0.203914 10.072113 0.191675 34
0.765045 10.142292 0.134923 46
0.117085 10.001470 -0.597741 67
0.438902 9.967376 -0.615465 19
0.122913 10.069777 0.172265 65
0.441808 9.995529 -0.463087 55
0.125679 10.157867 0.329897 101
-0.198515 10.225915 -1.283010 2
0.448379 10.106058 -0.001766 21
0.451966 10.148769 0.154267 25
-0.190295 9.973516 -0.576921 31
0.769487 10.045145 -0.330688 92
0.130754 10.158071 -1.078502 27
-0.189088 9.997528 -0.116934 74
0.773905 10.080797 -0.176479 100
0.132593 10.169430 -0.921990 6
-0.188936 10.078161 0.036945 25
0.781824 10.161792 0.291804 16
0.132223 10.013279 -0.444232 81
0.134179 10.034889 -0.290843 57
0.141256 10.066076 -0.137057 61
0.456625 9.920008 -0.765855 68
0.143114 10.078969 0.017593 36
0.464030 10.044487 -0.310727 21
0.146233 10.179297 0.487216 27
0.467164 10.075959 -0.156695 36
0.472953 10.164254 0.310882 30
-0.170618 9.985554 -0.423818 101
0.787760 10.021412 -0.484606 69
0.150435 10.119992 -1.359435 16
-0.169317 10.006905 -0.270818 33
0.795055 10.092710 -0.021204 79
0.152394 10.138233 -0.762384 10
-0.168286 10.044772 0.191143 69
0.799184 10.123610 0.134710 48
0.151753 9.985030 -0.596787 75
0.473312 9.957808 -0.614973 21
0.158564 10.101277 0.172813 62
-0.476669 9.968423 -0.404320 40
0.475935 9.977962 -0.462347 44
0.161072 10.153369 0.329767 101
-0.162314 10.194798 -1.279027 16
0.483844 10.108427 -0.001766 21
0.487197 10.143135 0.154206 25
-0.154982 9.942177 -0.575073 37
0.803588 10.030442 -0.330294 84
0.166602 10.181415 -1.081035 20
-0.154868 10.042119 -0.117449 80
0.810049 10.089993 -0.176688 94
0.168287 10.180854 -0.923073 5
-0.153572 10.066761 0.036901 31
0.166842 9.992779 -0.443346 92
0.169274 10.038358 -0.290959 51
0.176462 10.069521 -0.137112 56
0.491250 9.918354 -0.765855 57
0.178437 10.086407 0.017607 33
0.498692 10.034820 -0.310480 22
0.181693 10.174730 0.487025 25
-0.143114 10.275342 -1.071021 9
0.502732 10.082256 -0.156819 31
0.508031 10.154555 0.310638 31
-0.135761 9.986089 -0.423818 101
0.186196 10.143188 -1.362630 16
-0.134493 10.015430 -0.271034 28
0.832576 10.117780 -0.021262 76
0.185492 10.014009 -0.753086 13
-0.133487 10.065293 0.191523 67
0.837147 10.152648 0.135135 46
0.186979 10.004401 -0.597980 58
-0.132648 10.129141 0.348437 22
0.507662 9.948120 -0.614480 20
0.193593 10.088667 0.172607 64
-0.440454 9.938084 -0.403025 40
0.511987 10.000183 -0.463457 44
0.196281 10.140754 0.329378 101
-0.126874 10.207209 -1.280521 23
0.520357 10.130645 -0.001770 22
-0.126162 10.287654 -0.753730 4
0.523218 10.153356 0.154389 23
-0.120373 9.950643 -0.575535 51
0.839262 10.035544 -0.330556 86
0.201824 10.164864 -1.079346 15
-0.120004 10.058597 -0.117636 92
0.844931 10.083119 -0.176618 100
0.204701 10.224016 -0.927046 5
-0.118432 10.067236 0.036901 28
0.202287 10.020103 -0.444587 87
0.204232 10.033709 -0.290843 59
0.211284 10.056849 -0.136948 61
0.526245 9.924546 -0.766470 64
0.213937 10.101720 0.017635 34
0.533062 10.021042 -0.310110 20
0.217276 10.178029 0.487216 26
-0.106433 10.196215 -1.062728 8
0.537080 10.064464 -0.156571 34
-0.105395 10.263144 -0.910593 6
0.544368 10.168688 0.311126 36
-0.101106 10.010479 -0.424836 101
0.222362 10.174183 -1.366890 16
-0.099425 10.011842 -0.270926 27
0.868669 10.122774 -0.021279 64
0.218346 9.913605 -0.745588 31
-0.098373 10.077696 0.191751 93
0.870993 10.129728 0.134870 42
0.221935 9.999693 -0.597741 79
-0.097318 10.145533 0.348987 26
0.542809 9.950263 -0.614726 18
0.229109 10.091923 0.172676 59
-0.405065 9.927588 -0.402539 42
0.546254 9.982363 -0.462717 45
0.232191 10.151992 0.329767 100
-0.090401 10.140123 -1.272057 16
-0.408134 10.044536 -0.252708 18
0.554450 10.100794 -0.001766 20
-0.089978 10.288034 -0.753730 20
0.559173 10.155444 0.154449 22
-0.085312 9.947012 -0.575304 40
0.876693 10.056422 -0.331344 28
0.238747 10.211808 -1.084414 18
-0.084536 10.054957 -0.117589 100
0.881866 10.096015 -0.176898 100
0.241495 10.255092 -0.929935 5
-0.082938 10.067591 0.036901 30
0.237451 10.011336 -0.444232 83
0.239948 10.044916 -0.291190 56
0.246289 10.052052 -0.136894 61
0.561785 9.938576 -0.767700 46
0.249098 10.096912 0.017628 30
0.569850 10.051053 -0.311098 21
0.253100 10.189191 0.487790 25
-0.071035 10.224372 -1.065630 7
0.573571 10.086486 -0.156943 34
-0.069272 10.219623 -0.906704 8
0.579405 10.158742 0.310882 36
-0.066056 9.994786 -0.424157 101
0.259282 10.228828 -1.374345 16
-0.064579 10.028121 -0.271359 28
0.904355 10.123665 -0.021287 76
0.252746 9.904807 -0.744989 62
-0.063195 10.077978 0.191751 92
0.908843 10.154512 0.135241 42
0.256942 10.002849 -0.597980 75
-0.061903 10.145811 0.348987 26
0.577538 9.948307 -0.614726 19
0.264439 10.095059 0.172744 59
-0.370558 9.932937 -0.402701 40
0.583186 10.016295 -0.464382 43
0.267838 10.159113 0.330027 101
-0.054876 10.116564 -1.269070 22
-0.371734 10.009935 -0.251804 49
0.589705 10.098797 -0.001766 18
-0.053877 10.252382 -0.751099 18
0.593918 10.141453 0.154267 25
-0.050590 9.947249 -0.575304 44
-0.049398 10.047192 -0.117496 100
0.916379 10.084909 -0.176758 94
-0.047852 10.079819 0.036945 27
0.272178 10.002457 -0.443878 90
-0.046547 10.167302 0.506164 24
0.274463 10.024034 -0.290611 56
0.591638 9.883955 -0.916805 17
0.281376 10.051130 -0.136894 72
0.596235 9.932573 -0.767393 62
0.284454 10.099979 0.017635 36
0.605411 10.056985 -0.311345 18
0.288326 10.176264 0.487216 25
-0.035234 10.192730 -1.062313 6
-0.351712 10.001340 -0.097815 4
0.607812 10.068454 -0.156695 32
-0.033454 10.175975 -0.902816 9
0.615103 10.160648 0.311004 32
-0.031118 9.978970 -0.423479 101
-0.029539 10.016290 -0.271034 32
0.938948 10.112480 -0.021271 72
0.287665 9.915826 -0.745888 63
-0.028060 10.094134 0.192056 98
0.944654 10.155261 0.135294 42
0.292089 10.009873 -0.598457 69
-0.026487 10.145966 0.348987 24
0.613242 9.962171 -0.615712 19
0.299913 10.102071 0.172881 65
-0.336559 9.954142 -0.403510 40
0.616669 9.990271 -0.463272 42
0.303179 10.154119 0.329897 101
-0.019585 10.128600 -1.270563 20
-0.335446 9.971208 -0.250798 39
0.625941 10.112646 -0.001768 20
-0.018040 10.224583 -0.749053 22
0.629314 10.139318 0.154267 22
-0.015880 9.955352 -0.575766 50
-0.014355 10.067302 -0.117730 100
0.954583 10.113503 -0.177316 18
-0.012657 10.071924 0.036916 28
0.307459 10.013429 -0.444409 82
-0.011065 10.175393 0.506561 25
0.310315 10.050989 -0.291422 61
0.315432 10.070127 -0.137166 61
0.629231 9.930537 -0.767393 55
0.317882 10.094981 0.017628 31
0.637008 10.026990 -0.310480 22
0.321842 10.167264 0.486834 24
-0.001406 10.164942 -1.059411 6
-0.320430 10.062419 -0.098401 63
0.641691 10.074367 -0.156819 34
0.000276 10.187983 -0.903877 6
0.650269 10.182496 0.311737 28
0.001923 9.987011 -0.423818 101
0.003587 10.020331 -0.271142 27
0.973878 10.125250 -0.021304 72
0.320160 9.906848 -0.745289 60
0.005292 10.110168 0.192360 100
0.979306 10.164033 0.135453 48
0.324985 10.004864 -0.598219 73
0.006991 10.149995 0.349125 25
0.645735 9.956116 -0.615465 16
0.333390 10.109024 0.173018 65
-0.303706 9.951200 -0.403348 44
0.650771 10.008127 -0.464197 43
0.337054 10.169052 0.330417 100
0.013764 10.192113 -1.278529 43
-0.303426 9.996237 -0.251401 38
0.659110 10.110538 -0.001768 21
0.015463 10.200651 -0.747300 16
0.663575 10.153166 0.154510 23
0.016792 9.987297 -0.577614 56
0.018599 10.071294 -0.117776 91
0.020274 10.075912 0.036930 32
0.340016 10.008378 -0.444232 90
0.022158 10.175375 0.506561 21
0.343228 10.053920 -0.291538 58
0.350581 10.068965 -0.137166 59
0.663891 9.928281 -0.767393 49
0.353678 10.109800 0.017656 36
0.673342 10.044651 -0.311098 21
0.358032 10.186044 0.487790 12
0.034050 10.156928 -1.058581 11
-0.284397 10.031490 -0.098089 59
0.677389 10.080046 -0.156943 33
0.035867 10.195889 -0.904584 8
0.685809 10.180164 0.311737 33
0.036814 9.994936 -0.424157 101
0.038611 10.032253 -0.271467 27
1.009613 10.125770 -0.021313 50
0.354740 9.905670 -0.745289 72
0.040454 10.078094 0.191751 100
1.015176 10.164532 0.135506 41
0.359763 9.999679 -0.597980 83
0.042338 10.129921 0.348437 27
0.680484 9.953801 -0.615465 18
0.369404 10.127783 0.173360 54
-0.269400 9.968180 -0.403996 46
0.685702 10.005795 -0.464197 41
0.372548 10.167813 0.330417 100
0.049226 10.168189 -1.275542 41
-0.269175 10.021218 -0.252005 40
0.695769 10.128129 -0.001772 19
0.051050 10.196546 -0.747008 19
0.700936 10.178718 0.154935 22
0.051633 9.983184 -0.577383 51
0.053712 10.063169 -0.117683 100
0.055490 10.083779 0.036960 28
0.374800 10.003137 -0.444055 94
0.057586 10.159255 0.505766 24
0.378170 10.048665 -0.291422 58
0.385267 10.055690 -0.137003 60
0.388965 10.108504 0.017656 35
-0.250559 10.013224 -0.560001 10
0.708400 10.042239 -0.311098 20
0.069449 10.148790 -1.057752 15
-0.249379 10.032422 -0.098089 59
0.713135 10.085599 -0.157068 35
0.071150 10.151875 -0.900695 11
-0.248912 10.080770 0.056319 41
0.722188 10.189673 0.312104 33
0.071616 9.982758 -0.423649 101
0.073453 10.008067 -0.270818 29
0.390098 9.924300 -0.746788 64
0.076023 10.129881 0.192740 92
1.051885 10.172862 0.135665 42
0.395138 10.010331 -0.598696 82
0.077882 10.153696 0.349262 25
0.716370 9.967294 -0.616450 17
0.404275 10.114443 0.173155 51
-0.234039 9.945086 -0.403025 44
0.720050 9.995370 -0.463827 39
0.407718 10.158462 0.330157 100
0.084290 10.116362 -1.269070 26
-0.234193 10.022098 -0.252005 40
0.730542 10.117660 -0.001770 20
0.086676 10.200294 -0.747300 21
0.735018 10.156263 0.154632 25
0.086550 9.990930 -0.577845 56
0.088909 10.070919 -0.117776 99
0.090653 10.079525 0.036945 29
0.410369 10.017738 -0.444764 87
0.093048 10.158993 0.505766 24
0.413573 10.055273 -0.291654 51
0.421267 10.078264 -0.137329 57
0.423347 10.087105 0.017621 42
-0.214119 9.942164 -0.555982 52
0.744016 10.047682 -0.311345 20
0.104810 10.144508 -1.057338 14
-0.214552 10.041228 -0.098167 45
0.748351 10.083048 -0.157068 33
0.106643 10.155548 -0.901049 7
-0.213453 10.069581 0.056252 34
0.753950 10.135254 0.310516 13
0.106685 9.998431 -0.424327 101
0.108652 10.023742 -0.271250 28
0.423672 9.894977 -0.744689 68
0.111073 10.089562 0.191980 100
1.084156 10.137294 0.135241 17
0.429903 10.000905 -0.598219 85
0.113449 10.149364 0.349125 25
0.439864 10.112958 0.173155 65
-0.199442 9.965827 -0.403834 42
0.757364 10.020661 -0.465121 41
0.444198 10.172939 0.330676 100
0.120349 10.151719 -1.273551 15
-0.198966 10.026858 -0.252105 38
0.765311 10.103055 -0.001768 20
0.122743 10.207904 -0.747884 14
-0.198468 10.087834 0.211351 17
0.772080 10.169558 0.154875 26
0.122015 10.006534 -0.578768 54
0.124402 10.062543 -0.117683 91
0.126213 10.071141 0.036916 29
0.445314 10.004246 -0.444232 73
0.129333 10.182568 0.506959 25
0.449401 10.057738 -0.291770 53
0.454505 10.072817 -0.137275 58
0.457337 10.097633 0.017642 37
-0.181221 9.946813 -0.556205 80
0.777331 10.045159 -0.311345 19
0.138504 10.148084 -1.057752 14
-0.181109 10.033886 -0.098089 43
0.782711 10.092473 -0.157254 32
0.140539 10.171074 -0.902463 9
-0.180132 10.074232 0.056275 36
0.140064 10.014007 -0.425005 101
0.141891 10.023327 -0.271250 29
0.456482 9.893517 -0.744689 68
0.144588 10.093138 0.192056 100
-0.488551 9.984613 -0.385776 4
0.463804 10.015379 -0.599173 85
0.147337 10.164920 0.349675 22
-0.176859 10.280556 -1.235165 31
0.473771 10.119433 0.173292 56
-0.166393 9.966434 -0.403834 43
0.790275 10.014112 -0.464937 37
0.477930 10.171410 0.330676 101
0.154013 10.151264 -1.273551 25
-0.165582 10.019466 -0.251904 41
0.801648 10.136350 -0.001775 20
0.153717 10.019965 -0.734148 33
-0.165014 10.088437 0.211351 36
0.807379 10.186877 0.155178 23
0.155074 9.998088 -0.578306 50
0.158020 10.078072 -0.117870 78
0.159989 10.094665 0.037004 31
0.479442 10.022672 -0.445118 69
0.162971 10.174093 0.506561 29
0.483518 10.072167 -0.292233 49
0.491421 10.071083 -0.137275 57
0.494735 10.103880 0.017656 38
-0.144763 9.947411 -0.556205 79
0.814143 10.042242 -0.311345 18
0.175560 10.139552 -1.056923 10
-0.144274 10.030483 -0.098050 40
0.818725 10.077578 -0.157068 30
0.178444 10.206345 -0.905644 5
-0.143036 10.062826 0.056208 43
0.176484 9.997443 -0.424327 101
0.178628 10.022739 -0.271250 27
0.493931 9.915681 -0.746488 64
0.181652 10.096539 0.192132 99
-0.451411 9.974359 -0.385314 100
0.501505 10.033551 -0.600366 58
0.184520 10.160315 0.349537 24
-0.138156 10.205685 -1.226100 25
0.511463 10.129612 0.173497 53
-0.129655 9.950992 -0.403187 40
0.516016 10.185561 0.331196 100
0.190919 10.134759 -1.271559 29
-0.128858 10.020006 -0.251904 37
0.839454 10.141316 -0.001776 20
0.189076 9.947540 -0.728888 91
-0.128190 10.100970 0.211602 33
0.845702 10.195807 0.155360 21
0.191488 9.985475 -0.577614 59
-0.126875 10.132524 0.368030 20
0.194725 10.065428 -0.117730 78
0.196987 10.094010 0.037004 29
0.516584 10.028829 -0.445473 69
0.200259 10.173428 0.506561 31
-0.123329 10.265697 -1.050069 20
0.520225 10.066335 -0.292117 46
0.525957 10.089364 -0.137547 54
-0.117431 10.305146 -0.735114 6
0.527465 10.086202 0.017628 34
-0.111803 9.955824 -0.556652 82
0.847464 10.039486 -0.311345 19
0.210028 10.178689 -1.061069 8
-0.111076 10.038906 -0.098128 40
0.851787 10.070823 -0.157006 36
0.212688 10.225615 -0.907412 6
-0.110029 10.095243 0.056386 41
0.209751 10.004795 -0.424666 101
0.212110 10.038084 -0.271683 25
0.526259 9.906029 -0.745888 66
0.215598 10.123872 0.192664 86
-0.418796 9.983782 -0.385622 87
0.533757 10.015893 -0.599412 67
0.218299 10.171641 0.349950 25
-0.104280 10.186229 -1.223715 25
-0.418845 10.024550 -0.232944 43
0.544551 10.123882 0.173428 48
-0.097131 9.971347 -0.403996 39
0.548387 10.163851 0.330546 101
0.224816 10.161853 -1.275044 16
-0.096027 10.028372 -0.252105 43
0.871344 10.122567 -0.001773 22
0.221528 9.938890 -0.728303 100
-0.095093 10.105336 0.211686 33
0.877729 10.177042 0.155118 22
0.224293 9.988787 -0.577845 57
-0.093638 10.128889 0.367885 30
0.228117 10.084730 -0.117963 83
0.541839 9.920471 -0.900683 13
0.229526 10.073318 0.036930 24
0.548888 10.019108 -0.445118 78
0.233108 10.156744 0.505766 29
-0.089254 10.202380 -1.043557 16
0.553269 10.068577 -0.292233 50
-0.087660 10.213233 -0.886390 5
0.560728 10.079479 -0.137438 56
-0.081112 10.261606 -0.731984 8
0.564229 10.112256 0.017677 30
-0.077143 9.968134 -0.557322 85
0.883204 10.044432 -0.311592 4
0.246996 10.237554 -1.067289 11
-0.075942 10.027233 -0.098011 41
0.887989 10.079741 -0.157192 35
-0.074759 10.091566 0.056364 40
0.244966 10.015987 -0.425175 101
0.247050 10.033285 -0.271575 26
0.560834 9.904132 -0.745888 66
0.250539 10.107065 0.192360 93
-0.383636 9.977195 -0.385314 97
0.569848 10.033901 -0.600605 66
0.253903 10.174813 0.350087 21
-0.068830 10.202415 -1.225623 16
-0.384156 10.033943 -0.233129 100
0.580801 10.137891 0.173702 60
-0.062324 9.971625 -0.403996 37
0.584779 10.177840 0.331066 101
0.262014 10.228456 -1.283508 13
-0.061119 10.044641 -0.252507 40
0.908101 10.135400 -0.001776 17
0.256117 9.934068 -0.728011 101
-0.059770 10.097608 0.211518 36
0.913963 10.181883 0.155239 22
0.259159 9.987943 -0.577845 59
-0.058213 10.117162 0.367449 28
0.262900 10.067880 -0.117776 83
0.576927 9.926474 -0.901405 26
0.265422 10.100446 0.037033 27
0.585021 10.037078 -0.446005 67
0.269511 10.191812 0.507556 27
-0.053557 10.186713 -1.041929 11
0.587245 10.046626 -0.291654 43
-0.051907 10.193552 -0.884661 5
0.596381 10.085446 -0.137547 49
-0.045204 10.241878 -0.730561 7
0.599998 10.118211 0.017691 34
-0.042415 9.984318 -0.558215 78
-0.041038 10.051436 -0.098245 46
0.924263 10.088528 -0.157378 34
-0.039502 10.083765 0.056319 35
0.279703 10.007082 -0.424836 101
-0.038278 10.202298 0.527542 37
0.282296 10.040356 -0.271791 28
0.596361 9.918039 -0.747088 59
0.286044 10.114124 0.192512 95
-0.348528 9.970484 -0.385005 100
0.603428 10.007937 -0.599173 77
0.288850 10.153885 0.349400 25
-0.033138 10.178765 -1.222761 16
-0.347599 9.991261 -0.232108 63
0.615700 10.127818 0.173565 53
-0.027494 9.963788 -0.403672 39
0.620789 10.183718 0.331325 100
-0.025994 10.020801 -0.251904 39
0.943845 10.136150 -0.001777 20
0.291259 9.949063 -0.729180 101
-0.024523 10.097755 0.211518 39
0.948013 10.162702 0.154996 22
0.294140 9.990969 -0.578076 59
-0.022906 10.121301 0.367594 32
0.298752 10.090888 -0.118057 80
0.612308 9.936328 -0.902488 22
0.300916 10.107453 0.037062 28
0.620053 10.034974 -0.446005 66
0.304965 10.186815 0.507357 14
-0.017949 10.158983 -1.039079 9
-0.333602 10.018138 -0.078728 6
0.624289 10.076441 -0.292581 41
-0.016286 10.169761 -0.882586 5
0.631481 10.083309 -0.137547 55
-0.009522 10.206064 -0.727999 6
0.635752 10.124043 0.017705 34
-0.007607 9.960443 -0.556875 80
-0.005980 10.059518 -0.098323 41
-0.004295 10.099841 0.056409 38
0.315439 10.030009 -0.425853 101
-0.002608 10.186391 0.526715 36
0.317306 10.035310 -0.271683 27
0.631865 9.927832 -0.747988 64
0.321351 10.109063 0.192436 92
-0.313342 9.963654 -0.384697 100
0.639543 10.021698 -0.600128 70
0.325228 10.176783 0.350225 22
0.002550 10.131162 -1.217036 24
-0.313304 10.016400 -0.232665 70
0.651591 10.129580 0.173634 53
0.007564 9.959826 -0.403510 39
0.656917 10.185457 0.331455 100
0.009314 10.028828 -0.252105 39
0.980354 10.140722 -0.001778 17
0.326604 9.955949 -0.729765 101
0.011091 10.101778 0.211602 38
0.985813 10.179196 0.155300 22
0.329278 9.985877 -0.577845 59
0.012861 10.149301 0.368611 36
0.333883 10.073779 -0.117870 100
0.336541 10.102328 0.037048 28
-0.299028 9.992970 -0.539692 3
0.655070 10.024740 -0.445650 70
0.017982 10.131128 -1.036230 17
-0.298713 10.039248 -0.078885 63
0.659489 10.066184 -0.292349 50
0.019741 10.153815 -0.881203 5
0.666146 10.073062 -0.137438 53
0.026114 10.210025 -0.728284 6
0.670294 10.109788 0.017684 34
0.027183 9.968395 -0.557322 85
0.029053 10.031479 -0.098050 37
0.030911 10.083796 0.056319 41
0.350728 10.036835 -0.426193 101
0.032911 10.174355 0.526096 37
0.352474 10.038137 -0.271791 28
0.665447 9.909646 -0.746788 52
0.356777 10.111876 0.192512 90
-0.279007 9.980669 -0.385314 100
0.674789 10.023389 -0.600366 62
0.360466 10.167596 0.349950 24
0.038093 10.178748 -1.222761 19
-0.278227 10.013436 -0.232572 69
0.688029 10.143205 0.173907 54
0.042398 9.975726 -0.404158 40
0.691924 10.175125 0.331196 100
0.044339 10.032733 -0.252206 40
1.015347 10.133258 -0.001777 14
0.361355 9.954748 -0.729765 101
0.046371 10.105677 0.211686 37
1.021339 10.175694 0.155300 22
0.364424 9.992648 -0.578306 73
0.048365 10.165183 0.369191 39
0.369924 10.096535 -0.118151 72
0.371802 10.101091 0.037048 27
-0.263195 9.958018 -0.537752 23
0.691706 10.046312 -0.446714 68
0.053367 10.134983 -1.036637 23
-0.262197 9.984250 -0.078445 44
0.694623 10.063821 -0.292349 43
0.055206 10.157669 -0.881549 6
-0.262595 10.064291 0.075559 14
0.702138 10.082645 -0.137602 56
0.061874 10.229821 -0.729707 4
0.706694 10.123348 0.017712 35
0.062029 9.976227 -0.557768 82
0.064172 10.047316 -0.098206 45
0.066189 10.095626 0.056386 48
0.385300 10.023569 -0.425684 101
0.068533 10.190156 0.526922 34
0.387666 10.040841 -0.271900 26
0.391917 10.106573 0.192436 89
-0.244264 9.985578 -0.385468 101
0.709773 10.020972 -0.600366 68
0.395955 10.166275 0.349950 24
0.073307 10.134869 -1.217513 19
-0.243466 10.022342 -0.232758 64
0.723146 10.136752 0.173839 53
0.077375 9.995501 -0.404968 37
0.727153 10.168660 0.331066 17
0.079486 10.048512 -0.252608 36
0.396418 9.961398 -0.730349 101
0.081776 10.121449 0.212021 33
1.057679 10.180022 0.155421 22
0.398824 9.979344 -0.577614 59
0.083980 10.180941 0.369772 31
0.404684 10.083193 -0.118010 91
0.407060 10.099732 0.037048 27
-0.228067 9.942904 -0.536889 43
0.726770 10.043837 -0.446714 71
0.088745 10.134735 -1.036637 25
-0.227162 9.977106 -0.078382 35
0.730905 10.077287 -0.292813 41
0.090591 10.149445 -0.880857 5
-0.227553 10.069145 0.075589 50
0.738257 10.092095 -0.137765 57
0.095200 9.974202 -0.711493 12
0.742060 10.120817 0.017712 32
0.096846 9.971956 -0.557545 90
0.099414 10.063028 -0.098362 41
0.101622 10.115332 0.056498 35
0.420761 10.034142 -0.426193 101
0.103952 10.177872 0.526302 39
0.423337 10.055408 -0.272332 27
0.427968 10.125125 0.192817 96
-0.209894 10.006349 -0.386239 101
0.744364 10.014458 -0.600128 53
0.431519 10.168829 0.350087 25
0.108680 10.142494 -1.218467 20
-0.208153 10.003139 -0.232294 65
0.758673 10.138165 0.173907 63
0.111802 9.967196 -0.403834 41
0.114208 10.032181 -0.252206 37
0.430826 9.955976 -0.730057 101
0.116913 10.121104 0.212021 36
0.434313 9.997849 -0.578768 73
0.119116 10.164600 0.369191 36
0.439820 10.085725 -0.118057 74
0.442233 10.102257 0.037062 28
-0.193608 9.943634 -0.536889 50
0.761553 10.041259 -0.446714 62
0.123798 10.130387 -1.036230 23
-0.193068 10.001828 -0.078570 33
0.765177 10.066723 -0.292581 47
0.125773 10.153055 -0.881203 5
-0.192391 10.053876 0.075469 54
0.772258 10.073505 -0.137547 52
0.129340 9.921946 -0.707793 34
-0.186350 10.079642 0.230539 26
0.777384 10.118165 0.017712 39
0.131865 9.987531 -0.558438 79
0.134165 10.034624 -0.098089 50
0.136768 10.102917 0.056431 35
0.455784 10.032613 -0.426193 101
0.139753 10.197418 0.527335 38
0.458435 10.053870 -0.272332 29
0.463126 10.119575 0.192740 88
-0.174964 10.007021 -0.386239 100
0.467379 10.175248 0.350362 23
0.143970 10.134110 -1.217513 19
-0.173719 10.031793 -0.232944 63
0.794994 10.147417 0.174113 63
0.146769 9.978734 -0.404320 38
0.149346 10.039718 -0.252407 36
0.466135 9.966367 -0.730934 101
0.152122 10.112638 0.211854 42
0.469958 10.012227 -0.579692 57
0.154839 10.180110 0.369772 31
-0.167457 10.265095 -1.196950 4
0.475211 10.088123 -0.118104 88
0.478439 10.120629 0.037136 27
-0.158897 9.944250 -0.536889 55
0.797231 10.046507 -0.447068 62
0.159346 10.141830 -1.037452 21
-0.158723 10.038436 -0.078853 45
0.800312 10.063991 -0.292581 41
0.161655 10.180446 -0.883624 5
-0.157357 10.058486 0.075499 54
0.808375 10.082709 -0.137711 52
0.163775 9.909466 -0.706939 36
-0.151224 10.084229 0.230630 33
0.813979 10.131338 0.017740 32
0.166527 9.975030 -0.557768 80
0.169259 10.038094 -0.098128 45
0.172305 10.118375 0.056520 34
0.490802 10.030961 -0.426193 101
0.175416 10.200862 0.527542 34
-0.146988 10.259422 -1.029558 3
0.493526 10.052208 -0.272332 29
0.499234 10.133874 0.193045 88
-0.139696 9.983591 -0.385314 101
0.503487 10.185533 0.350775 26
0.179836 10.161343 -1.220852 17
-0.139032 10.056329 -0.233501 63
0.829758 10.136608 0.173976 66
0.181746 9.986153 -0.404644 37
0.184610 10.051129 -0.252708 41
0.500521 9.956711 -0.730349 101
0.187124 10.096051 0.211518 36
0.504301 9.998561 -0.578999 56
0.189925 10.155527 0.368901 34
-0.131064 10.221916 -1.191855 5
0.510625 10.090398 -0.118151 85
-0.130878 10.342294 -0.717820 7
0.514169 10.126887 0.037165 26
-0.124284 9.952731 -0.537320 55
0.195205 10.165083 -1.039894 13
-0.123583 10.030930 -0.078790 47
0.836760 10.077074 -0.293044 40
0.197577 10.199740 -0.885353 5
-0.122246 10.058974 0.075499 61
0.845180 10.099759 -0.137983 53
0.198472 9.916813 -0.707508 44
-0.116122 10.088694 0.230722 36
0.849306 10.128438 0.017740 34
0.201393 9.978382 -0.557992 82
-0.114724 10.115955 0.386873 17
0.204366 10.041441 -0.098167 38
0.519236 9.935363 -0.882667 28
0.207303 10.101715 0.056431 34
0.525423 10.021203 -0.425853 101
0.210803 10.188206 0.526922 30
-0.110672 10.216096 -1.025165 7
0.528450 10.046429 -0.272224 27
0.534464 10.128072 0.192969 81
-0.105197 10.023986 -0.386856 101
0.539339 10.187700 0.350912 25
0.215310 10.156680 -1.220375 18
-0.103468 10.020765 -0.232665 63
0.865968 10.141606 0.174113 64
0.216492 9.973467 -0.404158 38
0.219515 10.034429 -0.252306 40
0.535891 9.962860 -0.730934 101
0.223614 10.143310 0.212524 31
0.539840 10.004704 -0.579461 57
0.226208 10.182773 0.369917 39
-0.095167 10.222313 -1.191855 4
0.546076 10.088541 -0.118151 88
-0.093917 10.274856 -0.713112 25
0.550203 10.133005 0.037194 25
-0.089220 9.945119 -0.536889 62
0.231324 10.180246 -1.041522 11
-0.088366 10.039302 -0.078853 44
0.870155 10.050165 -0.292349 43
0.234388 10.238822 -0.888811 5
-0.086943 10.071342 0.075589 68
0.878320 10.092916 -0.137928 54
0.231821 9.936044 -0.708931 52
-0.082732 10.097021 0.230904 38
0.883583 10.133536 0.017753 34
0.234670 9.985644 -0.558438 86
-0.081242 10.124273 0.387178 29
0.238516 10.076696 -0.098519 42
0.551738 9.925630 -0.881960 60
0.241087 10.112969 0.056498 42
0.558874 10.023396 -0.426023 101
0.244587 10.187450 0.526922 25
-0.076794 10.216407 -1.025165 6
0.561986 10.048614 -0.272332 27
-0.075171 10.230959 -0.868133 8
0.568495 10.134231 0.193121 79
-0.071612 9.976316 -0.385005 101
0.573120 10.185856 0.350912 24
0.249768 10.187673 -1.224192 18
-0.070153 10.009057 -0.232386 63
0.899948 10.142663 0.174181 61
0.249664 9.976689 -0.404320 41
-0.065878 10.133222 0.543486 5
0.253494 10.061627 -0.253010 36
0.568699 9.957045 -0.730641 101
0.256742 10.122523 0.212105 36
0.574384 10.026779 -0.580847 55
0.260179 10.189959 0.370208 32
-0.061197 10.210653 -1.190465 4
0.579298 10.082682 -0.118104 90
-0.059751 10.259149 -0.712004 26
0.582882 10.115151 0.037136 27
-0.056286 9.953348 -0.537320 75
-0.055008 10.027540 -0.078759 51
-0.053609 10.083573 0.075679 57
0.914267 10.097755 -0.138037 50
0.267252 9.963094 -0.710923 47
-0.047543 10.109245 0.231179 38
0.919312 10.134374 0.017760 31
0.269524 9.984764 -0.558438 89
-0.045901 10.124496 0.387178 31
0.273363 10.063807 -0.098401 40
0.585441 9.907734 -0.880546 57
0.276714 10.124062 0.056565 30
0.593859 10.021384 -0.426023 101
-0.040875 10.152933 -1.018775 6
0.597296 10.050582 -0.272441 25
-0.039320 10.195288 -0.865089 7
0.604104 10.136176 0.193197 87
-0.036847 9.992494 -0.385622 100
0.609387 10.195765 0.351325 22
-0.035313 10.037233 -0.233036 58
0.936449 10.151407 0.174386 63
0.285286 10.003723 -0.405453 32
-0.030722 10.205287 0.547342 61
0.288729 10.064678 -0.253110 32
0.604417 9.970927 -0.731810 101
0.292883 10.149548 0.212691 34
0.609138 10.020727 -0.580616 56
0.295631 10.184993 0.370063 32
-0.025495 10.186967 -1.187686 4
0.615464 10.096567 -0.118291 77
-0.023893 10.239343 -0.710619 27
0.618431 10.117048 0.037150 27
-0.021550 9.957479 -0.537536 76
-0.020045 10.047670 -0.078916 43
-0.018395 10.075700 0.075619 53
0.948487 10.082546 -0.137874 39
0.301161 9.930192 -0.708647 47
-0.012153 10.109350 0.231179 40
0.955495 10.139062 0.017774 32
0.304682 9.991745 -0.558885 73
-0.010513 10.140582 0.387790 29
0.308514 10.062791 -0.098401 40
0.621999 9.937444 -0.883374 37
0.311668 10.111040 0.056498 37
0.629535 10.031219 -0.426532 101
-0.005485 10.149034 -1.018376 6
0.633289 10.064404 -0.272873 24
-0.003821 10.187392 -0.864413 8
0.639100 10.130023 0.193121 81
-0.002094 9.988564 -0.385468 100
0.643289 10.169648 0.350500 19
-0.000442 9.997306 -0.232108 64
0.971211 10.144123 0.174318 64
0.319794 9.998681 -0.405292 37
0.004590 10.153406 0.544557 46
0.322895 10.043636 -0.252608 34
0.637586 9.948874 -0.730349 101
0.326912 10.116499 0.212021 36
0.643716 10.018565 -0.580616 52
0.330907 10.187907 0.370208 29
0.009638 10.163156 -1.184906 4
0.650264 10.094385 -0.118291 74
0.011373 10.211432 -0.708681 24
0.654037 10.126834 0.037194 24
0.012752 9.969476 -0.538183 64
0.014509 10.043680 -0.078885 46
0.016222 10.075704 0.075619 63
0.335956 9.933068 -0.708931 48
0.023126 10.105331 0.231087 41
0.990492 10.131683 0.017767 31
0.339286 9.982637 -0.558438 74
0.024904 10.148552 0.388095 33
0.344184 10.077642 -0.098558 40
0.347371 10.121883 0.056565 33
0.664546 10.028960 -0.426532 101
0.029930 10.145011 -1.017976 7
0.668681 10.066122 -0.272982 27
0.031665 10.163429 -0.862384 8
0.675254 10.139702 0.193349 70
0.032772 9.988511 -0.385468 100
0.034579 10.033237 -0.232944 61
1.006615 10.140671 0.174318 60
0.354552 9.993509 -0.405130 37
0.040000 10.145340 0.544129 46
0.358806 10.066425 -0.253211 34
0.672848 9.954548 -0.730934 100
0.362510 10.123289 0.212189 33
0.678953 10.020242 -0.580847 52
0.366611 10.190684 0.370353 29
0.045184 10.178952 -1.186759 6
0.686581 10.108016 -0.118478 69
0.046852 10.175417 -0.706188 21
0.689382 10.124489 0.037194 24
0.047609 9.981353 -0.538830 64
0.049646 10.059567 -0.079010 41
0.051433 10.083585 0.075679 63
0.371371 9.951771 -0.710354 51
0.058469 10.117186 0.231362 34
1.026658 10.136124 0.017781 19
0.374429 9.989374 -0.558885 79
0.060305 10.144405 0.387942 31
0.379059 10.068386 -0.098480 41
0.382248 10.108618 0.056498 34
0.698715 10.014620 -0.426023 101
0.065265 10.132905 -1.016778 8
0.703256 10.055749 -0.272765 24
0.067037 10.147314 -0.861031 9
0.712042 10.157230 0.193730 80
0.067828 10.016315 -0.386548 100
0.069657 10.041053 -0.233129 63
1.042415 10.141074 0.174386 39
0.389434 9.992210 -0.405130 33
0.075384 10.141145 0.543914 47
0.393004 10.041138 -0.252608 35
0.709006 9.972035 -0.732395 26
0.398001 10.125958 0.212272 34
0.713643 10.013827 -0.580616 53
0.402338 10.193337 0.370498 30
0.080400 10.139003 -1.182127 6
0.720720 10.089600 -0.118291 67
0.080626 9.959717 -0.691234 77
0.725290 10.130000 0.037224 22
0.082417 9.977132 -0.538614 67
0.084761 10.059333 -0.079010 44
0.086734 10.095343 0.075769 67
0.405708 9.942444 -0.709785 47
0.093710 10.116921 0.231362 37
0.409251 9.988008 -0.558885 79
0.095744 10.152127 0.388248 32
0.414513 10.074995 -0.098558 38
0.417872 10.115214 0.056543 39
0.736628 10.051974 -0.427719 101
0.100714 10.136595 -1.017177 9
0.738713 10.057216 -0.272873 26
0.102645 10.158975 -0.862045 9
0.747002 10.146699 0.193577 89
0.102804 10.008022 -0.386239 101
0.104704 10.028750 -0.232851 60
0.425365 10.010747 -0.405939 36
0.111298 10.168776 0.545414 60
0.428969 10.055675 -0.253010 43
0.434980 10.156460 0.212943 34
0.750374 10.031164 -0.581771 47
0.438557 10.199845 0.370788 32
0.116359 10.162494 -1.184906 4
0.757752 10.106941 -0.118525 64
0.115245 9.919469 -0.688464 101
0.761897 10.139346 0.037268 25
0.117684 9.984767 -0.539045 70
0.120060 10.042973 -0.078885 52
0.122234 10.082975 0.075679 63
0.441471 9.964883 -0.711493 43
0.128922 10.108535 0.231179 37
0.444290 9.990508 -0.559108 77
0.130975 10.135745 0.387637 29
0.450214 10.085474 -0.098675 38
0.453536 10.121686 0.056587 44
0.770487 10.033402 -0.427041 101
0.136097 10.136181 -1.017177 9
0.774428 10.062550 -0.273090 28
0.138160 10.162539 -0.862384 8
0.783646 10.159979 0.193882 84
0.137738 10.007603 -0.386239 100
0.139989 10.048317 -0.233315 64
0.459940 10.001217 -0.405615 36
0.146793 10.168324 0.545414 52
0.463883 10.050121 -0.252909 36
0.468580 10.114931 0.212105 35
0.473416 10.182280 0.370208 30
0.151891 10.165998 -1.185370 4
0.791775 10.088284 -0.118338 65
0.149870 9.919006 -0.688464 101
0.798853 10.156564 0.037341 23
0.152354 9.972315 -0.538399 65
0.155363 10.058490 -0.079010 47
0.469021 9.943527 -0.863911 16
0.157555 10.090486 0.075739 63
0.476252 9.963281 -0.711493 49
0.164402 10.120019 0.231453 41
0.478778 9.980919 -0.558662 75
0.166748 10.159204 0.388554 32
0.485416 10.083841 -0.098675 41
0.489058 10.124037 0.056610 42
0.805506 10.030652 -0.427041 100
0.171612 10.143603 -1.017976 8
0.809869 10.063770 -0.273198 25
0.173565 10.158010 -0.862045 8
0.820392 10.173127 0.194186 81
0.172808 10.015054 -0.386548 100
0.175063 10.047767 -0.233315 61
0.495243 10.007534 -0.405939 37
0.182645 10.187718 0.546485 49
0.499160 10.052435 -0.253010 38
0.505675 10.149181 0.212859 30
0.509555 10.192542 0.370643 33
0.187230 10.157461 -1.184443 5
0.827639 10.093432 -0.118431 62
0.184938 9.942361 -0.690126 101
0.833646 10.145741 0.037312 26
0.187462 9.987696 -0.539261 59
0.190397 10.053887 -0.078979 49
0.503123 9.929890 -0.862873 25
0.192776 10.089874 0.075739 65
0.510006 9.941634 -0.710070 53
0.199726 10.119383 0.231453 42
0.515258 10.011094 -0.560448 72
0.202448 10.170549 0.389012 29
0.520199 10.074097 -0.098597 36
0.523360 10.102295 0.056498 35
0.207587 10.170796 -1.020772 8
0.844659 10.056897 -0.273090 25
0.209842 10.197190 -0.865427 8
0.853886 10.146290 0.193730 74
0.207517 10.002400 -0.386085 100
0.209884 10.035101 -0.233036 61
0.530172 10.005744 -0.405939 37
0.218547 10.202992 0.547342 35
0.534246 10.050632 -0.253010 37
0.540887 10.143361 0.212775 35
0.545130 10.190701 0.370643 30
0.223469 10.192495 -1.188612 4
0.862866 10.090482 -0.118431 67
0.220171 9.965591 -0.691788 101
0.869056 10.142768 0.037312 25
0.222147 9.978994 -0.538830 67
0.225849 10.069157 -0.079104 48
0.538428 9.940011 -0.863911 26
0.228085 10.093139 0.075769 54
0.545360 9.951745 -0.710923 43
0.235048 10.118625 0.231453 33
0.549104 9.989296 -0.559331 73
0.237574 10.153797 0.388401 33
0.556242 10.088194 -0.098753 37
0.560608 10.136351 0.056699 34
0.244040 10.209799 -1.024765 6
0.881850 10.077787 -0.273739 23
0.890346 10.155200 0.193958 71
0.242431 10.001616 -0.386085 100
0.244912 10.034307 -0.233036 60
0.565547 10.011813 -0.406263 34
0.570005 10.060682 -0.253311 33
0.576744 10.149396 0.212943 29
0.581836 10.208692 0.371369 28
0.260156 10.235343 -1.193707 3
0.900212 10.111312 -0.118712 75
0.254548 9.948806 -0.690680 101
0.904456 10.139673 0.037312 24
0.256773 9.970173 -0.538399 59
0.260995 10.068307 -0.079104 45
0.572434 9.926136 -0.862873 23
0.263837 10.112274 0.075919 54
0.579863 9.945798 -0.710639 43
0.270901 10.137730 0.231910 39
0.584203 9.991305 -0.559555 79
0.272801 10.144915 0.388095 33
0.591453 10.086191 -0.098753 37
0.595517 10.126346 0.056654 37
0.926878 10.163979 0.194186 73
0.278006 10.024681 -0.387010 100
0.280272 10.045382 -0.233315 61
0.600252 10.005789 -0.406101 32
0.605360 10.062623 -0.253412 36
0.611446 10.135345 0.212691 38
0.616985 10.198618 0.371079 13
0.935501 10.108109 -0.118712 56
0.289042 9.939879 -0.690126 101
0.939844 10.136454 0.037312 21
0.291807 9.977201 -0.538830 61
0.295315 10.039348 -0.078885 44
0.606592 9.916121 -0.862182 25
0.298543 10.091301 0.075769 52
0.615807 9.963625 -0.712062 54
0.306287 10.136723 0.231910 37
0.619322 9.993192 -0.559778 73
0.308333 10.147896 0.388248 30
0.626657 10.084064 -0.098753 36
0.632105 10.144167 0.056766 40
0.963860 10.176607 0.194491 70
0.312873 10.019654 -0.386856 100
0.315209 10.040346 -0.233222 58
0.636188 10.019588 -0.406749 32
