# This PCD file was generated using the MATLAB® pcwrite function
# from Computer Vision Toolbox®.
# .PCD v.7 - Point Cloud Data file format
VERSION .7
FIELDS x y z intensity
SIZE 4 4 4 1
TYPE F F F U
COUNT 1 1 1 1
WIDTH 1476
HEIGHT 1
VIEWPOINT 0 0 0 1 0 0 0
POINTS 1476
DATA ascii
-1.632723 4.263116 -0.532235 69
-0.675021 4.661937 0.116769 100
-0.769378 4.343480 -0.805291 101
-0.948240 4.515016 -0.151434 90
-1.125660 4.624013 0.291910 80
-1.212090 4.369519 -0.481399 100
-1.391174 4.459735 -0.054632 100
-0.679067 4.695323 0.190546 88
-0.784826 4.434937 -0.504391 100
-0.951970 4.536486 -0.080909 92
-1.130306 4.646424 0.367110 25
-1.219589 4.399361 -0.413866 101
-1.396479 4.479332 0.017197 78
-0.794258 4.492541 -0.299023 101
-0.962467 4.590261 0.134283 100
-1.053544 4.333975 -0.654806 101
-1.233330 4.451773 -0.204921 100
-1.415417 4.542706 0.236873 84
-1.495139 4.312351 -0.466833 100
-0.797004 4.512401 -0.229721 101
-0.971009 4.634793 0.208409 77
-1.063585 4.378418 -0.487094 100
-1.239694 4.477603 -0.134645 100
-1.413421 4.538930 0.309921 45
-1.505735 4.345220 -0.399101 101
-0.621719 4.330096 -0.909261 101
-0.795769 4.523770 -0.159596 100
-0.960489 4.600518 0.279214 101
-1.062176 4.385911 -0.417836 101
-1.240178 4.491496 -0.063437 100
-1.424062 4.584329 0.387076 4
-1.503235 4.347775 -0.328140 101
-0.633023 4.413990 -0.508056 101
-0.801585 4.561232 -0.089731 101
-1.072220 4.430569 -0.351555 100
-1.242744 4.503677 0.008154 73
-1.510511 4.371147 -0.258565 80
-0.645697 4.507635 -0.307243 100
-0.809689 4.611791 0.125065 100
-0.905494 4.344246 -0.722234 101
-1.088257 4.500072 -0.143071 101
-1.258642 4.564217 0.226590 77
-1.349924 4.350713 -0.474765 101
-1.526441 4.419600 -0.045702 44
-0.650074 4.543515 -0.238934 101
-0.811265 4.625234 0.197635 100
-0.915237 4.394607 -0.493993 100
-1.090723 4.513519 -0.072134 100
-1.267425 4.599016 0.301804 78
-1.354749 4.368803 -0.405808 101
-0.656420 4.593251 -0.027534 101
-0.929565 4.467084 -0.290264 96
-1.105559 4.578207 0.143897 90
-1.374690 4.435684 -0.197070 101
-1.621315 4.258948 -0.457271 45
-0.664690 4.656591 0.044333 101
-0.934509 4.494545 -0.221309 93
-1.110719 4.602890 0.217500 101
-1.188773 4.319162 -0.601708 101
-1.381792 4.461195 -0.126374 100
-1.631425 4.287627 -0.389256 15
-0.775092 4.431847 -0.434008 101
-0.947056 4.558654 -0.009751 69
-1.202762 4.372800 -0.341003 98
-1.381314 4.462248 0.088875 72
-0.780909 4.469438 -0.367441 89
-0.949477 4.574083 0.061970 81
-1.226572 4.462234 -0.276560 101
-1.406007 4.544664 0.163631 98
-1.484848 4.310653 -0.547690 80
-0.631987 4.453657 -0.442645 101
-0.793604 4.555351 -0.018562 100
-1.068665 4.444641 -0.281996 101
-1.243306 4.531857 0.080386 74
-1.496056 4.350161 -0.186373 63
-0.634931 4.479701 -0.375160 101
-0.799668 4.594630 0.052910 100
-1.069754 4.452389 -0.211940 100
-1.243145 4.534192 0.152680 100
-1.328552 4.304327 -0.565082 100
-1.511693 4.397979 -0.116905 100
-0.646590 4.567359 -0.169147 101
-0.811329 4.666172 0.272257 66
-0.914192 4.422367 -0.426875 98
-1.095379 4.562346 -0.000819 89
-1.251868 4.568952 0.372838 101
-1.354664 4.391491 -0.336680 101
-0.648926 4.589297 -0.098707 101
-0.921943 4.463562 -0.360306 82
-1.095436 4.565890 0.071303 100
-1.361188 4.415218 -0.267213 96
-1.613608 4.257643 -0.530845 82
-0.660421 4.676143 0.117066 100
-0.752193 4.334508 -0.803136 101
-0.930858 4.510467 -0.151171 96
-1.110443 4.631797 0.292155 72
-1.197880 4.377560 -0.481821 100
-1.376776 4.468386 -0.054679 101
-0.659882 4.677877 0.189743 80
-0.767982 4.429816 -0.503501 101
-0.936129 4.539781 -0.080909 96
-1.108505 4.627070 0.365273 17
-1.201072 4.392063 -0.412783 101
-1.382012 4.488002 0.017212 93
-0.777890 4.491353 -0.298761 101
-0.945631 4.589676 0.134168 100
-1.038409 4.337626 -0.654806 101
-1.218837 4.459906 -0.205098 100
-1.393676 4.528528 0.235878 91
-1.476206 4.306251 -0.465612 100
-0.779885 4.507282 -0.229321 100
-0.954824 4.638155 0.208409 84
-1.049221 4.385972 -0.487524 100
-1.225110 4.485761 -0.134761 100
-1.402263 4.559097 0.310962 59
-1.495725 4.365529 -0.400484 101
-0.608229 4.343875 -0.911703 101
-0.778615 4.518641 -0.159319 101
-0.943622 4.599931 0.278977 101
-1.046860 4.389592 -0.417836 101
-1.223441 4.491939 -0.063383 89
-1.408051 4.589272 0.387076 35
-1.484178 4.341670 -0.327287 101
-0.618713 4.424045 -0.508962 101
-0.787694 4.575826 -0.089963 100
-1.054899 4.426525 -0.350940 97
-1.228067 4.511847 0.008161 95
-1.500409 4.391510 -0.259458 94
-0.630511 4.513814 -0.307512 100
-0.796296 4.630352 0.125492 100
-0.887948 4.335777 -0.720306 101
-1.073468 4.507733 -0.143194 101
-1.245849 4.580149 0.227164 79
-1.337060 4.363006 -0.475595 101
-1.505835 4.409760 -0.045545 57
-0.632002 4.529932 -0.238102 101
-0.796468 4.635915 0.197972 100
-0.897500 4.386089 -0.492681 100
-1.074036 4.513408 -0.072072 82
-1.250317 4.599560 0.301551 82
-1.341825 4.381124 -0.406515 100
-1.510326 4.425292 0.026116 10
-0.642590 4.611361 -0.027629 101
-0.915566 4.478124 -0.290772 87
-1.085872 4.566479 0.143409 100
-1.353349 4.421349 -0.196222 101
-1.603633 4.257133 -0.456472 68
-0.646226 4.643036 0.044183 100
-0.917215 4.489950 -0.220923 99
-1.095569 4.610627 0.217683 100
-1.171612 4.315634 -0.600643 101
-1.361532 4.450697 -0.125942 97
-1.615044 4.289566 -0.388918 44
-0.758945 4.430602 -0.433624 101
-0.931938 4.565851 -0.009760 75
-1.191669 4.392371 -0.342203 100
-1.371576 4.486165 0.089256 87
-0.764630 4.468206 -0.367118 89
-0.934304 4.581289 0.062023 81
-1.212034 4.470342 -0.276798 100
-1.392471 4.557190 0.163906 96
-1.472352 4.323328 -0.548644 76
-0.618074 4.467665 -0.443820 101
-0.779716 4.569922 -0.018610 100
-1.052225 4.444459 -0.281750 101
-1.226435 4.532309 0.080318 83
-1.487295 4.374276 -0.187182 80
-0.620382 4.489787 -0.375821 101
-0.786314 4.613165 0.053092 97
-1.053286 4.452207 -0.211755 98
-1.232528 4.557800 0.153329 89
-1.314676 4.312735 -0.565580 100
-1.498905 4.410801 -0.117106 100
-0.630096 4.565628 -0.169001 101
-0.798388 4.688659 0.273405 22
-0.901920 4.441141 -0.428381 80
-1.076687 4.554464 -0.000817 83
-1.232790 4.561745 0.371896 101
-1.343977 4.411458 -0.337849 101
-0.632902 4.591534 -0.098707 101
-0.904771 4.458937 -0.359676 84
-1.079492 4.569686 0.071303 98
-1.346931 4.423762 -0.267444 101
-1.590366 4.240929 -0.528066 84
-0.643549 4.674459 0.116967 100
-0.741014 4.360384 -0.807446 101
-0.914313 4.509771 -0.151040 90
-1.095186 4.639531 0.292400 72
-1.180519 4.374034 -0.480976 100
-1.361170 4.473165 -0.054679 101
-1.614803 4.308248 -0.319308 3
-0.646271 4.699950 0.190546 86
-0.751849 4.428550 -0.503056 101
-0.919483 4.539101 -0.080840 96
-1.185734 4.396229 -0.412783 101
-1.365173 4.488972 0.017197 100
-0.762207 4.494041 -0.298761 101
-0.929604 4.592949 0.134168 100
-1.024170 4.345077 -0.655387 101
-1.199101 4.448699 -0.204389 100
-1.387154 4.563944 0.237469 100
-1.459888 4.307609 -0.465205 101
-0.767484 4.529671 -0.230322 100
-0.938628 4.641459 0.208409 73
-1.033904 4.389608 -0.487524 101
-1.206324 4.478428 -0.134413 96
-1.389820 4.575421 0.311743 62
-1.471528 4.344303 -0.398063 101
-0.591529 4.334324 -0.909261 101
-0.763560 4.525264 -0.159458 101
-0.930773 4.618842 0.279926 101
-1.035229 4.408717 -0.419311 101
-1.208848 4.500029 -0.063437 100
-1.390925 4.590326 0.386754 43
-1.467791 4.343026 -0.327002 101
-0.601691 4.414359 -0.507603 101
-0.771088 4.574598 -0.089886 100
-1.040387 4.434055 -0.351247 100
-1.209234 4.504507 0.008140 87
-1.482549 4.389142 -0.259012 100
-0.614226 4.512031 -0.307243 100
-0.777487 4.617329 0.125065 101
-0.875936 4.354330 -0.722876 101
-1.054090 4.495879 -0.142700 100
-1.229867 4.584466 0.227164 79
-1.324140 4.375258 -0.476424 100
-1.498122 4.437724 -0.045780 59
-0.618331 4.547944 -0.238934 101
-0.781599 4.646551 0.198308 100
-0.884527 4.400891 -0.493993 100
-1.057354 4.513237 -0.072010 82
-1.236313 4.611610 0.302056 78
-1.323055 4.374343 -0.405454 101
-1.502534 4.453280 0.026250 40
-0.624845 4.601689 -0.027558 101
-0.895969 4.461729 -0.289502 90
-1.068983 4.566356 0.143287 100
-1.339035 4.429881 -0.196391 101
-1.588735 4.262715 -0.456472 95
-0.631037 4.653198 0.044258 100
-0.902271 4.497052 -0.221116 93
-1.078505 4.610545 0.217500 100
-1.155466 4.315881 -0.600111 101
-1.347093 4.459266 -0.126050 100
-1.605577 4.310135 -0.390271 55
-0.742085 4.425382 -0.432856 101
-0.911989 4.549481 -0.009718 67
-1.169042 4.369550 -0.340104 100
-1.354679 4.487119 0.089180 82
-0.750252 4.478728 -0.367764 89
-0.917425 4.580620 0.061970 87
-1.193234 4.462998 -0.276083 100
-1.371840 4.546743 0.163356 96
-1.450825 4.309653 -0.546259 80
-0.601785 4.465872 -0.443428 101
-0.760962 4.556862 -0.018546 100
-1.036546 4.448142 -0.281750 101
-1.209415 4.532741 0.080249 82
-1.464222 4.356762 -0.186211 100
-0.603461 4.484048 -0.375160 101
-0.766071 4.592241 0.052820 100
-1.038465 4.459790 -0.211940 95
-1.206127 4.523494 0.152031 76
-1.298296 4.313550 -0.565082 100
-1.482048 4.412276 -0.117006 101
-0.614482 4.571789 -0.169147 101
-0.885433 4.440397 -0.428005 98
-1.058763 4.550451 -0.000815 83
-1.214600 4.558369 0.371268 101
-1.326073 4.408542 -0.337264 101
-1.508171 4.492568 0.099267 6
-0.618237 4.605637 -0.098962 101
-0.890536 4.469934 -0.360306 80
-1.066023 4.585166 0.071485 98
-1.339307 4.455274 -0.269060 100
-1.578105 4.253983 -0.528993 94
-0.627504 4.680674 0.117066 100
-0.724259 4.355220 -0.806009 101
-0.899099 4.516905 -0.151171 88
-1.078730 4.643384 0.292400 50
-1.166027 4.382036 -0.481399 100
-1.345302 4.477962 -0.054679 100
-1.596744 4.306463 -0.318754 40
-0.627990 4.690331 0.190064 83
-0.738076 4.442956 -0.504391 100
-0.905703 4.554105 -0.081049 100
-1.173190 4.411961 -0.413866 101
-1.350378 4.497622 0.017212 92
-0.745573 4.492785 -0.298500 101
-0.914050 4.600146 0.134283 100
-1.007822 4.344835 -0.654806 100
-1.186357 4.464520 -0.204921 100
-1.370920 4.568847 0.237469 100
-1.449621 4.327865 -0.466833 100
-0.750701 4.528433 -0.230122 101
-0.921321 4.640851 0.208233 73
-1.017373 4.389387 -0.487094 101
-1.192427 4.490422 -0.134645 81
-1.374670 4.584163 0.312003 72
-1.459849 4.360850 -0.399101 101
-0.578702 4.347908 -0.911703 101
-0.748549 4.527771 -0.159458 101
-0.916227 4.625820 0.280163 101
-1.019706 4.408245 -0.418942 101
-1.193919 4.504013 -0.063437 100
-1.376839 4.598732 0.387076 49
-1.455911 4.355438 -0.327571 101
-0.588620 4.428149 -0.508962 101
-0.754610 4.569238 -0.089731 100
-1.023881 4.429709 -0.350632 100
-1.198387 4.523959 0.008168 100
-1.467986 4.394033 -0.259012 98
-0.598735 4.510087 -0.306974 100
-0.760869 4.611991 0.124851 100
-0.859960 4.349464 -0.721591 101
-1.040975 4.507141 -0.142947 100
-1.216703 4.596244 0.227546 83
-1.305065 4.364379 -0.474765 101
-1.487198 4.454049 -0.045897 70
-0.602196 4.542049 -0.238518 101
-0.763586 4.633344 0.197635 100
-0.869158 4.399899 -0.493556 100
-1.043281 4.520616 -0.072072 82
-1.219992 4.611825 0.301804 73
-1.311965 4.390159 -0.406515 100
-1.495355 4.481004 0.026384 55
-0.611682 4.619597 -0.027653 101
-0.882715 4.472508 -0.290010 100
-1.056530 4.581563 0.143653 100
-1.326625 4.441955 -0.196730 100
-1.573213 4.264226 -0.456073 100
-0.615603 4.655265 0.044258 101
-0.883488 4.480420 -0.220153 95
-1.065004 4.621883 0.217867 100
-1.143172 4.327355 -0.601176 101
-1.326581 4.444551 -0.125509 100
-1.584381 4.296738 -0.388580 59
-0.730633 4.447463 -0.434776 100
-0.899990 4.568179 -0.009751 76
-1.155563 4.377259 -0.340403 100
-1.340935 4.495419 0.089256 80
-0.734750 4.477257 -0.367441 89
-0.903775 4.591486 0.062076 89
-1.179446 4.470792 -0.276321 100
-1.355613 4.547436 0.163218 100
-1.440290 4.325745 -0.547690 80
-0.586453 4.463896 -0.443037 101
-0.745847 4.559361 -0.018546 100
-1.022683 4.455446 -0.281996 101
-1.188267 4.513521 0.079839 80
-1.451027 4.365386 -0.186373 100
-0.589107 4.489977 -0.375490 101
-0.753419 4.610546 0.053001 100
-1.021883 4.455420 -0.211570 95
-1.198241 4.554533 0.152939 81
-1.281722 4.310223 -0.564086 100
-1.463626 4.405782 -0.116704 100
-0.598798 4.569839 -0.169001 101
-0.874532 4.462848 -0.429887 93
-1.045455 4.561735 -0.000817 81
-1.203533 4.577798 0.372524 101
-1.311446 4.412915 -0.337264 101
-1.485704 4.474772 0.098764 69
-0.599329 4.579905 -0.098366 101
-0.873410 4.461123 -0.359360 90
-1.045455 4.565284 0.071121 100
-1.314294 4.425238 -0.266982 100
-1.501920 4.526171 0.173199 0
-1.562620 4.255464 -0.528529 100
-0.612497 4.686694 0.117165 100
-0.711078 4.365366 -0.807446 101
-0.885651 4.527709 -0.151434 88
-1.061545 4.639153 0.291910 50
-1.152499 4.389726 -0.481821 100
-1.329307 4.478565 -0.054632 101
-1.587954 4.326718 -0.319862 52
-0.612950 4.696351 0.190225 86
-0.723977 4.449303 -0.504836 100
-0.889829 4.553158 -0.080979 100
-1.151476 4.388854 -0.411338 101
-1.334318 4.498240 0.017197 100
-1.595604 4.349838 -0.250117 14
-0.730030 4.491293 -0.298238 101
-0.899556 4.607076 0.134397 100
-0.992527 4.344295 -0.654225 101
-1.169519 4.460699 -0.204567 100
-1.354626 4.569538 0.237270 101
-1.432758 4.325093 -0.466019 101
-0.735040 4.526955 -0.229921 100
-0.908222 4.655648 0.208761 69
-1.003697 4.396613 -0.487524 100
-1.173476 4.478881 -0.134182 100
-1.360595 4.592524 0.312263 70
-1.442874 4.358101 -0.398409 101
-0.562516 4.342134 -0.910075 101
-0.732101 4.526410 -0.159319 101
-0.898550 4.621151 0.279689 101
-1.004312 4.411777 -0.418942 101
-1.171111 4.481065 -0.063056 100
-1.358518 4.595864 0.386433 51
-1.440699 4.360493 -0.327571 101
-0.572139 4.422294 -0.508056 101
-0.738656 4.571844 -0.089731 100
-1.009297 4.437145 -0.350940 100
-1.179556 4.516504 0.008147 73
-1.446377 4.380169 -0.257895 100
-0.582988 4.512149 -0.306974 100
-0.743491 4.606724 0.124637 100
-0.845524 4.356315 -0.722234 101
-1.018147 4.479558 -0.141959 101
-1.199642 4.596597 0.227355 86
-1.285317 4.353645 -0.473107 101
-1.466627 4.444020 -0.045741 66
-0.586848 4.548086 -0.238726 101
-0.750589 4.655709 0.198476 100
-0.856065 4.414616 -0.494868 100
-1.028381 4.528131 -0.072134 93
-1.204894 4.619919 0.302056 68
-1.292122 4.379426 -0.405101 101
-1.473440 4.467203 0.026272 59
-0.595041 4.617737 -0.027629 101
-0.867857 4.479482 -0.290264 90
-1.037877 4.573526 0.143287 100
-1.309981 4.442726 -0.196561 100
-1.558318 4.269691 -0.456073 100
-0.599349 4.657385 0.044258 101
-0.871640 4.503089 -0.221116 97
-1.044446 4.606088 0.216949 100
-1.129059 4.335155 -0.601708 101
-1.315579 4.464496 -0.125942 100
-1.569373 4.302242 -0.388580 66
-0.714473 4.446055 -0.434392 101
-0.883279 4.567365 -0.009743 76
-1.143291 4.392847 -0.341303 100
-1.325235 4.500072 0.089256 84
-1.582694 4.341043 -0.178312 0
-0.718485 4.475858 -0.367118 89
-0.887742 4.594612 0.062076 80
-1.164838 4.478746 -0.276560 100
-1.339731 4.552141 0.163218 100
-1.427664 4.338291 -0.548644 78
-0.571877 4.473813 -0.443820 101
-0.731823 4.573785 -0.018594 100
-1.004486 4.447306 -0.281257 101
-1.173510 4.521513 0.079907 80
-1.439523 4.381816 -0.186858 100
-0.574440 4.499915 -0.376151 101
-0.736689 4.609198 0.052956 100
-1.010723 4.478448 -0.212495 100
-1.183339 4.562558 0.153069 81
-1.273376 4.337520 -0.567073 100
-1.451981 4.422262 -0.117006 101
-0.584865 4.587762 -0.169587 101
-0.859700 4.469784 -0.430263 85
-1.025125 4.545846 -0.000813 100
-1.184545 4.570391 0.371582 101
-1.297158 4.421294 -0.337556 101
-1.472569 4.487530 0.098932 61
-0.584854 4.593870 -0.098622 101
-0.860090 4.475892 -0.360306 88
-1.032150 4.580611 0.071303 89
-1.301086 4.437462 -0.267444 100
-1.472408 4.489604 0.171602 27
-1.551825 4.272096 -0.529919 101
-0.594620 4.676903 0.116868 100
-0.694597 4.360049 -0.806009 101
-0.869840 4.530773 -0.151434 95
-1.044468 4.638935 0.291665 86
-1.133182 4.378319 -0.480132 100
-1.310291 4.471663 -0.054491 101
-1.572841 4.332235 -0.319862 60
-0.598063 4.710356 0.190706 73
-0.706568 4.440025 -0.503501 101
-0.871669 4.544453 -0.080770 96
-1.137147 4.396703 -0.411699 101
-1.315236 4.491354 0.017153 100
-1.581772 4.359136 -0.250333 56
-0.717481 4.513524 -0.299546 101
-0.881964 4.602334 0.134168 100
-0.975621 4.340010 -0.653063 101
-1.155941 4.472492 -0.204921 100
-1.338667 4.574238 0.237270 100
-1.415176 4.322505 -0.465205 100
-0.719233 4.529493 -0.229921 101
-0.890463 4.650940 0.208409 62
-0.989216 4.403970 -0.487954 101
-1.161834 4.498435 -0.134645 87
-1.340074 4.581921 0.311222 69
-1.427653 4.363111 -0.398409 101
-0.547323 4.344075 -0.910075 101
-0.718761 4.544737 -0.159874 101
-0.884625 4.636033 0.280401 101
-0.988873 4.415264 -0.418942 101
-1.159420 4.500628 -0.063274 101
-1.343550 4.604415 0.386754 56
-1.424198 4.361713 -0.327287 101
-0.557175 4.428209 -0.508509 101
-0.723920 4.582299 -0.089886 100
-0.992040 4.432862 -0.350325 101
-1.162765 4.516725 0.008140 89
-1.438493 4.407978 -0.259235 100
-0.566729 4.510198 -0.306704 100
-0.729268 4.621142 0.124958 101
-0.827350 4.343729 -0.719664 101
-1.007731 4.506497 -0.142700 101
-1.180596 4.589150 0.226781 85
-1.270104 4.358108 -0.473107 101
-1.437455 4.407286 -0.045311 76
-0.571969 4.558033 -0.239142 101
-0.734338 4.658299 0.198476 100
-0.839168 4.409765 -0.493993 100
-1.012573 4.531692 -0.072134 82
-1.189759 4.627962 0.302309 78
-1.279060 4.391559 -0.405808 101
-1.452883 4.457105 0.026183 62
-0.577942 4.611846 -0.027582 101
-0.853724 4.490324 -0.290772 91
-1.020181 4.569314 0.143042 100
-1.290015 4.431918 -0.195882 100
-1.542070 4.271356 -0.455673 101
-0.582623 4.655476 0.044220 100
-0.857437 4.513949 -0.221501 82
-1.026652 4.601899 0.216582 100
-1.113949 4.339063 -0.601708 101
-1.297783 4.461374 -0.125725 100
-1.548963 4.292688 -0.387227 71
-0.697137 4.436716 -0.433240 101
-0.868120 4.574342 -0.009751 71
-1.129974 4.404527 -0.341903 100
-1.308445 4.500818 0.089180 75
-1.581133 4.384127 -0.179854 17
-0.706003 4.498024 -0.368733 89
-0.872500 4.601602 0.062129 86
-1.145286 4.467299 -0.275605 100
-1.320543 4.545256 0.162806 100
-1.402739 4.313016 -0.544827 80
-0.556350 4.475770 -0.443820 101
-0.713475 4.560490 -0.018530 100
-0.989914 4.454661 -0.281503 101
-1.158805 4.529432 0.079975 88
-1.421841 4.379182 -0.186534 100
-0.558344 4.497923 -0.375821 101
-0.717616 4.591966 0.052729 100
-0.993458 4.474124 -0.212125 100
-1.166523 4.562760 0.152939 79
-1.251702 4.319036 -0.564086 100
-1.434171 4.419662 -0.116805 101
-0.567493 4.577859 -0.169147 101
-0.837564 4.437517 -0.426875 94
-1.009371 4.549370 -0.000813 82
-1.175614 4.601512 0.373779 101
-1.272955 4.395106 -0.335218 101
-1.457015 4.492605 0.098932 62
-0.570423 4.607773 -0.098877 101
-0.844592 4.478842 -0.360306 96
-1.011961 4.564632 0.070999 87
-1.285718 4.441939 -0.267444 100
-1.459324 4.502280 0.171893 37
-1.535685 4.273702 -0.529456 101
-0.579423 4.686869 0.117066 100
-0.679514 4.362425 -0.806009 101
-0.851945 4.521968 -0.151040 85
-1.027554 4.638621 0.291420 100
-1.119016 4.386066 -0.480554 100
-1.295930 4.480010 -0.054538 101
-1.556499 4.333893 -0.319585 66
-0.580803 4.704462 0.190385 81
-0.690609 4.438513 -0.503056 101
-0.854480 4.539577 -0.080630 100
-1.122930 4.404467 -0.412060 101
-1.298596 4.492030 0.017138 100
-1.566699 4.364576 -0.250333 74
-0.700052 4.504142 -0.298761 101
-0.865328 4.601423 0.134054 100
-0.963193 4.354946 -0.654806 101
-1.137531 4.464839 -0.204389 100
-1.321756 4.574996 0.237072 101
-1.403917 4.338723 -0.466426 101
-0.702376 4.524052 -0.229521 101
-0.873673 4.650057 0.208233 69
-0.970583 4.391824 -0.486234 100
-1.147293 4.506291 -0.134761 100
-1.325365 4.590352 0.311482 64
-1.412591 4.368011 -0.398409 101
-0.532156 4.345959 -0.910075 101
-0.702282 4.543268 -0.159735 100
-0.866967 4.631243 0.279926 100
-0.972598 4.414799 -0.418573 101
-1.145671 4.512400 -0.063383 101
-1.319745 4.582258 0.384504 59
-1.411415 4.374252 -0.327856 101
-0.542679 4.438017 -0.509414 101
-0.707920 4.584798 -0.089886 100
-0.978275 4.444088 -0.350940 91
-1.147975 4.524634 0.008147 71
-1.419420 4.401569 -0.258565 100
-0.551949 4.520072 -0.307243 100
-0.714352 4.631563 0.125171 100
-0.815809 4.365994 -0.722876 101
-0.991994 4.509987 -0.142700 101
-1.169479 4.612608 0.227737 81
-1.258183 4.373985 -0.474351 101
-1.429424 4.435118 -0.045545 82
-0.554604 4.548106 -0.238518 101
-0.718073 4.660835 0.198476 95
-0.823770 4.412667 -0.493993 100
-0.992456 4.515667 -0.071824 100
-1.171636 4.624347 0.301804 86
-1.261521 4.388339 -0.405101 101
-1.432411 4.446920 0.026093 64
-0.561840 4.613836 -0.027582 101
-0.839508 4.501125 -0.291280 98
-1.007655 4.588467 0.143531 100
-1.275640 4.440235 -0.196052 101
-1.456714 4.524950 0.245801 40
-1.529827 4.284209 -0.456472 101
-0.567817 4.669394 0.044333 101
-0.836552 4.489420 -0.220153 100
-1.014865 4.624969 0.217500 101
-1.096851 4.335238 -0.600643 101
-1.284409 4.473563 -0.125942 100
-1.533970 4.298069 -0.387227 80
-0.685876 4.466670 -0.435928 101
-0.854344 4.589142 -0.009777 71
-1.109704 4.389110 -0.340403 100
-1.297138 4.520735 0.089484 78
-1.555077 4.359501 -0.178620 54
-0.689693 4.496520 -0.368410 89
-0.854969 4.596755 0.062023 81
-1.130663 4.475141 -0.275844 100
-1.306873 4.557524 0.163081 100
-1.388891 4.321668 -0.545304 80
-1.568519 4.399497 -0.108441 1
-0.541678 4.485590 -0.444604 101
-0.699365 4.574814 -0.018578 100
-0.975211 4.461990 -0.281750 101
-1.143965 4.537327 0.080044 78
-1.406546 4.384119 -0.186534 100
-0.542163 4.495887 -0.375490 101
-0.702791 4.602351 0.052820 100
-0.975277 4.465854 -0.211570 100
-1.148635 4.559051 0.152680 83
-1.239892 4.334826 -0.565580 100
-1.423619 4.439872 -0.117207 101
-0.551988 4.583781 -0.169294 100
-0.824244 4.452161 -0.428005 95
-0.993485 4.552866 -0.000813 100
-1.151756 4.574652 0.371268 101
-1.265280 4.426373 -0.337264 101
-1.446205 4.512897 0.099267 79
-0.553858 4.605766 -0.098792 101
-0.828227 4.477842 -0.359991 82
-0.996873 4.572045 0.071060 92
-1.263624 4.423362 -0.266058 101
-1.444819 4.511153 0.172038 44
-1.524749 4.290268 -0.530845 101
-0.563059 4.688863 0.117066 100
-0.663690 4.360880 -0.805291 101
-0.838334 4.536708 -0.151434 83
-1.009656 4.634378 0.290930 101
-1.103699 4.389946 -0.480554 100
-1.281381 4.488352 -0.054585 100
-1.534683 4.320499 -0.318200 76
-0.564377 4.706460 0.190385 44
-0.674514 4.436966 -0.502610 101
-0.840807 4.554331 -0.080840 100
-1.108520 4.412223 -0.412422 101
-1.279616 4.484996 0.017094 100
-1.531410 4.313558 -0.247098 51
-0.686723 4.522343 -0.299808 101
-0.851437 4.616211 0.134397 98
-0.947986 4.358282 -0.654806 101
-1.126804 4.488162 -0.205276 98
-1.307969 4.587265 0.237469 100
-1.385128 4.332227 -0.465205 101
-0.687179 4.530426 -0.229721 100
-0.854539 4.637359 0.207530 65
-0.958625 4.410730 -0.487954 101
-1.129611 4.502512 -0.134529 100
-1.311521 4.602628 0.312003 66
-1.397336 4.372915 -0.398409 101
-0.686017 4.537667 -0.159458 101
-0.849439 4.622311 0.279214 87
-0.954576 4.402430 -0.417098 101
-1.129730 4.512295 -0.063328 101
-1.308905 4.601949 0.385790 74
-1.394476 4.371306 -0.327287 101
-0.527020 4.431900 -0.508509 101
-0.690921 4.575257 -0.089653 100
-0.962688 4.443409 -0.350632 100
-1.131994 4.524535 0.008140 84
-1.404816 4.406252 -0.258565 100
-0.535074 4.506025 -0.306166 100
-0.697200 4.622045 0.124851 100
-0.799901 4.360909 -0.721591 101
-0.974495 4.501529 -0.142329 100
-1.147393 4.589328 0.226399 92
-1.240410 4.366652 -0.473107 101
-1.414709 4.439834 -0.045545 100
-0.540460 4.557854 -0.238934 101
-0.704399 4.675046 0.198981 100
-0.809849 4.419285 -0.494431 100
-0.981704 4.538479 -0.072134 93
-1.155327 4.624334 0.301551 82
-1.245874 4.388665 -0.404747 101
-1.418870 4.455458 0.026116 82
-0.546537 4.615674 -0.027582 101
-0.823858 4.499958 -0.291026 93
-0.992434 4.591784 0.143531 97
-1.261999 4.448285 -0.196222 100
-1.445335 4.541175 0.246420 100
-1.519590 4.300517 -0.457670 101
-0.552799 4.675223 0.044371 100
-0.827411 4.523611 -0.221694 82
-1.001209 4.636121 0.217867 101
-1.085348 4.350391 -0.602241 101
-1.269567 4.477798 -0.125942 100
-1.451730 4.563896 0.321458 1
-1.523690 4.314406 -0.388242 95
-0.669286 4.457108 -0.434776 100
-0.837683 4.584080 -0.009760 68
-1.099968 4.412117 -0.341903 100
-1.281049 4.521163 0.089408 86
-1.551255 4.394787 -0.179854 73
-0.673004 4.486954 -0.367441 89
-0.839721 4.599565 0.062023 83
-1.118713 4.490489 -0.276560 101
-1.287396 4.546447 0.162531 100
-1.373349 4.322464 -0.544827 80
-1.557912 4.415987 -0.108719 72
-0.524016 4.463639 -0.442253 101
-0.683599 4.573153 -0.018562 100
-0.960409 4.465199 -0.281750 101
-1.126983 4.533333 0.079907 100
-1.291462 4.569506 -1.689184 3
-1.387167 4.373520 -0.185887 101
-0.528179 4.505579 -0.376151 101
-0.689297 4.616524 0.052956 100
-0.962141 4.476876 -0.211940 100
-1.135438 4.570594 0.152939 83
-1.223353 4.331275 -0.564584 100
-1.405263 4.433134 -0.116905 100
-0.538179 4.597497 -0.169734 101
-0.811611 4.466624 -0.429134 89
-0.978382 4.556135 -0.000813 87
-1.248428 4.422865 -0.336680 101
-1.426401 4.502418 0.098932 79
-0.538117 4.603605 -0.098707 101
-0.813374 4.480564 -0.359991 92
-0.986740 4.598789 0.071425 93
-1.251117 4.435215 -0.266520 100
-1.427438 4.508297 0.171747 52
-1.511832 4.299049 -0.531309 101
-0.548898 4.702620 0.117363 100
-0.650962 4.374734 -0.807446 101
-0.824712 4.547330 -0.151696 94
-0.994282 4.637701 0.290930 101
-1.088179 4.389720 -0.480132 100
-1.266491 4.492577 -0.054585 101
-1.520348 4.325564 -0.318200 80
-0.547842 4.700366 0.190064 44
-0.660965 4.447042 -0.503501 100
-0.827839 4.568900 -0.081049 90
-1.093882 4.415875 -0.412422 101
-1.262567 4.481514 0.017065 100
-1.519745 4.326149 -0.247530 54
-0.669378 4.508802 -0.298761 101
-0.833988 4.607206 0.134054 97
-0.931043 4.349791 -0.653063 100
-1.107114 4.472479 -0.204389 100
-1.287336 4.572350 0.236475 101
-1.369555 4.333002 -0.464798 101
-0.673910 4.544535 -0.230322 100
-0.839868 4.644099 0.207705 70
-0.943162 4.409996 -0.487524 100
-1.116594 4.513996 -0.134761 100
-1.296251 4.606952 0.312003 67
-1.379226 4.366125 -0.397371 101
-0.671329 4.547945 -0.159735 101
-0.838951 4.656687 0.281112 31
-0.940022 4.409633 -0.417467 101
-1.113002 4.512331 -0.063274 100
-1.291744 4.602654 0.385468 99
-1.376799 4.368540 -0.326717 101
-0.509718 4.417921 -0.506698 101
-0.676106 4.585555 -0.089808 100
-0.947164 4.446744 -0.350632 99
-1.120015 4.543996 0.008168 79
-1.389420 4.411131 -0.258565 98
-0.520710 4.519760 -0.306974 100
-0.681059 4.624451 0.124851 100
-0.782575 4.352018 -0.719664 101
-0.960438 4.512725 -0.142576 101
-1.134230 4.604944 0.226972 90
-1.219789 4.351802 -0.471033 101
-1.399199 4.444746 -0.045545 97
-0.524548 4.559712 -0.238934 101
-0.686914 4.669568 0.198644 100
-0.794419 4.422085 -0.494431 100
-0.965025 4.537966 -0.072072 93
-1.138226 4.624462 0.301299 69
-1.232698 4.400660 -0.405454 101
-1.414115 4.494722 0.026317 87
-0.532711 4.637421 -0.027700 101
-0.808152 4.502805 -0.291026 87
-0.975575 4.591308 0.143409 90
-1.246470 4.452662 -0.196222 100
-1.430679 4.550001 0.246627 99
-1.505888 4.309550 -0.458069 101
-0.536943 4.681097 0.044409 100
-0.809511 4.514672 -0.221116 91
-0.980052 4.616133 0.216766 101
-1.069220 4.350301 -0.601708 101
-1.250708 4.470647 -0.125617 100
-1.441784 4.587969 0.322798 52
-1.512573 4.330983 -0.389256 101
-0.650274 4.435778 -0.432472 101
-0.819576 4.575162 -0.009735 61
-1.083623 4.412052 -0.341603 100
-1.259891 4.506345 0.089027 82
-1.534603 4.396397 -0.179700 92
-0.657935 4.493218 -0.367764 89
-0.822976 4.598527 0.061970 76
-1.101147 4.486607 -0.276083 100
-1.272614 4.554758 0.162668 100
-1.354703 4.315858 -0.543396 80
-1.539873 4.413841 -0.108534 100
-0.510266 4.481258 -0.443820 101
-0.669398 4.587380 -0.018610 100
-0.944850 4.468518 -0.281750 101
-1.109282 4.529462 0.079770 80
-1.264401 4.534045 -1.674437 30
-1.373120 4.382139 -0.186049 100
-0.512937 4.511352 -0.376482 101
-0.671486 4.607022 0.052820 100
-0.944894 4.472381 -0.211570 95
-1.116664 4.562871 0.152550 76
-1.207198 4.331686 -0.564086 100
-1.388622 4.434184 -0.116805 101
-0.522170 4.599343 -0.169734 101
-0.792565 4.449820 -0.427252 100
-0.966646 4.579082 -0.000817 95
-1.233023 4.427185 -0.336680 101
-1.402357 4.480640 0.098346 83
-0.521642 4.601477 -0.098622 101
-0.794981 4.467664 -0.358730 90
-0.964126 4.570888 0.070939 87
-1.231390 4.424154 -0.265596 101
-1.404579 4.490348 0.170876 49
-1.489031 4.281768 -0.528529 101
-0.532083 4.700528 0.117264 100
-0.634606 4.369184 -0.806009 101
-0.806787 4.538364 -0.151303 81
-0.982257 4.660665 0.292155 80
-1.074786 4.401208 -0.480976 100
-1.250852 4.496956 -0.054585 100
-1.509219 4.342135 -0.319031 98
-0.533734 4.722101 0.190867 14
-0.647206 4.461117 -0.504836 100
-0.809844 4.559939 -0.080840 96
-1.077572 4.415783 -0.412060 101
-1.255542 4.516709 0.017182 100
-1.511241 4.350275 -0.248608 68
-0.653123 4.507153 -0.298500 101
-0.820756 4.625826 0.134512 100
-0.918356 4.364621 -0.654806 101
-1.087768 4.460773 -0.203680 100
-1.271429 4.576798 0.236475 101
-1.354480 4.337738 -0.464798 101
-1.536290 4.424739 -0.036788 21
-0.656963 4.538942 -0.229921 100
-0.827904 4.670599 0.208761 75
-0.927007 4.409356 -0.487094 101
-1.099002 4.510081 -0.134529 100
-1.278093 4.603738 0.311482 70
-1.368788 4.386110 -0.398755 101
-0.654880 4.546304 -0.159596 101
-0.926257 4.420684 -0.418205 101
-1.097244 4.516188 -0.063274 101
-1.282053 4.630190 0.387397 100
-1.360355 4.369510 -0.326433 101
-0.492968 4.407824 -0.505339 101
-0.660664 4.591846 -0.089886 100
-0.930819 4.446120 -0.350325 100
-1.100372 4.532330 0.008140 69
-1.374013 4.415955 -0.258565 101
-0.505816 4.529482 -0.307512 100
-0.666619 4.638674 0.125171 100
-0.766694 4.350835 -0.719021 101
-0.945498 4.519963 -0.142700 101
-1.118149 4.608875 0.226972 85
-1.209893 4.375206 -0.473107 101
-1.380113 4.438145 -0.045428 100
-0.509514 4.569456 -0.239350 101
-0.669475 4.664025 0.198308 100
-0.776911 4.413084 -0.493118 100
-0.948361 4.537392 -0.072010 85
-1.123017 4.632286 0.301551 85
-1.210962 4.381894 -0.403333 101
-1.401978 4.511091 0.026384 99
-0.514307 4.619376 -0.027582 101
-0.790355 4.493804 -0.290264 92
-0.959542 4.594685 0.143409 100
-1.230920 4.456985 -0.196222 100
-1.411233 4.543522 0.246007 91
-1.490835 4.314780 -0.458069 101
-0.519274 4.671016 0.044296 101
-0.793055 4.513535 -0.220923 72
-0.965565 4.627349 0.217133 101
-1.048431 4.330888 -0.598514 101
-1.235095 4.474986 -0.125617 100
-1.417477 4.566293 0.320923 61
-1.498747 4.340004 -0.389594 101
-0.635914 4.445904 -0.433240 101
-0.805675 4.589814 -0.009760 75
-1.065402 4.404177 -0.340703 101
-1.240963 4.499150 0.088799 89
-1.521855 4.409283 -0.180008 98
-0.643939 4.507328 -0.368733 89
-0.805538 4.593493 0.061864 87
-1.086418 4.494304 -0.276321 100
-1.262019 4.578442 0.163356 100
-1.343158 4.331941 -0.544827 80
-1.520544 4.407848 -0.108255 100
-0.494184 4.479055 -0.443428 101
-0.651126 4.573849 -0.018546 100
-0.926809 4.460062 -0.281011 101
-1.096278 4.544970 0.079975 100
-1.245568 4.527530 -1.670416 37
-1.360178 4.394542 -0.186373 101
-0.495003 4.493303 -0.374829 101
-0.654837 4.605378 0.052774 100
-0.930089 4.479564 -0.211755 90
-1.101667 4.570627 0.152680 94
-1.192070 4.335874 -0.564086 100
-1.374317 4.442824 -0.116905 100
-0.505238 4.593191 -0.169441 100
-0.779766 4.468251 -0.428757 89
-0.949843 4.578512 -0.000816 81
-1.216505 4.427615 -0.336387 101
-1.389070 4.493150 0.098513 90
-0.506886 4.615195 -0.098877 101
-0.778696 4.466484 -0.358415 90
-0.948976 4.578141 0.070999 87
-1.220169 4.443829 -0.266520 100
-1.388897 4.495223 0.170876 50
-1.479243 4.301969 -0.530382 101
-0.514364 4.690432 0.116967 100
-0.619351 4.371373 -0.806009 101
-0.790254 4.537214 -0.151171 92
-0.964363 4.656247 0.291665 64
-1.055696 4.389463 -0.479287 100
-1.234089 4.497438 -0.054538 100
-1.426700 4.620285 0.399254 41
-1.496647 4.354925 -0.319585 101
-0.627731 4.435797 -0.501720 100
-0.795293 4.570618 -0.080979 96
-1.062151 4.419518 -0.412060 101
-1.238710 4.517207 0.017168 100
-1.502535 4.374411 -0.249686 80
-0.638504 4.517309 -0.299023 101
-0.801865 4.612906 0.134054 100
-0.902314 4.363924 -0.654225 100
-1.074990 4.476199 -0.204212 101
-1.258613 4.592768 0.237072 100
-1.336985 4.334835 -0.463984 101
-1.515640 4.414942 -0.036662 57
-0.641115 4.541208 -0.229921 100
-0.808176 4.653775 0.207881 75
-0.910001 4.404776 -0.486234 100
-1.081386 4.506114 -0.134298 98
-1.265178 4.619720 0.312263 72
-1.344079 4.360395 -0.395988 101
-1.536982 4.479522 0.035543 1
-0.639006 4.548562 -0.159596 101
-0.910018 4.419989 -0.417836 101
-1.084265 4.531660 -0.063437 86
-1.259580 4.611560 0.385468 101
-1.346267 4.378046 -0.326717 101
-0.478435 4.417420 -0.506245 101
-0.645188 4.598084 -0.089963 101
-0.915294 4.449342 -0.350325 91
-1.084545 4.536143 0.008140 84
-1.359764 4.424541 -0.258788 100
-0.490431 4.535188 -0.307781 100
-0.650978 4.644932 0.125278 100
-0.752845 4.361266 -0.720306 101
-0.931325 4.531069 -0.142947 101
-1.102982 4.616636 0.227164 86
-1.197754 4.390917 -0.474351 100
-1.371658 4.465877 -0.045663 99
-0.492703 4.563263 -0.238934 101
-0.650420 4.646544 0.197467 92
-0.762853 4.423605 -0.493993 100
-0.930907 4.532839 -0.071886 96
-1.105914 4.632295 0.301299 77
-1.196707 4.389938 -0.403687 101
-1.382702 4.504485 0.026317 98
-0.499465 4.633073 -0.027653 101
-0.773986 4.492601 -0.290010 88
-0.944302 4.601923 0.143531 97
-1.214304 4.457399 -0.196052 100
-1.388335 4.525507 0.244768 95
-1.474478 4.316191 -0.457670 101
-0.503822 4.680754 0.044371 100
-0.777295 4.516276 -0.220923 99
-0.951814 4.642435 0.217683 100
-1.036065 4.346090 -0.600111 101
-1.220517 4.483128 -0.125725 100
-1.406209 4.586476 0.321994 69
-1.488740 4.360297 -0.390947 101
-0.623691 4.471756 -0.435544 101
-0.788971 4.588656 -0.009751 80
-1.051871 4.415629 -0.341303 100
-1.227350 4.511172 0.088951 93
-1.512909 4.433483 -0.180780 100
-0.626001 4.493753 -0.367441 89
-0.791530 4.608103 0.062023 83
-1.071648 4.501953 -0.276560 100
-1.243932 4.575104 0.163081 94
-1.332681 4.351792 -0.546736 80
-1.507730 4.420698 -0.108441 100
-0.478546 4.480753 -0.443428 101
-0.636256 4.584018 -0.018578 100
-0.911235 4.463270 -0.281011 101
-1.077634 4.537096 0.079770 86
-1.234691 4.550036 -1.677119 40
-1.341325 4.387796 -0.185887 100
-0.480584 4.506895 -0.375821 101
-0.640405 4.619521 0.052910 100
-0.912051 4.471038 -0.211200 98
-1.084782 4.570555 0.152550 81
-1.179005 4.347670 -0.565082 100
-1.355295 4.436122 -0.116604 101
-0.490472 4.606851 -0.169880 101
-0.764164 4.470946 -0.428757 94
-0.933057 4.577880 -0.000815 86
-1.201042 4.431835 -0.336387 101
-1.380385 4.520920 0.099016 100
-0.489505 4.605006 -0.098622 101
-0.763772 4.473105 -0.358730 88
-0.935384 4.593184 0.071182 86
-1.205693 4.451915 -0.266751 101
-1.375530 4.507690 0.171167 60
-1.462939 4.303344 -0.529919 101
-0.497566 4.688222 0.116868 100
-0.604627 4.377406 -0.806728 101
-0.774411 4.539945 -0.151171 88
-0.948104 4.659585 0.291665 49
-1.044951 4.412475 -0.481399 100
-1.216292 4.493997 -0.054445 100
-1.400097 4.590919 0.396291 46
-1.486571 4.375236 -0.320693 101
-0.612786 4.441899 -0.502165 100
-0.779334 4.573367 -0.080979 100
-1.046718 4.423198 -0.412060 101
-1.221890 4.517642 0.017153 100
-1.487256 4.379629 -0.249686 97
-0.622731 4.519510 -0.299023 101
-0.789113 4.635385 0.134626 100
-0.889439 4.378683 -0.655968 100
-1.060278 4.483813 -0.204389 100
-1.241531 4.593277 0.236873 101
-1.320686 4.335669 -0.463577 101
-1.496363 4.408843 -0.036568 71
-0.625804 4.547376 -0.230122 100
-0.791257 4.652628 0.207705 72
-0.893829 4.404028 -0.485804 101
-1.063811 4.502079 -0.134066 98
-1.241758 4.597135 0.310442 66
-1.333492 4.380310 -0.397371 101
-1.514911 4.465920 0.035393 51
-0.622616 4.546800 -0.159458 101
-0.893826 4.419229 -0.417467 101
-1.065722 4.523730 -0.063274 100
-1.243509 4.615920 0.385468 101
-1.326371 4.367438 -0.325579 101
-0.463446 4.423014 -0.506698 101
-0.626987 4.584455 -0.089653 100
-0.899777 4.452506 -0.350325 100
-1.068725 4.539896 0.008140 79
-1.336212 4.402503 -0.257225 100
-0.473359 4.524964 -0.306974 100
-0.634768 4.647175 0.125278 100
-0.740257 4.379437 -0.722876 101
-0.909972 4.506857 -0.142082 101
-1.085039 4.612678 0.226781 70
-1.177259 4.375860 -0.472277 101
-1.349103 4.447669 -0.045428 100
-0.475937 4.557010 -0.238518 101
-0.638513 4.680466 0.198813 100
-0.748726 4.434083 -0.494868 100
-0.914283 4.532141 -0.071824 93
-1.090646 4.640015 0.301551 92
-1.185509 4.409481 -0.405101 100
-1.363483 4.497802 0.026250 100
-0.482857 4.630812 -0.027629 101
-0.758282 4.495278 -0.290010 96
-0.925054 4.589517 0.143042 92
-1.199758 4.465475 -0.196222 100
-1.377145 4.545623 0.245594 100
-1.461933 4.328859 -0.458469 101
-0.487449 4.682487 0.044371 100
-0.760832 4.515027 -0.220731 93
-0.933995 4.637901 0.217316 100
-1.020859 4.349687 -0.600111 101
-1.202757 4.479645 -0.125509 100
-1.386691 4.579906 0.321190 68
-1.469658 4.354148 -0.389933 101
-0.606963 4.466022 -0.434776 101
-0.772905 4.591390 -0.009751 65
-1.036409 4.419284 -0.341303 100
-1.211553 4.515440 0.088951 100
-1.370577 4.529434 -1.360708 1
-1.487161 4.408452 -0.179546 100
-0.611865 4.507770 -0.368410 89
-0.776047 4.614791 0.062076 93
-1.051316 4.486242 -0.275367 101
-1.227898 4.579433 0.163081 81
-1.318578 4.360236 -0.547213 74
-1.488403 4.414585 -0.108162 101
-0.463627 4.490325 -0.444212 101
-0.621228 4.594151 -0.018610 100
-0.895557 4.466442 -0.281011 101
-1.062607 4.544746 0.079839 100
-1.215784 4.543422 -1.673097 34
-1.329375 4.403958 -0.186373 101
-0.466378 4.524417 -0.377143 101
-0.625774 4.633635 0.053046 100
-0.898688 4.485969 -0.211755 100
-1.072353 4.589911 0.153069 83
-1.162694 4.347951 -0.564584 100
-1.343163 4.452342 -0.116905 100
-0.474676 4.612524 -0.170027 101
-0.747778 4.469678 -0.428381 82
-0.916166 4.577211 -0.000815 99
-1.180299 4.416761 -0.334926 101
-1.359859 4.510431 0.098681 100
-0.474111 4.614657 -0.098792 101
-0.749337 4.483632 -0.359360 86
-0.916074 4.580760 0.070939 85
-1.185895 4.440699 -0.265827 101
-1.372341 4.554605 0.172764 77
-1.446517 4.304701 -0.529456 101
-0.481457 4.693923 0.116967 100
-0.589203 4.379508 -0.806728 101
-0.759731 4.550531 -0.151434 81
-0.932467 4.666811 0.291910 53
-1.027595 4.408381 -0.480554 100
-1.201486 4.502118 -0.054491 97
-1.389664 4.614908 0.397937 51
-1.469880 4.376662 -0.320416 101
-0.596064 4.436152 -0.501275 101
-0.761890 4.568196 -0.080840 92
-1.032021 4.430741 -0.412422 101
-1.208018 4.529652 0.017182 100
-1.473078 4.388631 -0.249901 100
-0.606251 4.517724 -0.298761 101
-0.768811 4.614476 0.133939 100
-0.871663 4.370150 -0.654225 100
-1.042640 4.479742 -0.204035 101
-1.222232 4.586047 0.236276 100
-1.305381 4.340301 -0.463577 100
-1.474438 4.395134 -0.036411 81
-0.609744 4.549557 -0.230122 100
-0.776136 4.663277 0.208057 70
-0.879827 4.414957 -0.486664 100
-1.051531 4.521385 -0.134529 100
-1.232709 4.628490 0.312263 73
-1.320311 4.392623 -0.398063 101
-1.487689 4.437110 0.035123 49
-0.606212 4.544983 -0.159319 101
-0.878395 4.422321 -0.417467 101
-1.049021 4.523527 -0.063219 100
-1.228413 4.624086 0.385790 100
-1.312264 4.375863 -0.325864 101
-1.483275 4.433220 0.106902 14
-0.448004 4.424604 -0.506698 101
-0.610452 4.582652 -0.089576 96
-0.882677 4.447796 -0.349710 93
-1.054677 4.551393 0.008154 89
-1.327715 4.430095 -0.258565 100
-0.458364 4.534530 -0.307512 100
-0.618015 4.645399 0.125171 100
-0.724321 4.378099 -0.722234 101
-0.898900 4.533537 -0.142823 101
-1.069832 4.620330 0.226972 73
-1.161977 4.379943 -0.472277 101
-1.333570 4.452352 -0.045428 100
-0.461631 4.574541 -0.239350 101
-0.622698 4.686627 0.198981 92
-0.733244 4.436669 -0.494868 100
-0.902344 4.554921 -0.072134 88
-1.075342 4.647683 0.301804 71
-1.165004 4.394335 -0.403333 101
-1.347775 4.502534 0.026250 100
-0.467892 4.644409 -0.027700 101
-0.746487 4.521530 -0.291533 89
-0.912910 4.612329 0.143653 100
-1.182116 4.461909 -0.195882 100
-1.365849 4.565711 0.246420 101
-1.443033 4.322610 -0.457271 101
-0.471501 4.688140 0.044409 100
-0.745067 4.517655 -0.220731 100
-0.917800 4.641133 0.217316 100
-1.005670 4.353224 -0.600111 101
-1.190183 4.495413 -0.125833 100
-1.369552 4.580895 0.320923 63
-1.462019 4.381936 -0.391962 101
-0.590847 4.464166 -0.434392 100
-0.757524 4.598006 -0.009760 84
-1.019182 4.415102 -0.340703 101
-1.194761 4.515776 0.088875 99
-1.358059 4.545240 -1.364024 27
-1.475557 4.424992 -0.180008 100
-0.594036 4.494068 -0.367118 89
-0.759284 4.613525 0.062023 89
-1.037444 4.497665 -0.275844 100
-1.211905 4.583692 0.163081 99
-1.298805 4.349590 -0.545304 80
-1.472984 4.419753 -0.108162 101
-0.447160 4.483994 -0.443428 101
-0.603622 4.584394 -0.018562 100
-0.883046 4.485210 -0.281996 101
-1.044045 4.536735 0.079633 94
-1.208571 4.580433 -1.685162 30
-1.311711 4.400911 -0.186049 100
-0.449792 4.518084 -0.376482 101
-0.606467 4.611997 0.052774 100
-0.882252 4.485158 -0.211570 100
-1.050053 4.566353 0.152160 71
-1.143462 4.336633 -0.562593 100
-1.324188 4.445507 -0.116604 101
-0.458572 4.614152 -0.170027 101
-0.730885 4.464401 -0.427628 87
-0.898640 4.572532 -0.000813 93
-1.168940 4.436285 -0.336095 100
-1.342965 4.511318 0.098597 100
-0.457605 4.612304 -0.098707 101
-0.733682 4.486220 -0.359360 78
-0.900079 4.583930 0.070939 95
-1.172421 4.452535 -0.266289 100
-1.351875 4.544043 0.172183 87
-1.428978 4.302183 -0.528529 101
-0.464281 4.687617 0.116769 100
-0.573913 4.381538 -0.806728 101
-0.745131 4.561046 -0.151696 88
-0.913096 4.654366 0.290930 38
-1.011311 4.408064 -0.480132 100
-1.183728 4.498548 -0.054398 101
-1.376955 4.631194 0.398924 63
-1.457108 4.389341 -0.320969 101
-0.582638 4.453972 -0.503056 100
-0.744652 4.562933 -0.080700 88
-1.015659 4.430433 -0.412060 101
-1.189147 4.522235 0.017138 100
-1.456492 4.389956 -0.249686 100
-0.592029 4.531685 -0.299546 101
-0.752699 4.617132 0.133939 100
-0.858684 4.384817 -0.655968 100
-1.028781 4.491144 -0.204389 100
-1.207231 4.594150 0.236475 101
-1.291355 4.348646 -0.463984 101
-1.464123 4.415441 -0.036536 100
-0.592826 4.543735 -0.229721 100
-0.757926 4.654125 0.207530 65
-0.862884 4.410196 -0.485804 100
-1.034850 4.521130 -0.134413 100
-1.213504 4.621183 0.311482 72
-1.299301 4.378104 -0.396334 101
-1.470934 4.438479 0.035093 49
-0.592402 4.562928 -0.159874 101
-0.863715 4.429270 -0.417836 101
-1.035005 4.534960 -0.063328 100
-1.211254 4.624488 0.385468 85
-1.299247 4.388068 -0.326433 101
-1.471558 4.449761 0.107176 50
-0.434490 4.445919 -0.508962 101
-0.595995 4.596653 -0.089808 98
-0.868671 4.458679 -0.350325 99
-1.037004 4.547246 0.008140 89
-1.313377 4.438532 -0.258788 100
-1.507750 4.561776 0.183730 1
-0.444083 4.551991 -0.308589 100
-0.604363 4.667356 0.125705 100
-0.710926 4.392293 -0.724162 101
-0.883833 4.540571 -0.142947 100
-1.051923 4.616245 0.226590 86
-1.151715 4.403217 -0.474351 101
-1.324825 4.479993 -0.045663 100
-0.446047 4.580100 -0.239558 101
-0.603259 4.664992 0.197972 100
-0.717118 4.435277 -0.494431 100
-0.883384 4.542339 -0.071886 85
-1.058226 4.647516 0.301551 69
-1.149658 4.398375 -0.403333 101
-1.330916 4.503376 0.026227 100
-0.451677 4.646014 -0.027700 101
-0.730063 4.520167 -0.291280 93
-0.895279 4.607638 0.143409 100
-1.164514 4.458275 -0.195543 100
-1.348772 4.566620 0.246214 101
-1.424194 4.316282 -0.456073 101
-0.454747 4.685776 0.044371 101
-0.729293 4.520228 -0.220731 91
-0.900832 4.640386 0.217133 101
-0.989589 4.352842 -0.599578 101
-1.173474 4.495671 -0.125725 101
-1.351294 4.577992 0.320387 70
-1.435480 4.352946 -0.388918 101
-0.575261 4.466201 -0.434392 100
-0.742106 4.604572 -0.009768 73
-1.001997 4.410853 -0.340104 100
-1.180000 4.523788 0.088951 90
-1.333484 4.520456 -1.355181 24
-1.456348 4.418727 -0.179546 100
-0.577328 4.488206 -0.366473 89
-0.742539 4.612199 0.061970 89
-1.021738 4.501259 -0.275844 101
-1.191864 4.572420 0.162531 94
-1.280245 4.342669 -0.543873 80
-1.460049 4.432465 -0.108348 101
-0.433411 4.505340 -0.445387 101
-0.590157 4.606311 -0.018642 100
-0.868142 4.492185 -0.282242 101
-1.024669 4.524749 0.079360 88
-1.194472 4.591918 -1.687844 29
-1.300853 4.420800 -0.186696 100
-0.434018 4.519627 -0.376482 101
-0.589856 4.610118 0.052729 100
-0.865076 4.480364 -0.211200 85
-1.033224 4.566092 0.152031 86
-1.128318 4.340598 -0.562593 100
-1.308663 4.450102 -0.116604 100
-0.443607 4.627662 -0.170467 101
-0.717186 4.478722 -0.428757 82
-0.883431 4.579568 -0.000814 93
-1.151441 4.432615 -0.335510 101
-1.330593 4.527489 0.098848 100
-0.442264 4.621835 -0.098877 101
-0.718018 4.488754 -0.359360 82
-0.887857 4.606680 0.071242 91
-1.157875 4.460465 -0.266520 101
-1.334879 4.544899 0.172038 98
-1.415191 4.310919 -0.528993 101
-0.448295 4.693190 0.116868 100
-0.559609 4.391322 -0.808164 101
-0.727313 4.551776 -0.151303 79
-0.901374 4.681047 0.292400 45
-0.995918 4.411567 -0.480132 100
-1.172035 4.518139 -0.054585 101
-1.360781 4.635972 0.398924 74
-1.440533 4.390609 -0.320693 101
-0.569597 4.475696 -0.505282 100
-0.731871 4.585251 -0.081049 94
-0.998434 4.426179 -0.411338 101
-1.171347 4.518615 0.017109 100
-1.441159 4.395013 -0.249686 100
-0.573187 4.509967 -0.297977 101
-0.737837 4.627628 0.134168 95
-0.841879 4.380015 -0.654806 101
-1.010462 4.483013 -0.203857 101
-1.192189 4.602203 0.236674 101
-1.273929 4.345490 -0.463170 101
-1.446210 4.412922 -0.036474 101
-0.576961 4.545777 -0.229721 100
-0.743561 4.668581 0.208057 72
-0.847484 4.413181 -0.485804 100
-1.019940 4.528615 -0.134529 100
-1.196365 4.621527 0.311222 64
-1.286252 4.390261 -0.397025 101
-1.461656 4.462593 0.035243 46
-0.576745 4.560905 -0.159735 101
-0.849751 4.436026 -0.418205 101
-1.019939 4.538372 -0.063328 99
-1.196887 4.632346 0.385790 65
-1.284668 4.392359 -0.326433 101
-1.459259 4.462225 0.107359 44
-0.421225 4.463163 -0.510773 100
-0.580735 4.598606 -0.089808 101
-0.853868 4.461538 -0.350325 91
-1.019277 4.538955 0.008119 97
-1.296397 4.435200 -0.258342 87
-1.472733 4.505966 0.181284 36
-0.428232 4.545492 -0.308051 100
-0.585375 4.641564 0.124958 100
-0.695116 4.386828 -0.722876 101
-0.868015 4.539551 -0.142823 101
-1.037478 4.623607 0.226781 81
-1.137102 4.407013 -0.474351 101
-1.307714 4.476685 -0.045584 101
-0.430486 4.577577 -0.239350 101
-0.589288 4.678862 0.198476 67
-0.703030 4.441557 -0.494868 100
-0.869821 4.553100 -0.072010 96
-1.041938 4.647103 0.301299 72
-1.139048 4.417595 -0.404747 101
-1.315978 4.507763 0.026227 97
-0.437027 4.655450 -0.027748 101
-0.710717 4.494961 -0.289502 98
-0.877757 4.598797 0.143042 100
-1.146743 4.450499 -0.195034 100
-1.330276 4.559560 0.245594 101
-1.407415 4.313410 -0.455274 101
-0.439973 4.695221 0.044447 100
-0.715565 4.530512 -0.221116 89
-0.884710 4.639419 0.216949 90
-0.974302 4.352227 -0.599046 101
-1.158578 4.499533 -0.125725 101
-1.343945 4.609263 0.322262 88
-1.423527 4.365255 -0.389594 101
-0.559483 4.460180 -0.433624 101
-0.726237 4.603052 -0.009760 77
-0.985650 4.406361 -0.339504 100
-1.162030 4.516050 0.088723 93
-1.309910 4.495319 -1.346338 20
-1.440476 4.419723 -0.179391 96
-0.563468 4.498003 -0.367118 89
-0.727277 4.614630 0.061970 83
-1.004229 4.492925 -0.275128 100
-1.178722 4.584082 0.162806 87
-1.268092 4.354507 -0.544827 80
-1.444139 4.433468 -0.108255 101
-0.417792 4.498819 -0.444604 101
-0.572959 4.592359 -0.018578 100
-0.851811 4.487183 -0.281750 101
-1.010590 4.532012 0.079428 96
-1.280667 4.405882 -0.185887 101
-0.420200 4.532943 -0.377473 101
-0.578097 4.639824 0.053046 100
-0.854004 4.502824 -0.212125 92
-1.024232 4.596793 0.152939 68
-1.117926 4.359677 -0.564584 100
-1.295081 4.458238 -0.116704 101
-0.426864 4.613179 -0.169880 101
-0.703022 4.484998 -0.429134 78
-0.869806 4.590318 -0.000815 92
-1.139781 4.447984 -0.336387 101
-1.313418 4.524173 0.098681 100
-0.427022 4.623269 -0.098877 101
-0.702596 4.487157 -0.359045 86
-0.868942 4.589934 0.070939 92
-1.143160 4.464259 -0.266520 100
-1.318771 4.545436 0.171893 94
-1.399741 4.311783 -0.528529 101
-0.432826 4.694642 0.116868 100
-0.545134 4.393142 -0.808164 101
-0.712926 4.558098 -0.151434 81
-0.888168 4.695761 0.293135 16
-0.982237 4.418708 -0.480554 100
-1.154164 4.510352 -0.054445 101
-1.336614 4.609802 0.396291 72
-1.414972 4.361172 -0.318200 101
-0.551918 4.453877 -0.502610 100
-0.714912 4.575783 -0.080840 92
-0.983850 4.429444 -0.411338 101
-1.152493 4.506947 0.017050 100
-1.422979 4.388338 -0.249039 100
-0.560298 4.527674 -0.299023 101
-0.721366 4.622131 0.133939 100
-0.825253 4.371096 -0.653063 100
-0.995698 4.486316 -0.203857 100
-1.175054 4.598361 0.236276 101
-1.261830 4.357305 -0.463984 101
-1.435374 4.429074 -0.036568 100
-0.562981 4.555580 -0.230122 100
-0.729428 4.678900 0.208409 69
-0.832959 4.415946 -0.485804 100
-1.003303 4.524140 -0.134298 93
-1.182140 4.629305 0.311482 59
-1.268476 4.382986 -0.395988 101
-1.450663 4.478794 0.035333 58
-0.562771 4.578761 -0.160291 101
-0.833525 4.435050 -0.417836 101
-1.004091 4.541904 -0.063328 100
-1.179726 4.632632 0.385468 38
