# This PCD file was generated using the MATLAB® pcwrite function
# from Computer Vision Toolbox®.
# .PCD v.7 - Point Cloud Data file format
VERSION .7
FIELDS x y z intensity
SIZE 4 4 4 1
TYPE F F F U
COUNT 1 1 1 1
WIDTH 1479
HEIGHT 1
VIEWPOINT 0 0 0 1 0 0 0
POINTS 1479
DATA ascii
-0.571479 4.280598 -0.216503 100
-0.842694 4.239881 -0.467318 43
-0.419444 4.157583 -0.868560 101
-0.570108 4.291687 -0.150429 101
-0.834256 4.211806 -0.397553 41
-0.422568 4.195492 -0.480434 100
-0.573317 4.321316 -0.084462 100
-0.836970 4.229174 -0.332486 43
-0.426834 4.244895 -0.287855 100
-0.577233 4.356357 0.117375 100
-0.686690 4.164230 -0.686893 101
-0.847659 4.286913 -0.135040 63
-0.429316 4.276685 -0.223754 100
-0.578305 4.369998 0.185525 90
-0.696027 4.225204 -0.471241 101
-0.849578 4.300353 -0.068096 50
-0.434367 4.334212 -0.025849 101
-0.700707 4.258007 -0.274519 100
-0.860187 4.357843 0.135713 38
-0.435231 4.350087 0.041205 100
-0.701901 4.269666 -0.208596 100
-0.438228 4.387369 0.244969 25
-0.557850 4.231575 -0.411732 101
-0.712378 4.337885 -0.009207 79
-0.558950 4.245343 -0.346777 83
-0.712895 4.345525 0.058415 78
-0.420931 4.242578 -0.419533 100
-0.566985 4.322941 -0.017502 100
-0.833097 4.242762 -0.266726 59
-1.015809 4.424218 0.077649 0
-0.419243 4.232691 -0.352683 101
-0.568835 4.342621 0.049688 100
-0.832316 4.242498 -0.200104 48
-0.425597 4.304102 -0.158594 100
-0.691462 4.236810 -0.405795 89
-0.857126 4.372787 -0.000778 59
-0.426253 4.318028 -0.092405 101
-0.696815 4.274060 -0.342338 100
-0.855535 4.368500 0.067598 59
-0.431779 4.381423 0.109136 97
-0.544774 4.175020 -0.768654 101
-0.701117 4.304931 -0.143167 93
-0.430839 4.379310 0.176740 81
-0.550153 4.221689 -0.476790 101
-0.702602 4.318552 -0.076372 101
-0.553767 4.254909 -0.281233 101
-0.709404 4.364916 0.126613 101
-0.819377 4.194910 -0.627498 3
-0.555614 4.274629 -0.216102 100
-0.821142 4.207646 -0.463449 42
-0.403411 4.143430 -0.865303 101
-0.556662 4.305544 -0.150846 101
-0.821830 4.226422 -0.398659 47
-0.407151 4.189031 -0.479529 100
-0.557205 4.315359 -0.084307 100
-0.816117 4.200750 -0.330025 40
-0.411629 4.242386 -0.287586 100
-0.562023 4.358345 0.117375 100
-0.675294 4.186090 -0.690106 101
-0.832690 4.289845 -0.135040 75
-0.414000 4.274182 -0.223546 100
-0.561516 4.360099 0.185020 95
-0.680009 4.219757 -0.470366 101
-0.839892 4.330777 -0.068531 57
-0.418080 4.323758 -0.025778 101
-0.688378 4.276192 -0.275535 101
-0.844970 4.360819 0.135713 40
-0.420812 4.359543 0.041280 95
-0.689530 4.287868 -0.209367 100
-0.422527 4.384896 0.244747 30
-0.543582 4.237445 -0.412116 100
-0.695963 4.332447 -0.009190 74
-0.544635 4.251223 -0.347100 83
-0.701524 4.371681 0.058733 80
-0.405360 4.236096 -0.418750 100
-0.551385 4.320926 -0.017486 100
-0.815259 4.229963 -0.265741 56
-0.987139 4.369220 0.076623 2
-0.403328 4.222224 -0.351691 101
-0.552662 4.336645 0.049598 100
-0.822791 4.272843 -0.201399 50
-0.411329 4.313520 -0.158887 100
-0.677924 4.247062 -0.406548 84
-0.841857 4.375753 -0.000778 67
-0.410040 4.307547 -0.092149 101
-0.681892 4.276466 -0.342338 100
-0.838016 4.359677 0.067416 66
-0.416482 4.382904 0.109136 97
-0.530197 4.176896 -0.768654 101
-0.687972 4.319197 -0.143560 93
-0.414795 4.372829 0.176419 69
-0.534914 4.219640 -0.476345 101
-0.685638 4.309129 -0.076162 100
-0.540415 4.268695 -0.282018 101
-0.691653 4.351571 0.126155 100
-0.801004 4.178310 -0.624593 46
-0.541190 4.280505 -0.216302 100
-0.801213 4.183146 -0.460439 38
-0.390043 4.156511 -0.867746 101
-0.538138 4.279696 -0.149873 101
-0.801846 4.201879 -0.396077 57
-0.970423 4.332231 -0.060442 1
-0.392526 4.190426 -0.479529 100
-0.541142 4.309341 -0.084152 101
-0.799955 4.195738 -0.329410 41
-0.975911 4.360110 0.007798 1
-0.396074 4.235850 -0.287047 100
-0.547801 4.368215 0.117588 100
-0.661908 4.196221 -0.691391 101
-0.820703 4.308436 -0.135534 92
-0.398706 4.271624 -0.223338 100
-0.546293 4.362033 0.185020 90
-0.664656 4.218177 -0.469928 101
-0.824022 4.329753 -0.068469 63
-0.404469 4.341122 -0.025873 101
-0.672205 4.270682 -0.275027 100
-0.826755 4.348031 0.135225 55
-0.405222 4.357002 0.041242 97
-0.671455 4.270515 -0.208404 100
-0.407957 4.394298 0.245191 42
-0.526323 4.219563 -0.410195 101
-0.680836 4.334850 -0.009190 79
-0.529299 4.249142 -0.346777 83
-0.682540 4.350396 0.058415 82
-0.389475 4.225593 -0.417575 100
-0.535314 4.314886 -0.017454 100
-0.805682 4.260243 -0.267465 60
-0.960600 4.321886 0.075734 32
-0.388587 4.223606 -0.351691 101
-0.539980 4.358395 0.049825 100
-0.809354 4.283542 -0.201768 58
-0.395173 4.302989 -0.158447 100
-0.662480 4.245468 -0.406171 84
-0.825835 4.374734 -0.000777 64
-0.395367 4.312934 -0.092234 101
-0.666960 4.278821 -0.342338 89
-0.824275 4.370436 0.067537 71
-0.401909 4.392295 0.109334 97
-0.515132 4.174816 -0.767936 101
-0.672276 4.317622 -0.143429 99
-0.399892 4.378231 0.176580 76
-0.520181 4.221482 -0.476345 100
-0.669363 4.303593 -0.076023 100
-0.524048 4.258671 -0.281233 101
-0.677687 4.361860 0.126384 100
-0.786414 4.181081 -0.624593 45
-0.525271 4.274438 -0.215902 100
-0.683942 4.406926 0.196274 16
-0.791748 4.213276 -0.463449 39
-0.957923 4.333525 -0.128620 1
-0.372744 4.126641 -0.861233 101
-0.522258 4.273609 -0.149596 100
-0.779875 4.165496 -0.392390 45
-0.951884 4.319961 -0.060225 2
-0.377202 4.183853 -0.478623 100
-0.528053 4.327081 -0.084462 100
-0.790456 4.225943 -0.331563 43
-0.958985 4.355673 0.007784 24
-0.382366 4.249131 -0.287855 100
-0.532073 4.366130 0.117482 100
-0.643053 4.171191 -0.686893 101
-0.805667 4.311273 -0.135534 92
-0.384861 4.284925 -0.223962 100
-0.532989 4.379783 0.185693 92
-0.649318 4.216542 -0.469490 101
-0.805962 4.316878 -0.068220 71
-0.388582 4.334540 -0.025825 101
-0.659098 4.284842 -0.275789 101
-0.813022 4.358754 0.135469 71
-0.389625 4.354409 0.041205 100
-0.658943 4.288633 -0.209174 100
-0.390798 4.375809 0.244081 48
-0.513467 4.237189 -0.411732 100
-0.663839 4.325345 -0.009165 74
-0.512495 4.235137 -0.345485 83
-0.670327 4.372527 0.058680 80
-0.374987 4.230900 -0.417966 100
-0.519681 4.312768 -0.017438 100
-0.792174 4.270897 -0.267958 78
-0.944565 4.321325 0.075665 48
-0.373391 4.220975 -0.351361 101
-0.523227 4.348352 0.049688 100
-0.792112 4.274573 -0.201214 74
-0.380740 4.312315 -0.158741 100
-0.644545 4.228088 -0.404289 100
-0.807532 4.361879 -0.000774 68
-0.380535 4.318283 -0.092320 101
-0.649494 4.265373 -0.341077 94
-0.807433 4.365445 0.067416 64
-0.385384 4.381734 0.109037 97
-0.499955 4.172698 -0.767217 101
-0.654659 4.304153 -0.142904 100
-0.384105 4.375632 0.176419 78
-0.505296 4.223289 -0.476345 101
-0.654187 4.305926 -0.076023 100
-0.508546 4.256530 -0.280972 101
-0.662893 4.368177 0.126498 100
-0.765197 4.148802 -0.619364 46
-0.934320 4.295233 -0.194994 1
-0.511595 4.288167 -0.216503 101
-0.662388 4.369803 0.194515 18
-0.779749 4.231689 -0.465168 49
-0.947711 4.360323 -0.129315 4
-0.359014 4.135720 -0.862861 101
-0.507808 4.279376 -0.149734 100
-0.765330 4.168193 -0.392390 57
-0.928329 4.284169 -0.059680 45
-0.362595 4.185144 -0.478623 100
-0.511534 4.316983 -0.084229 100
-0.777859 4.240444 -0.332486 56
-0.938696 4.335537 0.007742 47
-0.367532 4.250440 -0.287855 100
-0.516360 4.363990 0.117375 100
-0.632016 4.196835 -0.690749 101
-0.794216 4.333722 -0.136152 100
-0.369214 4.278283 -0.223546 100
-0.515822 4.365741 0.185020 92
-0.634004 4.214851 -0.469053 101
-0.791609 4.323599 -0.068282 76
-0.372763 4.327900 -0.025778 101
-0.641765 4.271326 -0.274773 101
-0.799241 4.369431 0.135713 86
-0.374765 4.359728 0.041242 100
-0.644562 4.294858 -0.209367 101
-0.374838 4.369188 0.243637 53
-0.498208 4.235002 -0.411347 101
-0.648736 4.327636 -0.009165 68
-0.499104 4.248780 -0.346454 83
-0.652099 4.355062 0.058415 72
-0.361228 4.244082 -0.419142 100
-0.505088 4.318528 -0.017454 100
-0.776547 4.269708 -0.267711 87
-0.936198 4.355876 0.076213 50
-0.358992 4.226224 -0.351691 101
-0.508973 4.358098 0.049779 100
-0.779329 4.289106 -0.201768 78
-0.365010 4.305652 -0.158447 100
-0.632127 4.246068 -0.405795 99
-0.793730 4.372542 -0.000776 64
-0.365796 4.323570 -0.092405 101
-0.635188 4.271558 -0.341392 100
-0.795044 4.383978 0.067659 71
-0.368740 4.367114 0.108641 93
-0.484023 4.162692 -0.765062 101
-0.640218 4.310367 -0.143035 100
-0.369836 4.388894 0.176901 74
-0.491009 4.228976 -0.476790 101
-0.640913 4.320051 -0.076232 100
-0.493685 4.258280 -0.280972 101
-0.647641 4.370464 0.126498 100
-0.747189 4.131976 -0.616459 47
-0.919321 4.298468 -0.194994 8
-0.496623 4.289927 -0.216503 101
-0.646545 4.368136 0.194339 33
-0.764265 4.230472 -0.464738 59
-0.918280 4.297134 -0.127345 41
-0.343995 4.121277 -0.859605 101
-0.494530 4.288979 -0.150012 100
-0.757154 4.202067 -0.395340 70
-0.918287 4.306782 -0.059952 65
-0.349045 4.190284 -0.479076 100
-0.497216 4.318655 -0.084229 98
-0.764499 4.246925 -0.332793 61
-0.928481 4.358188 0.007777 46
-0.352443 4.239703 -0.287047 100
-0.502799 4.373623 0.117588 100
-0.616371 4.187190 -0.688821 101
-0.774179 4.304852 -0.135163 98
-0.354365 4.271523 -0.223130 100
-0.502254 4.375369 0.185357 90
-0.622338 4.232666 -0.470803 101
-0.775145 4.314391 -0.068096 84
-0.359729 4.345057 -0.025873 101
-0.629337 4.285279 -0.275535 100
-0.781922 4.356317 0.135225 100
-0.359318 4.348988 0.041129 98
-0.627416 4.277207 -0.208404 101
-0.360347 4.370407 0.243637 66
-0.484161 4.236630 -0.411347 100
-0.636701 4.345594 -0.009199 74
-0.484108 4.242489 -0.345808 83
-0.637653 4.357201 0.058415 89
-0.919125 4.335742 -0.264867 2
-0.346504 4.237322 -0.418358 100
-0.490765 4.320179 -0.017454 100
-0.762384 4.272260 -0.267711 93
-0.920921 4.355044 0.076144 54
-0.344976 4.227392 -0.351691 101
-0.494969 4.363736 0.049825 100
-0.766505 4.299534 -0.202138 88
-0.350405 4.302855 -0.158301 100
-0.618044 4.248140 -0.405795 100
-0.777823 4.367274 -0.000774 70
-0.350161 4.308815 -0.092064 101
-0.619299 4.261803 -0.340447 100
-0.776298 4.362964 0.067295 68
-0.356519 4.396213 0.109334 97
-0.470658 4.168184 -0.765781 101
-0.624772 4.304554 -0.142773 100
-0.898229 4.261898 -0.462396 0
-0.354312 4.378145 0.176419 88
-0.476982 4.230581 -0.476790 101
-0.625436 4.314237 -0.076092 100
-0.480455 4.267826 -0.281495 101
-0.632572 4.368631 0.126384 100
-0.732792 4.130534 -0.615878 47
-0.900948 4.281940 -0.194108 41
-0.481502 4.283610 -0.216102 101
-0.632628 4.374211 0.194515 23
-0.749538 4.229067 -0.464308 76
-0.904848 4.304068 -0.127461 54
-0.331772 4.149781 -0.865303 101
-0.479091 4.286708 -0.149873 101
-0.748002 4.236066 -0.398290 88
-0.900767 4.298222 -0.059789 53
-0.333771 4.183554 -0.478170 100
-0.482569 4.324341 -0.084307 100
-0.751736 4.261353 -0.333716 76
-0.913250 4.361404 0.007777 58
-0.338904 4.256822 -0.288124 100
-0.486196 4.363431 0.117268 101
-0.601185 4.185409 -0.688178 101
-0.761225 4.319342 -0.135534 99
-0.340088 4.280697 -0.223546 100
-0.486539 4.373123 0.185188 95
-0.606433 4.226940 -0.469928 101
-0.762858 4.332826 -0.068344 81
-0.343622 4.334324 -0.025801 101
-0.613253 4.279545 -0.275027 100
-0.765336 4.351142 0.134980 101
-0.345415 4.366164 0.041280 100
-0.611935 4.275414 -0.208211 100
-0.347316 4.399506 0.245191 87
-0.469396 4.238292 -0.411347 101
-0.619857 4.335907 -0.009173 66
-0.886705 4.252272 -0.326607 7
-0.469768 4.248112 -0.346131 83
-0.623040 4.363355 0.058468 86
-0.899947 4.319372 -0.263674 58
-0.331767 4.238501 -0.418358 100
-0.475739 4.321860 -0.017454 100
-0.748211 4.278818 -0.267958 100
-0.904144 4.350389 0.076007 69
-0.329971 4.224591 -0.351361 101
-0.478489 4.353502 0.049688 101
-0.746743 4.274620 -0.200844 85
-0.903076 4.348883 0.144241 2
-0.335767 4.308031 -0.158447 100
-0.602163 4.242376 -0.405042 100
-0.761272 4.362069 -0.000773 64
-0.336439 4.325953 -0.092405 101
-0.606737 4.279720 -0.341707 100
-0.761145 4.365633 0.067295 77
-0.339096 4.369516 0.108641 97
-0.456190 4.169792 -0.765781 101
-0.610952 4.314612 -0.143035 100
-0.885854 4.276674 -0.463663 0
-0.340051 4.391302 0.176901 74
-0.461875 4.228258 -0.476345 101
-0.611589 4.324300 -0.076232 101
-0.890518 4.302795 -0.398337 1
-0.465224 4.265498 -0.281233 101
-0.616305 4.362879 0.126155 100
-0.719824 4.140848 -0.617040 54
-0.886099 4.285038 -0.194108 39
-0.467090 4.289224 -0.216302 100
-0.618586 4.384291 0.194867 35
-0.733520 4.223803 -0.463449 83
-0.887503 4.295431 -0.127113 41
-0.315195 4.123580 -0.859605 101
-0.464125 4.288354 -0.149873 101
-0.733890 4.242576 -0.398659 88
-0.880111 4.273918 -0.059408 46
-0.319770 4.192619 -0.479076 100
-0.464893 4.302143 -0.083842 101
-0.736857 4.263951 -0.333716 83
-0.891571 4.333222 0.007721 58
-0.322831 4.242061 -0.287047 100
-0.468388 4.341248 0.116627 100
-0.582738 4.160112 -0.683680 101
-0.744102 4.310153 -0.135163 92
-0.324236 4.269909 -0.222922 100
-0.469558 4.358901 0.184516 93
-0.590021 4.217218 -0.468615 101
-0.747049 4.331521 -0.068282 81
-0.328188 4.331508 -0.025778 101
-0.597206 4.273753 -0.274519 100
-0.752858 4.369548 0.135469 100
-0.328966 4.351389 0.041129 100
-0.597007 4.277524 -0.208211 100
-0.331056 4.388744 0.244525 100
-0.453750 4.231987 -0.410579 101
-0.604166 4.334083 -0.009165 64
-0.863851 4.216266 -0.323608 58
-0.454936 4.249726 -0.346131 83
-0.605599 4.349658 0.058256 78
-0.880060 4.299016 -0.262243 48
-0.316970 4.239633 -0.418358 100
-0.459802 4.315539 -0.017422 100
-0.732596 4.277469 -0.267711 100
-0.883352 4.326088 0.075529 64
-0.314332 4.213791 -0.350369 101
-0.463289 4.355146 0.049688 101
-0.733839 4.289016 -0.201399 83
-0.888689 4.355926 0.144371 20
-0.321023 4.313163 -0.158594 100
-0.588989 4.256286 -0.406171 100
-0.746041 4.364700 -0.000773 76
-0.320152 4.311149 -0.092064 101
-0.589065 4.262062 -0.340131 100
-0.743882 4.356436 0.067112 64
-0.324432 4.378648 0.108839 97
-0.439975 4.155707 -0.762907 101
-0.595340 4.312758 -0.142904 99
-0.861402 4.232967 -0.458596 2
-0.323542 4.376519 0.176259 86
-0.446695 4.225892 -0.475899 101
-0.595945 4.322447 -0.076162 100
-0.865968 4.259032 -0.394004 44
-0.449913 4.263127 -0.280972 101
-0.601618 4.368965 0.126269 84
-0.713336 4.190152 -0.624012 72
-0.874318 4.303769 -0.194817 47
-0.451277 4.282882 -0.215902 101
-0.600555 4.366629 0.193987 37
-0.719439 4.230258 -0.463879 97
-0.869322 4.282829 -0.126650 43
-0.300799 4.124654 -0.859605 101
-0.449153 4.289948 -0.149873 101
-0.718411 4.241185 -0.398290 90
-0.866772 4.284804 -0.059517 50
-0.305133 4.193710 -0.479076 100
-0.451952 4.323627 -0.084229 100
-0.719972 4.254700 -0.332793 81
-0.873270 4.320625 0.007693 53
-0.308311 4.247142 -0.287316 100
-0.455721 4.366718 0.117268 101
-0.570349 4.177768 -0.686251 101
-0.731052 4.324551 -0.135534 85
-0.309906 4.278983 -0.223338 100
-0.454340 4.360513 0.184516 98
-0.576371 4.227131 -0.469490 100
-0.729926 4.322271 -0.068096 81
-0.313643 4.340607 -0.025825 101
-0.581745 4.271856 -0.274265 100
-0.736271 4.364264 0.135225 100
-0.314063 4.356500 0.041167 100
-0.582072 4.279582 -0.208211 100
-0.314302 4.369955 0.243415 100
-0.438974 4.233545 -0.410579 101
-0.587956 4.328238 -0.009148 68
-0.845193 4.199704 -0.322109 49
-1.005462 4.286869 0.083777 0
-0.438867 4.239391 -0.345162 83
-0.588799 4.339855 0.058097 64
-0.864261 4.298147 -0.262004 45
-0.302452 4.244685 -0.418750 100
-0.444326 4.313139 -0.017406 100
-0.717000 4.276062 -0.267465 100
-0.867459 4.325224 0.075460 71
-0.300470 4.226792 -0.351361 101
-0.447675 4.352757 0.049643 100
-0.718203 4.287610 -0.201214 83
-0.873479 4.359002 0.144371 17
-0.305966 4.314258 -0.158594 100
-0.573596 4.254370 -0.405795 99
-0.731461 4.371223 -0.000774 62
-0.304255 4.300272 -0.091809 101
-0.574184 4.264092 -0.340131 100
-0.728671 4.359006 0.067112 69
-0.308019 4.363799 0.108442 97
-0.427069 4.172875 -0.765781 101
-0.578151 4.298962 -0.142379 100
-0.847401 4.239849 -0.459018 34
-0.308544 4.381608 0.176419 81
-0.432345 4.231380 -0.476345 101
-0.579788 4.316573 -0.076023 100
-0.852656 4.269842 -0.394726 63
-0.433814 4.252759 -0.280187 101
-0.586363 4.371038 0.126269 92
-0.698054 4.188713 -0.623431 90
-0.854599 4.283282 -0.193753 59
-0.436325 4.284431 -0.215902 100
-0.589024 4.396424 0.195218 38
-0.704668 4.232743 -0.463879 100
-0.855930 4.293680 -0.126882 46
-0.286679 4.129586 -0.860419 101
-0.432977 4.279557 -0.149457 101
-0.702960 4.239736 -0.397921 87
-0.853378 4.295648 -0.059626 62
-0.289949 4.186820 -0.478170 100
-0.437666 4.333136 -0.084384 100
-0.707076 4.268990 -0.333716 77
-0.859746 4.331493 0.007707 61
-0.293761 4.252174 -0.287586 100
-0.440478 4.368282 0.117268 100
-0.556805 4.187561 -0.687536 101
-0.715301 4.323131 -0.135410 89
-0.295241 4.284024 -0.223546 100
-0.439916 4.370025 0.184852 93
-0.561088 4.225176 -0.469053 101
-0.714833 4.324793 -0.068096 89
-0.297662 4.329704 -0.025754 101
-0.567875 4.281775 -0.274773 100
-0.722330 4.374698 0.135469 100
-0.298572 4.353580 0.041129 98
-0.567646 4.285549 -0.208404 100
-0.828455 4.188513 -0.573487 4
-0.300124 4.386964 0.244303 100
-0.424579 4.239014 -0.410963 101
-0.573882 4.338197 -0.009165 70
-0.830517 4.202631 -0.322109 51
-0.998577 4.325426 0.084462 0
-0.424845 4.248833 -0.345808 83
-0.575203 4.353781 0.058256 69
-0.848464 4.297224 -0.261765 47
-0.287070 4.237773 -0.417966 100
-0.430034 4.322627 -0.017438 100
-0.702045 4.278543 -0.267465 100
-0.855421 4.343927 0.075734 100
-0.284610 4.211907 -0.350039 101
-0.431659 4.346336 0.049552 100
-0.701265 4.278266 -0.200659 93
-0.858229 4.362030 0.144371 27
-0.291141 4.319290 -0.158741 100
-0.435371 4.391185 0.253663 11
-0.558192 4.252402 -0.405419 100
-0.716812 4.377702 -0.000774 70
-0.290011 4.313281 -0.092064 101
-0.560298 4.273982 -0.340762 100
-0.714706 4.369423 0.067234 79
-0.293548 4.376820 0.108740 97
-0.411302 4.162597 -0.763626 101
-0.564141 4.308887 -0.142642 100
-0.824132 4.199853 -0.454373 38
-0.292937 4.378674 0.176259 79
-0.416750 4.224955 -0.475454 101
-0.564675 4.318576 -0.076023 100
-0.832340 4.245436 -0.392198 50
-0.419313 4.258224 -0.280449 101
-0.571573 4.377029 0.126384 86
-0.685295 4.202849 -0.625174 100
-0.838060 4.278405 -0.193399 54
-0.422099 4.293885 -0.216302 101
-0.570006 4.370721 0.193987 55
-0.689840 4.235185 -0.463879 100
-0.841656 4.300575 -0.126998 63
-0.271490 4.118838 -0.857977 101
-0.419202 4.292978 -0.149873 101
-0.685605 4.226438 -0.396446 100
-0.839910 4.306452 -0.059734 77
-0.275593 4.191772 -0.478623 100
-0.419822 4.306774 -0.083842 101
-0.690257 4.259622 -0.332793 77
-0.846916 4.346246 0.007728 64
-0.277871 4.237244 -0.286509 100
-0.424065 4.357854 0.116948 101
-0.537624 4.154240 -0.681753 101
-0.698290 4.313762 -0.135040 100
-0.280025 4.281042 -0.223338 100
-0.424659 4.371534 0.184852 92
-0.546845 4.231052 -0.469490 101
-0.697817 4.315417 -0.067909 86
-0.282807 4.334708 -0.025778 101
-0.550882 4.267895 -0.273757 100
-0.704505 4.361405 0.134980 101
-0.283633 4.358587 0.041167 100
-0.552173 4.283542 -0.208211 100
-0.816096 4.203054 -0.575084 36
-0.285327 4.395957 0.244747 100
-0.408248 4.224618 -0.409427 101
-0.559757 4.348108 -0.009182 89
-0.818881 4.221167 -0.323308 61
-0.983472 4.328886 0.084462 1
-0.410394 4.254258 -0.346131 83
-0.561022 4.363697 0.058362 69
-0.833459 4.300159 -0.261765 52
-0.271255 4.222859 -0.416400 100
-0.413414 4.308175 -0.017374 100
-0.686473 4.277026 -0.267219 100
-0.837976 4.335106 0.075529 100
-0.271181 4.232766 -0.351691 101
-0.417247 4.355780 0.049643 100
-0.688857 4.296470 -0.201399 77
-0.848304 4.392477 0.145279 27
-0.275807 4.316290 -0.158594 100
-0.421561 4.408579 0.254581 18
-0.543345 4.254324 -0.405419 100
-0.700894 4.376228 -0.000774 79
-0.274445 4.306285 -0.091894 101
-0.544366 4.268001 -0.340131 100
-0.697554 4.360044 0.067052 83
-0.277508 4.365845 0.108442 97
-0.397142 4.167924 -0.764344 101
-0.549601 4.314795 -0.142773 100
-0.806458 4.187081 -0.452684 35
-0.986599 4.369700 -0.052387 1
-0.277651 4.379670 0.176259 78
-0.401623 4.222427 -0.475009 101
-0.547578 4.304651 -0.075743 101
-0.816010 4.240492 -0.391476 58
-0.980648 4.346723 0.016332 0
-0.405578 4.271582 -0.281233 101
-0.554779 4.367098 0.126040 84
-0.668127 4.189583 -0.622850 101
-0.826893 4.300925 -0.194285 62
-0.405600 4.279423 -0.215501 101
-0.557261 4.392506 0.194867 64
-0.674427 4.233640 -0.463449 100
-0.830411 4.323119 -0.127577 72
-0.256867 4.115851 -0.857163 101
-0.401592 4.266556 -0.148901 101
-0.671472 4.232739 -0.396815 100
-0.829384 4.332927 -0.060061 84
-0.261206 4.196675 -0.479076 100
-0.406282 4.324140 -0.084152 100
-0.675384 4.262005 -0.332793 95
-0.831740 4.349176 0.007728 74
-0.263573 4.246155 -0.287047 100
-0.409598 4.367270 0.117161 100
-0.526571 4.183511 -0.686251 101
-0.684478 4.324071 -0.135287 89
-0.264832 4.278007 -0.223130 100
-0.409397 4.372990 0.184852 90
-0.531577 4.228991 -0.469053 101
-0.684623 4.329678 -0.068096 79
-0.267181 4.327684 -0.025730 101
-0.537472 4.281675 -0.274519 100
-0.689277 4.363838 0.134980 101
-0.268171 4.355558 0.041129 88
-0.536223 4.277514 -0.207826 101
-0.799194 4.194194 -0.573487 47
-0.268511 4.373007 0.243415 100
-0.394975 4.241875 -0.410963 101
-0.543582 4.342097 -0.009165 84
-0.806379 4.235755 -0.324208 59
-0.974462 4.359613 0.084995 30
-0.394066 4.239786 -0.344839 83
-0.542313 4.337847 0.057991 72
-0.813967 4.279507 -0.260334 61
-0.256754 4.227753 -0.416791 100
-0.398741 4.313575 -0.017390 100
-0.671539 4.279396 -0.267219 101
-0.821348 4.330146 0.075392 100
-0.255440 4.217771 -0.350369 101
-0.401305 4.349244 0.049552 100
-0.670761 4.279110 -0.200474 88
-0.829244 4.375771 0.144630 41
-0.260739 4.317227 -0.158594 100
-0.406170 4.410024 0.254581 41
-0.527019 4.244339 -0.404289 101
-0.682520 4.358889 -0.000770 81
-0.260133 4.319192 -0.092149 101
-0.528974 4.265918 -0.339816 100
-0.683567 4.370355 0.067173 79
-0.262266 4.366787 0.108442 97
-0.380793 4.149693 -0.760752 101
-0.534045 4.312720 -0.142642 100
-0.796269 4.213321 -0.455217 32
-0.960066 4.322358 -0.051779 1
-0.261884 4.372633 0.175938 82
-0.386519 4.219844 -0.474564 101
-0.533039 4.310505 -0.075813 101
-0.804159 4.258973 -0.392920 60
-0.972402 4.381359 0.016449 28
-0.389938 4.265022 -0.280710 101
-0.539532 4.369009 0.126040 74
-0.653499 4.191890 -0.622850 101
-0.811134 4.299859 -0.194108 74
-0.391023 4.284791 -0.215702 100
-0.542903 4.402357 0.195218 61
-0.660257 4.239898 -0.463879 100
-0.812353 4.310275 -0.127113 86
-0.243891 4.140180 -0.862047 101
-0.388150 4.283855 -0.149457 101
-0.656093 4.231120 -0.396446 99
-0.813527 4.331863 -0.060007 96
-0.246097 4.189626 -0.478170 100
-0.389032 4.301633 -0.083687 101
-0.657457 4.244630 -0.331255 95
-0.815085 4.344189 0.007714 72
-0.248053 4.235096 -0.286239 100
-0.393635 4.360708 0.116948 101
-0.511008 4.177486 -0.684966 101
-0.665103 4.298776 -0.134422 100
-0.249663 4.274917 -0.222922 100
-0.394128 4.374393 0.184852 95
-0.517774 4.238714 -0.469928 101
-0.669504 4.332041 -0.068096 84
-0.251835 4.324597 -0.025706 101
-0.521067 4.271638 -0.273757 101
-0.674034 4.366218 0.134980 100
-0.252955 4.356469 0.041129 97
-0.520312 4.271429 -0.207441 101
-0.776525 4.154095 -0.567629 41
-0.952906 4.330781 -0.119991 0
-0.253692 4.381893 0.243859 100
-0.378730 4.227366 -0.409427 101
-0.527924 4.340000 -0.009157 84
-0.786448 4.211100 -0.322109 72
-0.949777 4.320025 0.084157 47
-0.379245 4.241137 -0.344839 83
-0.529078 4.355598 0.058203 72
-0.799005 4.282326 -0.260334 75
-0.242418 4.236574 -0.417575 100
-0.384358 4.322912 -0.017422 100
-0.654750 4.269880 -0.266480 100
-0.806927 4.336925 0.075460 100
-0.240680 4.218639 -0.350369 101
-0.385731 4.346637 0.049507 101
-0.656994 4.289330 -0.200844 88
-0.816119 4.390438 0.145020 37
-0.244492 4.298159 -0.157861 100
-0.388618 4.387551 0.253204 64
-0.511683 4.242205 -0.403913 101
-0.667864 4.365205 -0.000771 80
-0.244556 4.312091 -0.091979 101
-0.513559 4.263785 -0.339501 100
-0.667053 4.364814 0.067052 90
-0.247649 4.379656 0.108740 97
-0.366604 4.154921 -0.761470 101
-0.517984 4.306625 -0.142379 100
-0.781509 4.216084 -0.455217 40
-0.943215 4.317878 -0.051685 29
-0.246564 4.373524 0.175938 78
-0.372083 4.225132 -0.475009 101
-0.519367 4.324259 -0.076023 100
-0.787058 4.250012 -0.391837 73
-0.943400 4.322211 0.016215 59
-0.374641 4.262386 -0.280449 101
-0.524219 4.370872 0.126040 78
-0.638806 4.194154 -0.622850 101
-0.798243 4.314463 -0.194640 81
-0.375304 4.278176 -0.215301 100
-0.526518 4.396297 0.194867 72
-0.642999 4.226460 -0.462159 100
-0.800874 4.332754 -0.127693 93
-0.229438 4.141006 -0.862047 101
-0.372848 4.281202 -0.149318 101
-0.641917 4.237322 -0.396815 99
-0.799850 4.342543 -0.060116 100
-0.231471 4.190459 -0.478170 100
-0.375053 4.314918 -0.083919 100
-0.645620 4.266615 -0.332793 85
-0.802812 4.362743 0.007742 79
-0.233048 4.231952 -0.285970 100
-0.379102 4.370023 0.117161 100
-0.495492 4.171403 -0.683680 101
-0.651289 4.308978 -0.134669 96
-0.234302 4.267786 -0.222506 100
-0.379201 4.379723 0.185020 88
-0.501102 4.224702 -0.468178 101
-0.651393 4.314579 -0.067785 79
-0.237393 4.337432 -0.025778 101
-0.507092 4.281359 -0.274265 100
-0.657000 4.356684 0.134614 101
-0.927861 4.284741 -0.186046 1
-0.238183 4.365313 0.041205 97
-0.504930 4.269252 -0.207248 101
-0.757731 4.133383 -0.564434 34
-0.926790 4.283276 -0.118584 29
-0.239046 4.394716 0.244525 100
-0.364655 4.236597 -0.410195 101
-0.512771 4.341816 -0.009157 79
-0.773181 4.221666 -0.322708 80
-0.933847 4.319405 0.084081 51
-0.364438 4.242435 -0.344839 83
-0.511997 4.341530 0.057991 69
-0.789082 4.312582 -0.262004 92
-0.227201 4.229445 -0.416791 100
-0.367564 4.304300 -0.017342 100
-0.640433 4.276088 -0.266726 101
-0.791784 4.339715 0.075460 100
-0.225740 4.215473 -0.350039 101
-0.370216 4.343972 0.049462 100
-0.640835 4.283694 -0.200474 92
-0.794337 4.357862 0.143851 38
-0.229487 4.298986 -0.157861 100
-0.372623 4.380923 0.252745 45
-0.497335 4.247920 -0.404289 101
-0.653805 4.375422 -0.000772 80
-0.228440 4.292952 -0.091553 101
-0.497746 4.257630 -0.338870 100
-0.652403 4.371071 0.067112 93
-0.928217 4.317979 -0.255434 1
-0.232148 4.376501 0.108641 97
-0.352431 4.160096 -0.762189 101
-0.502948 4.308407 -0.142379 100
-0.767498 4.222700 -0.455640 50
-0.932337 4.340697 -0.051919 51
-0.231085 4.370367 0.175777 76
-0.357667 4.230367 -0.475454 101
-0.501028 4.298238 -0.075534 100
-0.771506 4.248814 -0.391476 94
-0.931664 4.341122 0.016273 60
-0.359089 4.255713 -0.279925 101
-0.508959 4.372675 0.126040 92
-0.624162 4.196358 -0.622850 100
-0.781038 4.305427 -0.194108 94
-0.360032 4.275479 -0.215101 100
-0.511631 4.402078 0.195043 62
-0.628826 4.232612 -0.462589 100
-0.785031 4.331589 -0.127577 99
-0.215501 4.137833 -0.861233 101
-0.358982 4.286398 -0.149457 101
-0.627278 4.235487 -0.396446 100
-0.784022 4.337300 -0.060007 101
-0.217573 4.191204 -0.478170 100
-0.360742 4.316138 -0.083919 100
-0.630301 4.260842 -0.332178 83
-0.789051 4.369318 0.007749 78
-0.220251 4.256615 -0.287586 100
-0.363611 4.359302 0.116841 100
-0.481203 4.169101 -0.683038 101
-0.635827 4.303203 -0.134422 100
-0.220148 4.268539 -0.222506 100
-0.363680 4.369009 0.184516 96
-0.486179 4.218441 -0.467303 101
-0.637082 4.316715 -0.067785 84
-0.222393 4.326211 -0.025706 101
-0.492435 4.279051 -0.274011 100
-0.643132 4.362794 0.134736 101
-0.909483 4.268251 -0.185198 40
-0.222887 4.350100 0.041054 97
-0.492138 4.282810 -0.207826 101
-0.646096 4.388012 0.203734 11
-0.744722 4.139775 -0.564967 41
-0.916744 4.305881 -0.119125 69
-0.223860 4.383519 0.243859 100
-0.350604 4.237782 -0.410195 101
-0.496091 4.323623 -0.009115 83
-0.762705 4.243836 -0.324208 95
-0.922014 4.334213 0.084310 57
-0.351352 4.255540 -0.345808 83
-0.499873 4.363072 0.058256 78
-0.777599 4.330895 -0.262958 88
-0.213375 4.234150 -0.417183 100
-0.353289 4.305495 -0.017342 100
-0.625093 4.270288 -0.266234 101
-0.778093 4.346254 0.075529 100
-0.212159 4.224161 -0.350700 101
-0.356788 4.357135 0.049598 101
-0.626048 4.281842 -0.200289 96
-0.779177 4.356536 0.143721 49
-0.215229 4.299723 -0.157861 100
-0.358093 4.382135 0.252745 65
-0.481896 4.237676 -0.403160 101
-0.636402 4.357776 -0.000769 72
-0.903786 4.269698 -0.319729 1
-0.215199 4.313656 -0.091979 101
-0.485424 4.275106 -0.340131 100
-0.636750 4.365295 0.066991 86
-0.906456 4.285871 -0.253356 31
-0.216641 4.357277 0.108145 97
-0.337995 4.153398 -0.760752 101
-0.487757 4.302106 -0.142117 100
-0.753491 4.225222 -0.455640 59
-0.909668 4.304632 -0.051451 57
-0.216987 4.379092 0.176098 81
-0.342671 4.219643 -0.474119 101
-0.489021 4.319746 -0.075883 101
-0.760207 4.267037 -0.392920 98
-0.921395 4.363756 0.016347 67
-0.344975 4.256881 -0.279925 101
-0.494007 4.370366 0.125926 76
-0.610812 4.202322 -0.623431 101
-0.766756 4.307993 -0.194108 100
-0.346175 4.280632 -0.215301 101
-0.497926 4.411692 0.195394 63
-0.614215 4.230739 -0.462159 100
-0.771363 4.338105 -0.127693 96
-0.200265 4.122915 -0.857977 101
-0.343666 4.283643 -0.149318 101
-0.613028 4.241598 -0.396815 100
-0.766055 4.324263 -0.059789 100
-0.202538 4.184000 -0.477265 100
-0.345335 4.313386 -0.083842 100
-0.615404 4.263020 -0.332178 83
-0.768198 4.340539 0.007693 76
-0.204999 4.249385 -0.287047 100
-0.349021 4.368517 0.117054 100
-0.467079 4.174680 -0.683680 101
-0.621366 4.309355 -0.134546 93
-0.891167 4.248020 -0.452375 0
-0.205635 4.277261 -0.222922 100
-0.348115 4.366267 0.184347 98
-0.472338 4.228014 -0.468178 101
-0.622014 4.318912 -0.067785 81
-0.900776 4.297362 -0.389547 1
-0.207498 4.330956 -0.025730 101
-0.477512 4.280743 -0.274011 100
-0.628486 4.368967 0.134858 100
-0.900330 4.298777 -0.186385 57
-0.207539 4.346855 0.041016 100
-0.478540 4.296412 -0.208404 101
-0.631941 4.398147 0.204101 27
-0.737178 4.181386 -0.570292 50
-0.900918 4.305134 -0.119017 53
-0.208788 4.388261 0.244081 100
-0.335849 4.238977 -0.410195 101
-0.482363 4.337250 -0.009140 84
-0.744467 4.226824 -0.322708 100
-0.910195 4.353055 0.084614 55
-0.336862 4.260711 -0.346131 83
-0.482487 4.344908 0.057991 84
-0.761838 4.329642 -0.262720 100
-0.198868 4.238842 -0.417575 100
-0.339600 4.322646 -0.017406 100
-0.611965 4.284287 -0.266973 100
-0.760242 4.333171 0.075255 99
-0.197698 4.228853 -0.351030 101
-0.341679 4.358346 0.049598 101
-0.611199 4.283987 -0.200289 92
-0.768209 4.382839 0.144500 60
-0.200890 4.312422 -0.158301 100
-0.342910 4.383349 0.252745 80
-0.468521 4.251194 -0.404289 101
-0.621865 4.363914 -0.000769 85
-0.892239 4.288426 -0.320898 31
-0.200081 4.310380 -0.091894 101
-0.470186 4.272797 -0.339816 100
-0.621635 4.367474 0.066991 95
-0.891615 4.288983 -0.253356 51
-0.201569 4.358001 0.108145 97
-0.323627 4.154542 -0.760752 101
-0.473311 4.307742 -0.142248 99
-0.736818 4.216048 -0.454373 76
-0.892333 4.296004 -0.051311 42
-0.201484 4.371831 0.175777 71
-0.328395 4.224765 -0.474564 101
-0.472781 4.309484 -0.075674 101
-0.742030 4.250017 -0.391114 100
-0.898993 4.331666 0.016215 61
-0.329656 4.250088 -0.279402 101
-0.478912 4.372046 0.125926 84
-0.594630 4.192651 -0.621688 101
-0.751876 4.310616 -0.194108 94
-0.331095 4.277818 -0.215101 101
-0.479226 4.381604 0.193987 66
-0.599057 4.228895 -0.461729 100
-0.753645 4.324985 -0.127229 100
-0.186225 4.131413 -0.859605 101
-0.329935 4.300760 -0.149873 101
-0.597663 4.239768 -0.396446 99
-0.753008 4.338733 -0.059952 100
-0.187932 4.184681 -0.477265 100
-0.331192 4.326528 -0.084074 100
-0.602188 4.276989 -0.333101 93
-0.752358 4.339252 0.007686 82
-0.189808 4.242101 -0.286509 100
-0.332856 4.357748 0.116734 100
-0.450803 4.160585 -0.681110 101
-0.605206 4.303579 -0.134298 100
-0.875530 4.247209 -0.451960 1
-0.190703 4.277953 -0.222922 100
-0.333175 4.371440 0.184516 100
-0.458432 4.237543 -0.469053 101
-0.608604 4.332939 -0.067972 74
-0.878535 4.265358 -0.386366 23
-0.192556 4.335650 -0.025754 101
-0.462995 4.286352 -0.274265 100
-0.613787 4.375094 0.134980 100
-0.881291 4.282321 -0.185537 49
-0.192718 4.355545 0.041091 98
-0.461398 4.278194 -0.207441 100
-0.614366 4.384498 0.203367 58
-0.723252 4.187841 -0.570824 63
-0.885885 4.308253 -0.119017 50
-0.192766 4.373003 0.243194 100
-0.321050 4.240124 -0.410195 101
-0.466363 4.330954 -0.009123 77
-0.729030 4.225467 -0.322409 100
-0.890970 4.336619 0.084234 61
-0.320185 4.238008 -0.344194 83
-0.465607 4.330659 0.057778 72
-0.744686 4.320470 -0.262004 101
-0.183725 4.231556 -0.416791 100
-0.323312 4.307850 -0.017342 100
-0.596455 4.282444 -0.266726 101
-0.744435 4.331856 0.075187 99
-0.182764 4.225534 -0.350700 101
-0.325866 4.351535 0.049507 101
-0.597342 4.294010 -0.200659 86
-0.751553 4.377614 0.144241 67
-0.185320 4.301116 -0.157861 100
-0.327905 4.388502 0.252974 100
-0.453679 4.252804 -0.404289 101
-0.608831 4.381906 -0.000772 72
-0.872471 4.268064 -0.319144 65
-0.185033 4.311052 -0.091894 101
-0.455691 4.278378 -0.340131 100
-0.604187 4.353771 0.066748 80
-0.870245 4.260769 -0.251508 45
-0.187038 4.374658 0.108541 97
-0.309415 4.159570 -0.761470 101
-0.459116 4.317318 -0.142511 100
-0.723439 4.226436 -0.455217 98
-0.878932 4.306931 -0.051404 46
-0.186732 4.384487 0.176259 73
-0.313940 4.229850 -0.475009 101
-0.457735 4.311108 -0.075674 101
-0.728533 4.260435 -0.391837 101
-0.883867 4.334777 0.016215 64
-0.315408 4.259173 -0.279925 101
-0.464069 4.377667 0.126040 86
-0.579991 4.194701 -0.621688 101
-0.735479 4.305336 -0.193753 100
-0.317043 4.290900 -0.215702 101
-0.465611 4.399146 0.194691 65
-0.585379 4.238839 -0.462589 100
-0.740561 4.339414 -0.127577 100
-0.171965 4.135951 -0.860419 101
-0.313461 4.281951 -0.149179 101
-0.582859 4.241828 -0.396446 100
-0.739198 4.349221 -0.060061 100
-0.173653 4.193254 -0.478170 100
-0.314922 4.311703 -0.083764 100
-0.585628 4.267212 -0.332178 100
-0.738546 4.349740 0.007700 96
-0.174999 4.242738 -0.286509 100
-0.317062 4.350907 0.116520 101
-0.437100 4.169986 -0.682395 101
-0.589094 4.297743 -0.134051 98
-0.858330 4.238541 -0.450716 21
-0.175441 4.270610 -0.222506 100
-0.317624 4.368591 0.184347 100
-0.441982 4.223300 -0.467303 101
-0.591848 4.323149 -0.067785 86
-0.862061 4.260589 -0.385659 56
-0.177421 4.336296 -0.025754 101
-0.447201 4.280002 -0.273757 101
-0.597969 4.373249 0.134858 100
-0.863170 4.269703 -0.184859 52
-0.177350 4.352195 0.041054 100
-0.446876 4.283752 -0.207633 101
-0.599599 4.390574 0.203550 40
-0.708629 4.190340 -0.570824 89
-0.864507 4.279964 -0.118151 46
-0.178310 4.393602 0.244303 100
-0.306247 4.241219 -0.410195 101
-0.451243 4.332555 -0.009123 79
-0.717598 4.247651 -0.323908 100
-0.875827 4.339702 0.084234 66
-0.178377 4.413284 0.313507 4
-0.306535 4.255006 -0.345485 83
-0.452969 4.356127 0.058097 82
-0.726942 4.307294 -0.261050 100
-0.169588 4.248082 -0.418358 100
-0.309129 4.320921 -0.017390 100
-0.583114 4.296368 -0.267465 100
-0.730636 4.342317 0.075323 86
-0.167696 4.218181 -0.350039 101
-0.309251 4.332698 0.049280 100
-0.580203 4.280231 -0.199919 98
-0.735605 4.376267 0.144111 76
-0.846062 4.210175 -0.538695 1
-0.170937 4.317714 -0.158447 100
-0.312584 4.389619 0.252974 100
-0.439240 4.258323 -0.404666 100
-0.590848 4.364185 -0.000769 77
-0.855997 4.263260 -0.318560 59
-1.020439 4.361227 0.093822 0
-0.170299 4.319664 -0.092064 101
-0.440754 4.279942 -0.340131 100
-0.591666 4.375670 0.067052 75
-0.854582 4.259865 -0.251277 52
-0.171924 4.379280 0.108641 97
-0.295450 4.168475 -0.762907 101
-0.444861 4.326849 -0.142773 101
-0.709997 4.236781 -0.456062 100
-0.868609 4.333503 -0.051685 53
-0.170958 4.373131 0.175777 78
-0.298051 4.215059 -0.473228 101
-0.441458 4.300744 -0.075464 101
-0.709053 4.235449 -0.389309 101
-0.867945 4.333914 0.016200 74
-0.300819 4.264230 -0.280187 101
-0.447970 4.371305 0.125811 87
-0.565345 4.196700 -0.621688 101
-0.719786 4.303936 -0.193576 100
-0.302063 4.291980 -0.215702 101
-0.450252 4.400744 0.194691 68
-0.571110 4.244798 -0.463019 100
-0.726068 4.345916 -0.127693 90
-0.157408 4.132611 -0.859605 101
-0.298544 4.283017 -0.149179 101
-0.567552 4.239885 -0.396077 100
-0.722075 4.339933 -0.059898 100
-0.158130 4.170005 -0.475453 100
-0.298779 4.296816 -0.083454 100
-0.570220 4.265275 -0.331870 89
-0.722722 4.348342 0.007693 74
-0.160195 4.243322 -0.286509 100
-0.302710 4.363954 0.116841 101
-0.421753 4.163630 -0.681110 101
-0.575683 4.311661 -0.134422 100
-0.844313 4.245412 -0.451131 54
-0.160678 4.275188 -0.222714 100
-0.302920 4.377647 0.184684 100
-0.428833 4.240641 -0.469053 101
-0.578864 4.341047 -0.068034 84
-0.844073 4.247941 -0.384245 57
-0.161967 4.328895 -0.025706 101
-0.432642 4.285510 -0.274011 101
-0.583211 4.379274 0.134980 97
-0.848244 4.272694 -0.184859 57
-0.161682 4.340797 0.040941 100
-0.431091 4.277339 -0.207248 100
-0.583713 4.388684 0.203367 41
-0.692675 4.184970 -0.569759 100
-0.852646 4.298650 -0.118584 53
-0.162486 4.382226 0.243637 100
-0.290582 4.230348 -0.409043 101
-0.436076 4.334108 -0.009123 72
-0.699473 4.230460 -0.322409 100
-0.855190 4.315280 0.083701 92
-0.161739 4.381984 0.311242 24
-0.291356 4.252076 -0.345162 83
-0.435709 4.337789 0.057832 67
-0.714452 4.325572 -0.262004 101
-0.872749 4.407770 0.154555 17
-0.153947 4.228761 -0.416400 100
-0.292055 4.294045 -0.017277 100
-0.565932 4.282557 -0.266480 100
-0.712786 4.329070 0.075050 100
-0.152872 4.218744 -0.350039 101
-0.294023 4.333758 0.049280 100
-0.565681 4.286204 -0.200104 92
-0.718275 4.366991 0.143721 79
-0.825884 4.185865 -0.535210 27
-0.154887 4.294320 -0.157568 100
-0.296335 4.378739 0.252285 101
-0.423077 4.247953 -0.403536 100
-0.573405 4.350374 -0.000766 86
-0.838683 4.254503 -0.317683 67
-1.001505 4.349200 0.093487 0
-0.154807 4.312244 -0.091894 101
-0.424898 4.273531 -0.339501 100
-0.575217 4.369795 0.066930 83
-0.839583 4.262847 -0.251277 56
-0.156068 4.367870 0.108343 97
-0.279707 4.153786 -0.760034 101
-0.428037 4.312476 -0.142248 100
-0.691850 4.219629 -0.453950 100
-0.853338 4.336536 -0.051685 65
-0.156108 4.389684 0.176419 76
-0.284255 4.231949 -0.475009 101
-0.428266 4.322173 -0.075813 101
-0.697981 4.261510 -0.391476 101
-0.854205 4.344796 0.016229 86
-0.285239 4.257300 -0.279664 101
-0.433332 4.380816 0.126040 80
-0.548992 4.186896 -0.619945 100
-0.705242 4.310392 -0.193753 100
-0.286907 4.293020 -0.215702 101
-0.434710 4.402307 0.194691 70
-0.556634 4.250731 -0.463449 100
-0.708784 4.336615 -0.127345 99
-0.142711 4.125308 -0.857977 101
-0.283327 4.280044 -0.149040 101
-0.550690 4.226042 -0.394602 100
-0.704993 4.330584 -0.059734 100
-0.144120 4.186419 -0.477265 100
-0.284569 4.309805 -0.083687 101
-0.555843 4.271194 -0.332178 100
-0.703687 4.327149 0.007652 76
-0.145519 4.247845 -0.286778 100
-0.288264 4.376954 0.117161 101
-0.406449 4.157218 -0.679825 101
-0.560114 4.309680 -0.134298 100
-0.824152 4.221000 -0.448228 52
-0.145890 4.279716 -0.222922 100
-0.287637 4.378678 0.184684 100
-0.413256 4.234198 -0.468178 101
-0.562677 4.335109 -0.067909 86
-0.824662 4.227397 -0.382124 58
-0.146991 4.333431 -0.025730 101
-0.416906 4.279047 -0.273503 101
-0.565865 4.365424 0.134492 97
-0.835618 4.287396 -0.185367 68
-0.146663 4.345333 0.040978 100
-0.416931 4.286770 -0.207633 101
-0.568390 4.390695 0.203367 60
-0.677429 4.183449 -0.569227 101
-0.836871 4.297675 -0.118476 67
-0.147189 4.382766 0.243637 100
-0.275555 4.227364 -0.408659 101
-0.419784 4.323660 -0.009098 81
-0.685976 4.240751 -0.323008 100
-0.843940 4.337868 0.084081 100
-0.146442 4.382522 0.311242 23
-0.277029 4.261024 -0.345808 83
-0.422880 4.363170 0.058150 86
-0.699349 4.328040 -0.262004 100
-0.859646 4.422563 0.154968 20
-0.138923 4.221315 -0.415616 100
-0.277579 4.303021 -0.017309 100
-0.550980 4.284506 -0.266480 101
-0.698942 4.339429 0.075187 100
-0.138666 4.235188 -0.351361 101
-0.280178 4.354715 0.049507 100
-0.551733 4.296079 -0.200474 86
-0.706202 4.389207 0.144371 68
-0.816550 4.215998 -0.538695 51
-0.140547 4.314810 -0.158301 100
-0.282071 4.395688 0.253204 101
-0.408246 4.249404 -0.403536 101
-0.559233 4.360284 -0.000767 86
-0.822311 4.249571 -0.317098 69
-0.993388 4.383872 0.094157 4
-0.139753 4.312758 -0.091894 101
-0.408836 4.263080 -0.338555 100
-0.560468 4.375743 0.066991 77
-0.826214 4.273593 -0.251739 58
-0.141078 4.376381 0.108541 97
-0.265457 4.158664 -0.760752 101
-0.412219 4.305984 -0.141986 100
-0.679636 4.237729 -0.455640 100
-0.839713 4.347342 -0.051779 89
-0.140144 4.370228 0.175617 78
-0.268976 4.224981 -0.474119 101
-0.411654 4.307716 -0.075534 100
-0.679320 4.240319 -0.389309 101
-0.837517 4.339897 0.016200 87
-0.270376 4.258270 -0.279664 101
-0.416899 4.370361 0.125697 86
-0.536376 4.204490 -0.622269 101
-0.690192 4.312827 -0.193753 100
-0.271919 4.293995 -0.215702 101
-0.420098 4.411754 0.195043 66
-0.539783 4.236869 -0.461729 100
-0.694273 4.343010 -0.127461 100
-0.128188 4.121866 -0.857163 101
-0.269136 4.292976 -0.149457 101
-0.536436 4.231890 -0.394971 100
-0.690501 4.336968 -0.059789 100
-0.129629 4.190869 -0.477718 100
-0.269024 4.302789 -0.083532 101
-0.539928 4.265195 -0.331563 97
-0.691091 4.345381 0.007679 96
-0.130322 4.236360 -0.285970 100
-0.271490 4.353988 0.116520 101
-0.392676 4.166473 -0.681110 101
-0.543061 4.295743 -0.133804 100
-0.806417 4.208222 -0.446570 52
-0.130950 4.280199 -0.222922 100
-0.271359 4.363700 0.184011 100
-0.398101 4.231656 -0.467740 101
-0.546039 4.325142 -0.067723 86
-0.812149 4.241990 -0.383184 49
-0.979663 4.363304 0.024976 2
-0.131986 4.337916 -0.025754 101
-0.401221 4.272528 -0.272995 101
-0.549623 4.359439 0.134247 100
-0.819145 4.282436 -0.185028 86
-0.131978 4.361810 0.041129 100
-0.401965 4.288200 -0.207633 100
-0.554558 4.404545 0.203918 74
-0.663442 4.189704 -0.569759 101
-0.827869 4.331990 -0.119342 75
-0.132129 4.391237 0.244081 100
-0.261532 4.240222 -0.409811 101
-0.406180 4.341029 -0.009132 77
-0.665560 4.207662 -0.320309 100
-0.828043 4.336859 0.084005 101
-0.131860 4.406936 0.312941 31
-0.261419 4.250027 -0.344839 83
-0.406159 4.348690 0.057938 76
-0.681121 4.310735 -0.260811 101
-0.840457 4.405902 0.154280 36
-0.124538 4.233711 -0.416791 100
-0.263044 4.311949 -0.017342 100
-0.535030 4.278481 -0.265987 101
-0.685035 4.349744 0.075323 100
-0.123649 4.227677 -0.350700 101
-0.264975 4.355667 0.049507 100
-0.536734 4.297979 -0.200474 100
-0.688391 4.375848 0.143851 70
-0.792936 4.172033 -0.532721 44
-0.979593 4.390627 -0.113085 1
-0.125019 4.299292 -0.157715 100
-0.266000 4.384687 0.252515 101
-0.392676 4.242873 -0.402784 101
-0.544010 4.362209 -0.000767 81
-0.805984 4.244577 -0.316514 68
-0.970248 4.352183 0.093403 47
-0.124814 4.317217 -0.091979 101
-0.394319 4.268452 -0.338870 101
-0.543213 4.361798 0.066748 84
-0.812780 4.284298 -0.252201 72
-0.125456 4.364856 0.108244 97
-0.250939 4.159565 -0.760752 101
-0.397186 4.307397 -0.141986 101
-0.665456 4.244005 -0.456062 100
-0.823043 4.342388 -0.051685 100
-0.125231 4.382676 0.176098 81
-0.254704 4.233830 -0.475009 101
-0.398081 4.325057 -0.075813 101
-0.665747 4.250536 -0.390031 101
-0.823108 4.346724 0.016215 90
-0.254554 4.243250 -0.278617 101
-0.402006 4.375772 0.125811 82
-0.521210 4.202409 -0.621688 101
-0.673898 4.307314 -0.193399 100
-0.256690 4.290931 -0.215501 100
-0.402871 4.393296 0.194163 77
-0.524012 4.230834 -0.460869 100
-0.674170 4.313804 -0.126534 93
-0.113583 4.114459 -0.855535 101
-0.252968 4.273936 -0.148762 101
-0.522147 4.237689 -0.395340 100
-0.674743 4.335401 -0.059734 100
-0.114890 4.187323 -0.477265 100
-0.253768 4.299709 -0.083454 101
-0.525524 4.271012 -0.331870 100
-0.674690 4.339861 0.007665 96
-0.115534 4.236789 -0.285970 100
-0.256290 4.354909 0.116520 100
-0.378129 4.167818 -0.681110 101
-0.529038 4.305549 -0.134051 92
-0.791723 4.211011 -0.446570 57
-0.964267 4.362489 -0.043669 10
-0.115792 4.272644 -0.222506 100
-0.257062 4.380579 0.184684 100
-0.382968 4.229060 -0.467303 101
-0.530451 4.323052 -0.067661 94
-0.798072 4.248715 -0.383538 59
-0.965289 4.370603 0.024999 42
-0.116843 4.338350 -0.025754 101
-0.387023 4.281854 -0.273503 101
-0.537807 4.389110 0.135102 83
-0.808615 4.308836 -0.186046 95
-0.116645 4.358246 0.041091 100
-0.385558 4.273660 -0.206863 101
-0.536753 4.386623 0.203000 83
-0.650026 4.199830 -0.570824 101
-0.809795 4.319133 -0.118909 88
-0.116800 4.391672 0.244081 100
-0.246961 4.245083 -0.410195 101
-0.391383 4.346405 -0.009140 74
-0.655135 4.237553 -0.322409 100
-0.814372 4.347585 0.084157 101
-0.116159 4.395403 0.312091 33
-0.246813 4.254894 -0.345162 83
-0.392051 4.362032 0.058097 72
-0.666069 4.313087 -0.260811 100
-0.822867 4.397021 0.153868 39
-0.109862 4.238100 -0.417183 100
-0.248450 4.320828 -0.017374 100
-0.520092 4.280322 -0.265987 101
-0.668022 4.340250 0.075118 100
-0.937936 4.270629 -0.177143 0
-0.108685 4.220113 -0.350039 101
-0.249999 4.360559 0.049552 101
-0.520765 4.291893 -0.200104 100
-0.670075 4.358467 0.143202 67
-0.776186 4.163071 -0.531227 46
-0.949690 4.327621 -0.111377 1
-0.110216 4.307694 -0.158008 100
-0.250693 4.385589 0.252515 101
-0.378217 4.248184 -0.403160 101
-0.528298 4.360111 -0.000767 78
-0.793354 4.259130 -0.317391 73
-0.959332 4.375075 0.093822 46
-0.109743 4.317626 -0.091979 101
-0.379064 4.265830 -0.338555 100
-0.528465 4.367638 0.066809 89
-0.798550 4.291035 -0.252432 82
-0.110724 4.385255 0.108740 97
-0.235525 4.144701 -0.757879 101
-0.381795 4.304775 -0.141854 100
-0.648830 4.234507 -0.454795 100
-0.810074 4.357031 -0.051825 88
-0.109831 4.379091 0.175938 85
-0.239249 4.222787 -0.473674 101
-0.381218 4.306501 -0.075464 101
-0.650906 4.252834 -0.390031 101
-0.809391 4.357436 0.016244 87
-0.240867 4.264039 -0.279925 101
-0.387785 4.389097 0.126155 72
-0.506064 4.200274 -0.621107 101
-0.659462 4.313591 -0.193576 100
-0.241037 4.279834 -0.214900 101
-0.388235 4.402637 0.194515 84
-0.509241 4.232637 -0.460869 100
-0.659711 4.320084 -0.126650 101
-0.099315 4.118746 -0.856349 101
-0.238714 4.286767 -0.149179 101
-0.382366 4.367564 0.260474 5
-0.507825 4.243441 -0.395709 100
-0.658403 4.329821 -0.059626 93
-0.100083 4.179752 -0.476359 100
-0.239201 4.308555 -0.083609 101
-0.510612 4.272820 -0.331870 98
-0.657134 4.326372 0.007638 93
-0.100934 4.245146 -0.286509 100
-0.240866 4.351785 0.116414 101
-0.362207 4.153380 -0.678540 101
-0.512585 4.295459 -0.133681 98
-0.779905 4.229399 -0.448228 56
-0.933740 4.295475 -0.042965 44
-0.101066 4.281009 -0.222922 100
-0.241108 4.369479 0.184179 100
-0.368204 4.230371 -0.467303 101
-0.515357 4.324877 -0.067661 76
-0.781793 4.243638 -0.382831 76
-0.942386 4.338766 0.024798 46
-0.101605 4.334733 -0.025730 101
-0.372074 4.283179 -0.273503 101
-0.521538 4.383020 0.134858 95
-0.795016 4.319494 -0.186385 91
-0.101617 4.366624 0.041167 95
-0.370637 4.274980 -0.206863 101
-0.523323 4.404342 0.203734 77
-0.634769 4.198153 -0.570292 101
-0.799052 4.345529 -0.119558 92
-0.101193 4.380075 0.243415 97
-0.231272 4.230017 -0.408659 101
-0.374485 4.327819 -0.009098 91
-0.637956 4.224038 -0.321209 100
-0.797746 4.342534 0.084005 101
-0.100724 4.391793 0.311808 48
-0.231742 4.251749 -0.344839 83
-0.375446 4.347435 0.057885 70
-0.651605 4.319333 -0.261050 100
-0.805348 4.388071 0.153455 47
-0.094621 4.218558 -0.415224 100
-0.231856 4.293710 -0.017261 100
-0.502809 4.262287 -0.264756 101
-0.652867 4.342555 0.075118 100
-0.924711 4.281690 -0.177467 11
-0.094042 4.224452 -0.350369 101
-0.233701 4.341434 0.049325 100
-0.505781 4.293684 -0.200104 100
-0.656638 4.372640 0.143592 76
-0.758794 4.150138 -0.529235 51
-0.926143 4.291822 -0.110371 38
-0.095002 4.300060 -0.157715 100
-0.235169 4.382450 0.252285 101
-0.363725 4.253447 -0.403536 100
-0.511206 4.346038 -0.000764 86
-0.781350 4.277571 -0.318560 92
-0.939840 4.358850 0.093403 51
-0.094759 4.321981 -0.092064 101
-0.365867 4.286993 -0.340131 100
-0.513682 4.373428 0.066869 88
-0.787868 4.317367 -0.253817 93
-0.094894 4.361628 0.108145 97
-0.221475 4.153357 -0.759315 101
-0.366766 4.306081 -0.141854 101
-0.632867 4.228878 -0.453950 100
-0.790556 4.336223 -0.051545 100
-0.094372 4.371456 0.175617 80
-0.224296 4.219627 -0.473228 101
-0.365844 4.303821 -0.075394 101
-0.633112 4.235381 -0.388225 101
-0.792025 4.348429 0.016200 87
-0.224714 4.240938 -0.278356 101
-0.370772 4.370503 0.125582 82
-0.489101 4.182361 -0.618202 101
-0.642631 4.304009 -0.193044 100
-0.227149 4.300597 -0.215902 101
-0.373539 4.411929 0.194867 66
-0.496308 4.250189 -0.462589 100
-0.646397 4.334224 -0.126998 100
-0.085099 4.126898 -0.857977 101
-0.223124 4.275599 -0.148762 101
-0.366784 4.364893 0.260236 9
-0.491631 4.233319 -0.394602 100
-0.642110 4.324181 -0.059517 100
-0.085736 4.191997 -0.477718 100
-0.223952 4.305370 -0.083532 100
-0.493856 4.258730 -0.330640 91
-0.644376 4.344466 0.007665 100
-0.919744 4.299866 -0.245838 3
-0.086358 4.257442 -0.287316 100
-0.226710 4.372565 0.116948 101
-0.348694 4.166422 -0.680468 101
-0.499427 4.313108 -0.134175 84
