# This PCD file was generated using the MATLAB® pcwrite function
# from Computer Vision Toolbox®.
# .PCD v.7 - Point Cloud Data file format
VERSION .7
FIELDS x y z intensity
SIZE 4 4 4 1
TYPE F F F U
COUNT 1 1 1 1
WIDTH 1503
HEIGHT 1
VIEWPOINT 0 0 0 1 0 0 0
POINTS 1503
DATA ascii
0.573486 4.035421 -0.016362 100
0.449412 4.088834 0.391009 101
0.312958 4.020172 -0.248747 101
0.186773 4.067118 0.069645 101
0.059865 4.243079 -1.509541 29
-0.070991 4.036064 -0.163542 101
-0.202149 4.113117 0.220865 101
0.696599 3.989745 -0.335826 101
0.578070 4.062817 0.046557 101
0.315130 4.039389 -0.187528 101
0.188667 4.093494 0.133075 101
0.057105 4.000238 -0.501853 100
-0.070912 4.070096 -0.102330 101
-0.202251 4.129206 0.285463 101
0.581771 4.083961 0.237135 101
0.443377 4.021597 -0.382456 101
0.318635 4.075563 -0.000713 101
0.186468 4.031211 0.317602 163
0.058644 4.060693 -0.297517 101
-0.070862 4.106488 0.086031 101
0.586374 4.111372 0.302789 100
0.444201 4.022923 -0.319957 101
0.321776 4.106939 0.062557 101
0.059379 4.064773 -0.235110 101
-0.070489 4.124678 0.149825 101
-0.196911 4.047763 -0.472480 101
0.569034 3.985047 -0.734891 101
0.446897 4.041175 -0.133456 101
0.322829 4.111595 0.252972 100
0.186968 4.013071 -0.426502 101
0.060270 4.079276 -0.047709 101
-0.069680 4.117398 0.340007 77
-0.197093 4.065435 -0.282475 101
0.570452 3.990231 -0.451414 101
0.449063 4.054586 -0.071206 101
0.324109 4.119111 0.317203 100
0.188106 4.023089 -0.365112 101
0.061012 4.083517 0.014969 101
-0.195061 4.037405 -0.218206 101
0.574022 4.010435 -0.265537 101
0.450504 4.061416 0.116996 101
0.316073 4.008457 -0.590313 101
0.190674 4.063529 -0.180458 101
0.061978 4.102451 0.204255 101
-0.066866 4.030415 -0.412294 101
-0.196589 4.083144 -0.032107 101
0.576900 4.025767 -0.203885 101
0.454017 4.086878 0.180973 101
0.318594 4.031868 -0.437224 101
0.190894 4.053804 -0.117612 101
0.063032 4.126757 0.269067 100
-0.066618 4.056205 -0.352066 101
-0.196485 4.095173 0.030770 101
0.578801 4.020096 -0.141123 101
0.455470 4.075396 0.243631 100
0.317327 3.982289 -0.369894 101
0.194020 4.062993 -0.055378 101
0.065625 4.118110 0.332101 101
-0.063761 4.045218 -0.288581 101
-0.194109 4.102336 0.093916 101
0.698307 3.956858 -0.457794 100
0.582564 4.041462 -0.079115 101
0.456566 4.079050 0.307180 101
0.320310 4.011282 -0.310340 101
0.195863 4.087304 0.007142 101
-0.063088 4.045190 -0.226189 101
-0.193336 4.100444 0.156981 101
0.705363 3.992958 -0.273583 39
0.587707 4.072343 0.109899 100
0.443772 3.958790 -0.648340 101
0.324328 4.053103 -0.125650 101
0.197854 4.114531 0.197143 101
0.065686 4.037593 -0.420862 101
-0.062817 4.071321 -0.039798 101
0.588646 4.074050 0.173246 100
0.450238 4.010443 -0.444113 101
0.324159 4.042535 -0.063001 101
0.199331 4.130925 0.261648 101
0.066587 4.051537 -0.359500 101
-0.062874 4.119456 0.023010 101
0.582303 4.025422 0.368724 101
0.452713 4.026439 -0.257758 101
0.327282 4.072965 0.124841 101
0.067465 4.063782 -0.172478 101
-0.062227 4.122023 0.213165 101
-0.187875 4.027374 -0.404555 101
0.453772 4.029823 -0.195499 101
0.328729 4.082468 0.188133 100
0.193161 3.975567 -0.534615 101
0.068178 4.065940 -0.110037 101
-0.061962 4.150198 0.278597 101
-0.188397 4.053044 -0.344277 101
0.581044 4.007298 -0.390607 100
0.457659 4.058267 -0.008554 101
0.332270 4.117871 0.414539 17
0.194819 3.995960 -0.300815 101
0.069206 4.086674 0.077766 101
-0.063501 4.301233 -1.236906 12
-0.188627 4.072599 -0.157334 101
0.583076 4.016611 -0.328695 92
0.456051 4.037971 0.053905 101
0.198808 4.063881 -0.243153 101
0.070404 4.116963 0.141630 101
-0.059124 4.050445 -0.486623 92
-0.188038 4.074564 -0.094700 101
0.711661 3.997536 -0.399556 100
0.588146 4.037353 -0.016378 100
0.465478 4.103067 0.392523 101
0.328608 4.038951 -0.249979 101
0.202153 4.090409 0.070055 101
0.074808 4.250380 -1.512222 26
-0.056958 4.040284 -0.163703 101
-0.188337 4.125768 0.221508 101
0.711221 3.991214 -0.336156 101
0.592825 4.064733 0.046603 101
0.328904 4.034282 -0.187343 101
0.203350 4.100797 0.133335 101
0.071279 4.011919 -0.503346 100
-0.056648 4.066321 -0.102229 101
-0.187836 4.129887 0.285463 101
0.597177 4.089808 0.237594 100
0.457412 4.020024 -0.382456 101
0.331557 4.058479 -0.000711 101
0.200142 4.022570 0.316975 163
0.073104 4.076418 -0.298686 101
-0.056527 4.106710 0.086031 101
0.602453 4.121142 0.303662 96
0.459144 4.029272 -0.320587 101
0.335783 4.101804 0.062496 101
0.073712 4.072526 -0.235572 101
-0.056037 4.120902 0.149680 101
-0.182243 4.036519 -0.471091 101
0.582371 3.979143 -0.734172 101
0.460094 4.031646 -0.133194 101
0.335547 4.090547 0.251748 100
0.200577 4.004448 -0.425658 101
0.074363 4.071043 -0.047616 101
-0.054932 4.089713 0.337703 72
-0.182721 4.062112 -0.282198 101
0.584377 3.988216 -0.451414 101
0.462759 4.049021 -0.071136 101
0.338812 4.121929 0.317509 100
0.201948 4.018429 -0.364751 101
0.075561 4.099276 0.015027 101
-0.181860 4.058012 -0.219284 101
0.588596 4.012356 -0.265798 101
0.466042 4.071736 0.117340 100
0.329089 3.995496 -0.588570 101
0.205260 4.070820 -0.180813 101
0.076818 4.130170 0.205648 101
-0.052901 4.038582 -0.413108 101
-0.183406 4.107781 -0.032295 101
0.591529 4.027681 -0.204085 101
0.469190 4.093209 0.181325 101
0.333975 4.046585 -0.438943 101
0.206053 4.073079 -0.118191 101
0.077737 4.142476 0.270108 99
-0.052459 4.056412 -0.352066 101
-0.182545 4.103827 0.030830 101
0.593395 4.022008 -0.141262 101
0.469674 4.073784 0.243631 101
0.331538 3.985128 -0.370262 101
0.208387 4.066287 -0.055433 101
0.080057 4.121842 0.332422 101
-0.049464 4.029458 -0.287443 101
-0.179107 4.087008 0.093551 101
0.709990 3.942665 -0.456435 100
0.594903 4.027537 -0.078883 101
0.470790 4.077432 0.307180 101
0.332973 3.994243 -0.309110 101
0.210117 4.086596 0.007142 101
-0.049075 4.053372 -0.226635 101
-0.178685 4.093107 0.156675 101
0.603084 4.078178 0.110112 100
0.457584 3.957217 -0.648340 101
0.337471 4.039994 -0.125279 101
0.211799 4.105835 0.196760 101
0.079775 4.037340 -0.420862 101
-0.048610 4.071516 -0.039798 101
0.603451 4.075923 0.173414 100
0.463780 4.004897 -0.443675 101
0.338938 4.049350 -0.063125 101
0.213546 4.126217 0.261395 101
0.080573 4.043313 -0.358793 101
-0.048397 4.111651 0.022966 101
0.468614 4.040695 -0.258774 101
0.342175 4.079765 0.125086 101
0.081499 4.055530 -0.172139 101
-0.048014 4.138193 0.213991 101
-0.174149 4.035958 -0.405353 101
0.467854 4.028212 -0.195499 101
0.342995 4.081294 0.188133 100
0.206642 3.966949 -0.533550 101
0.082387 4.065677 -0.110037 101
-0.047366 4.142408 0.278061 101
-0.174059 4.049695 -0.343939 101
0.596223 4.013118 -0.391375 100
0.471385 4.052669 -0.008545 101
0.345999 4.108752 0.413740 20
0.209623 4.011188 -0.302014 101
0.083168 4.070414 0.077461 101
-0.048200 4.278365 -1.230274 24
-0.174727 4.081221 -0.157642 101
0.598298 4.022434 -0.329341 89
0.472952 4.060187 0.054224 101
0.213024 4.063160 -0.243153 101
0.085219 4.136675 0.142318 101
-0.044997 4.054598 -0.487101 92
-0.173612 4.071202 -0.094607 101
0.723529 3.983268 -0.398380 100
0.601108 4.027355 -0.016346 100
0.479389 4.097456 0.392145 101
0.342083 4.029819 -0.249486 101
0.215427 4.069706 0.069713 101
0.089224 4.227485 -1.504178 26
-0.042801 4.040459 -0.163703 101
-0.173207 4.110439 0.220651 101
0.608254 4.070541 0.046694 101
0.344061 4.045048 -0.187898 101
0.217937 4.104051 0.133465 101
0.085090 3.999741 -0.501853 100
-0.042393 4.066494 -0.102229 101
-0.173859 4.142481 0.286290 101
0.612110 4.091638 0.237823 100
0.472902 4.030261 -0.383585 101
0.346809 4.069248 -0.000713 101
0.214675 4.029808 0.317602 138
0.086974 4.056195 -0.297225 101
-0.042123 4.106883 0.086031 101
0.614548 4.103221 0.302499 22
0.471885 4.015755 -0.319642 101
0.349495 4.092631 0.062375 101
0.088090 4.076235 -0.235803 101
-0.041736 4.137062 0.150261 101
-0.167911 4.033164 -0.470627 101
0.595756 3.973182 -0.733454 101
0.475181 4.037947 -0.133456 101
0.350588 4.097300 0.252238 100
0.215062 4.011663 -0.426502 101
0.088743 4.074755 -0.047662 101
-0.040651 4.097854 0.338362 93
-0.168623 4.066715 -0.282475 101
0.598974 3.990069 -0.451860 101
0.477449 4.051342 -0.071206 101
0.353290 4.120713 0.317509 100
0.216491 4.025651 -0.365473 101
0.089873 4.094986 0.015013 101
-0.166944 4.042663 -0.218421 101
0.604475 4.022104 -0.266583 101
0.480819 4.074044 0.117454 101
0.346178 4.029802 -0.593799 101
0.219782 4.074064 -0.180990 101
0.091334 4.129875 0.205648 101
-0.038706 4.038743 -0.413108 101
-0.167981 4.084421 -0.032107 101
0.606878 4.033477 -0.204486 101
0.483112 4.087565 0.181149 101
0.346838 4.029536 -0.437224 101
0.219511 4.056359 -0.117728 101
0.091859 4.122224 0.268806 100
-0.038044 4.040632 -0.350683 101
-0.167458 4.088457 0.030710 101
0.608028 4.023865 -0.141400 101
0.482949 4.064189 0.243156 101
0.344414 3.972042 -0.369156 101
0.221924 4.053554 -0.055269 101
0.094445 4.121538 0.332422 101
-0.035328 4.021626 -0.286874 101
-0.164840 4.087608 0.093551 101
0.610752 4.037298 -0.079115 101
0.486905 4.091608 0.308374 101
0.348294 4.008950 -0.310340 101
0.224819 4.093825 0.007156 101
-0.035133 4.077481 -0.227975 101
-0.164717 4.101694 0.156981 101
0.615520 4.064188 0.109792 100
0.472796 3.967357 -0.650267 101
0.351224 4.034809 -0.125156 101
0.226130 4.105071 0.196760 101
0.094145 4.048969 -0.422106 101
-0.034465 4.079659 -0.039877 101
0.618873 4.081695 0.173751 100
0.479642 4.019045 -0.445425 101
0.353419 4.052126 -0.063187 101
0.227948 4.125447 0.261395 101
0.094220 4.023090 -0.357026 101
-0.034012 4.107795 0.022943 101
0.482716 4.039034 -0.258774 101
0.355718 4.070580 0.124841 101
0.095750 4.059216 -0.172309 101
-0.033568 4.138335 0.213991 101
-0.159745 4.028588 -0.404555 101
0.483336 4.038455 -0.196077 101
0.358285 4.092013 0.188683 101
0.220268 3.962246 -0.533018 101
0.096674 4.069362 -0.110145 101
-0.032906 4.142548 0.278061 101
-0.160080 4.054261 -0.344277 101
0.609030 4.003140 -0.390607 100
0.486481 4.058942 -0.008562 101
0.358947 4.091660 0.412143 26
0.223401 4.006449 -0.301714 101
0.097281 4.066100 0.077385 101
-0.032967 4.240066 -1.219221 20
-0.160165 4.073818 -0.157334 101
0.612336 4.020321 -0.329341 89
0.487598 4.062483 0.054277 101
0.226983 4.058405 -0.242914 101
0.099273 4.120367 0.141768 101
-0.030904 4.062673 -0.488055 92
-0.159399 4.071783 -0.094607 101
0.614558 4.021278 -0.016330 100
0.493212 4.091804 0.391766 101
0.356147 4.028600 -0.249486 101
0.230308 4.080908 0.069919 101
0.103702 4.215846 -1.500156 23
-0.028668 4.036587 -0.163542 101
-0.159012 4.115010 0.220865 101
0.621854 4.064439 0.046648 101
0.358531 4.047802 -0.188083 101
0.233166 4.119231 0.133984 101
0.098757 3.987517 -0.500359 100
-0.028281 4.078613 -0.102531 101
-0.159091 4.135087 0.285739 101
0.486490 4.024632 -0.383209 101
0.361011 4.068013 -0.000713 101
0.227836 4.013108 0.316347 200
0.101132 4.055867 -0.297225 101
-0.027814 4.111004 0.086115 101
0.487337 4.025959 -0.320587 101
0.363779 4.091386 0.062375 101
0.102218 4.071911 -0.235572 101
-0.027189 4.121193 0.149680 101
-0.154135 4.041666 -0.471554 101
0.612009 3.986636 -0.736327 101
0.489755 4.040233 -0.133587 101
0.366660 4.115935 0.253462 101
0.229064 4.010889 -0.426502 101
0.102966 4.074420 -0.047662 101
-0.026449 4.113916 0.339678 101
-0.154881 4.079242 -0.283306 101
0.613502 3.991883 -0.452305 101
0.492069 4.053621 -0.071276 101
0.368381 4.127400 0.318121 98
0.230542 4.024871 -0.365473 101
0.103658 4.074654 0.014939 101
-0.152681 4.039230 -0.218206 101
0.618511 4.019969 -0.266583 101
0.494072 4.064403 0.117225 101
0.357776 4.000977 -0.589732 101
0.234231 4.077261 -0.181167 101
0.105954 4.137518 0.206045 101
-0.024802 4.070687 -0.416364 101
-0.154174 4.096974 -0.032201 101
0.621562 4.035283 -0.204686 101
0.497377 4.085854 0.181149 101
0.361612 4.036223 -0.438084 101
0.233669 4.055568 -0.117728 101
0.106659 4.137839 0.269847 100
-0.024058 4.060665 -0.352412 101
-0.153335 4.093013 0.030740 101
0.621459 4.017768 -0.141262 101
0.498588 4.074369 0.243868 101
0.360067 3.990650 -0.371000 101
0.236770 4.064733 -0.055433 101
0.108726 4.117197 0.332101 101
-0.021332 4.029705 -0.287443 101
-0.150571 4.088159 0.093551 101
0.624230 4.031190 -0.079038 101
0.501670 4.093843 0.308672 101
0.363363 4.019625 -0.311263 101
0.239108 4.093016 0.007156 101
-0.020777 4.053616 -0.226635 101
-0.150691 4.110232 0.157286 101
0.629090 4.058064 0.109685 100
0.485680 3.957845 -0.648982 101
0.365667 4.037540 -0.125279 101
0.240224 4.100268 0.196569 101
0.108278 4.048615 -0.422106 101
-0.020184 4.071755 -0.039798 101
0.628827 4.051865 0.172573 99
0.492213 4.005507 -0.444113 101
0.366838 4.042902 -0.063063 101
0.241879 4.116656 0.260890 101
0.108477 4.030703 -0.357733 101
-0.019692 4.111889 0.022966 101
0.496812 4.037324 -0.258774 101
0.370287 4.073296 0.124964 101
0.109702 4.050868 -0.171969 101
-0.019067 4.126443 0.213371 101
-0.145538 4.025144 -0.404155 101
0.496941 4.032779 -0.195884 101
0.372566 4.090738 0.188683 100
0.233863 3.957495 -0.532485 101
0.110660 4.061006 -0.109928 101
-0.018481 4.150620 0.278597 101
-0.145783 4.050812 -0.343939 101
0.623612 4.004924 -0.390991 100
0.499666 4.049279 -0.008545 101
0.372143 4.078491 0.410945 27
0.237621 4.009627 -0.302014 101
0.112131 4.089723 0.077842 101
-0.018100 4.224778 -1.214799 21
-0.146230 4.082341 -0.157642 101
0.626979 4.022098 -0.329664 89
0.501285 4.056787 0.054224 101
0.241148 4.057589 -0.242914 101
0.114096 4.135980 0.142318 101
-0.016706 4.058784 -0.487578 92
-0.145185 4.072315 -0.094607 101
0.627355 4.011204 -0.016298 100
0.507492 4.090057 0.391766 101
0.369842 4.023357 -0.249240 101
0.244312 4.076087 0.069850 101
0.120216 4.279500 -1.522947 23
-0.014535 4.024672 -0.163056 101
-0.144506 4.111548 0.220651 101
0.634800 4.054340 0.046557 100
0.369727 4.014695 -0.186603 101
0.246344 4.098439 0.133335 101
0.112675 3.987148 -0.500359 100
-0.013906 4.038700 -0.101526 101
-0.143958 4.115677 0.284361 101
0.500535 4.022909 -0.383209 101
0.374106 4.054779 -0.000711 101
0.243043 4.032191 0.317916 175
0.114949 4.043526 -0.296348 101
-0.013424 4.099079 0.085864 101
0.500401 4.016320 -0.319957 101
0.376586 4.074161 0.062132 101
0.116202 4.063546 -0.235110 101
-0.012816 4.125260 0.149825 101
-0.139751 4.034238 -0.470627 101
0.627753 3.996137 -0.738483 101
0.503360 4.034531 -0.133456 101
0.380656 4.110654 0.253217 95
0.242822 4.006094 -0.426080 101
0.117418 4.082032 -0.047756 101
-0.012030 4.094051 0.338033 101
-0.139678 4.051841 -0.281368 101
0.627433 3.989717 -0.452305 101
0.504729 4.039973 -0.071066 101
0.382417 4.122118 0.317815 100
0.244590 4.024041 -0.365473 101
0.118112 4.082264 0.014969 101
-0.138444 4.035747 -0.217990 101
0.630677 4.005957 -0.265798 101
0.509249 4.070588 0.117454 101
0.374303 4.027287 -0.593799 101
0.247489 4.060464 -0.180458 101
0.119699 4.113163 0.204852 101
-0.010468 4.022998 -0.411480 101
-0.139053 4.073502 -0.032012 101
0.633778 4.021250 -0.204085 101
0.510146 4.072197 0.180621 101
0.374593 4.023057 -0.436794 101
0.248068 4.058719 -0.117844 101
0.120985 4.133451 0.269587 100
-0.009883 4.060725 -0.352412 101
-0.139183 4.097521 0.030770 101
0.636094 4.019524 -0.141400 101
0.511798 4.064682 0.243393 101
0.372869 3.977473 -0.369894 101
0.249960 4.047914 -0.055215 101
0.123562 4.132734 0.333387 101
-0.007269 4.025765 -0.287158 101
-0.136443 4.092656 0.093642 101
0.637665 4.025037 -0.078960 101
0.514453 4.080194 0.307777 101
0.378131 4.026274 -0.311878 101
0.253140 4.088164 0.007149 101
-0.006666 4.073633 -0.227752 101
-0.136615 4.118723 0.157592 101
0.639491 4.032148 0.109044 59
0.500974 3.967877 -0.650910 101
0.380130 4.040220 -0.125403 101
0.255275 4.111368 0.197143 101
0.122407 4.048213 -0.422106 101
-0.005974 4.071801 -0.039798 101
0.510183 4.035322 -0.447613 101
0.380950 4.041596 -0.063063 101
0.256993 4.127739 0.261648 101
0.122669 4.034282 -0.358086 101
-0.005321 4.099933 0.022899 101
0.513415 4.055367 -0.260044 101
0.384885 4.075958 0.125086 101
0.124336 4.066438 -0.172648 101
-0.004680 4.146458 0.214404 101
-0.132000 4.041539 -0.405753 101
0.512030 4.038945 -0.196269 101
0.387230 4.093390 0.188867 101
0.248181 3.964567 -0.533550 101
0.124845 4.060594 -0.109928 101
-0.003986 4.154650 0.278865 101
-0.131762 4.055280 -0.344277 101
0.637602 4.002721 -0.390991 100
0.514315 4.051476 -0.008554 101
0.387518 4.089053 0.412143 33
0.250380 3.988868 -0.300515 101
0.125926 4.073317 0.077538 101
-0.003344 4.232504 -1.217010 21
-0.131836 4.078832 -0.157488 101
0.641033 4.019882 -0.329664 89
0.514957 4.051042 0.054171 101
0.255328 4.056721 -0.242914 101
0.128551 4.135556 0.142318 101
-0.002523 4.062790 -0.488055 92
-0.130951 4.072797 -0.094607 101
0.642015 4.012935 -0.016314 100
0.521293 4.084307 0.391388 101
0.383535 4.018064 -0.248994 101
0.257810 4.063234 0.069645 101
0.136019 4.305420 -1.532331 24
-0.000456 4.028695 -0.163218 101
-0.129996 4.108037 0.220436 101
0.648351 4.048145 0.046512 100
0.386055 4.037242 -0.187713 101
0.260430 4.093562 0.133205 101
0.127130 4.002596 -0.502350 100
0.000228 4.058718 -0.102028 101
-0.130435 4.144075 0.286290 101
0.513602 4.013233 -0.382456 101
0.388297 4.053444 -0.000711 101
0.255885 4.011417 0.316347 150
0.129738 4.063035 -0.297809 101
0.000926 4.111098 0.086115 101
0.516488 4.030364 -0.321218 101
0.393905 4.104667 0.062618 101
0.130685 4.071096 -0.235572 101
0.001629 4.129277 0.149970 101
-0.126120 4.050587 -0.472480 101
0.639872 3.982259 -0.736327 101
0.516469 4.024813 -0.133194 101
0.394669 4.105321 0.252972 100
0.257615 4.017128 -0.427347 101
0.131069 4.061608 -0.047522 101
0.002304 4.086095 0.337374 101
-0.125610 4.056294 -0.281644 101
0.640775 3.983570 -0.451860 101
0.519898 4.046113 -0.071206 101
0.396474 4.116783 0.317509 100
0.259452 4.035086 -0.366557 101
0.132413 4.081825 0.014969 101
-0.124304 4.036207 -0.217990 101
0.647250 4.019485 -0.266845 101
0.523000 4.064813 0.117340 100
0.384993 3.990497 -0.588570 101
0.262231 4.067547 -0.180813 101
0.134632 4.128690 0.205648 101
0.003673 4.070761 -0.416364 101
-0.124655 4.069966 -0.031981 101
0.647870 4.019003 -0.204085 101
0.528502 4.102091 0.182028 100
0.389457 4.029636 -0.437654 101
0.261778 4.049844 -0.117612 101
0.135604 4.136992 0.269847 100
0.004338 4.048779 -0.351374 101
-0.124575 4.089988 0.030710 101
0.649420 4.017393 -0.141400 101
0.525275 4.062962 0.243393 100
0.386826 3.984143 -0.370631 101
0.263382 4.047063 -0.055215 101
0.137002 4.124332 0.332744 101
0.006081 4.025767 -0.287158 101
-0.122751 4.089088 0.093551 101
0.653564 4.038692 -0.079270 101
0.527469 4.074510 0.307478 101
0.388778 3.997212 -0.309725 101
0.266435 4.083311 0.007142 101
0.006802 4.049670 -0.226412 101
-0.122359 4.099177 0.156828 101
0.512099 3.950532 -0.648340 101
0.393526 4.038937 -0.125403 101
0.268386 4.102525 0.196760 101
0.135030 4.023927 -0.419618 101
0.007507 4.059799 -0.039681 101
0.521003 4.013893 -0.445425 101
0.395904 4.056233 -0.063312 101
0.270418 4.122881 0.261395 100
0.135912 4.029871 -0.357733 101
0.008299 4.111928 0.022966 101
0.522744 4.021973 -0.258012 101
0.398399 4.074659 0.125086 101
0.137414 4.054021 -0.172139 101
0.009027 4.126477 0.213371 101
-0.118364 4.033998 -0.404954 101
0.524390 4.029301 -0.195884 101
0.398854 4.072199 0.187949 101
0.261588 3.967678 -0.534083 101
0.138718 4.072146 -0.110253 101
0.009773 4.146658 0.278329 101
-0.118430 4.059679 -0.344615 101
0.650872 4.000585 -0.390991 100
0.527231 4.045782 -0.008545 101
0.401853 4.095667 0.412941 57
0.264659 4.003936 -0.301714 101
0.139707 4.080870 0.077690 101
0.010691 4.232492 -1.217010 20
-0.118310 4.079247 -0.157488 101
0.655642 4.025605 -0.330310 89
0.529423 4.057244 0.054277 101
0.269044 4.059836 -0.243153 101
0.141714 4.119125 0.141768 101
0.010929 4.054833 -0.487101 92
-0.117214 4.065215 -0.094422 101
0.657254 4.022627 -0.016362 100
0.537938 4.106246 0.393659 101
0.398427 4.032662 -0.249979 101
0.271815 4.070337 0.069782 101
0.012916 4.032671 -0.163380 101
-0.116147 4.100460 0.220008 101
0.399047 4.031964 -0.187528 101
0.273469 4.084698 0.132946 101
0.140263 3.998186 -0.501853 100
0.013714 4.066692 -0.102229 101
-0.116242 4.128530 0.285188 101
0.527945 4.019404 -0.383209 101
0.401736 4.052134 -0.000711 101
0.270254 4.026462 0.317602 175
0.142649 4.046635 -0.296640 101
0.014531 4.103074 0.085948 101
0.530370 4.032583 -0.321533 101
0.405538 4.083439 0.062314 101
0.143902 4.062659 -0.235110 101
0.015233 4.105265 0.149099 101
-0.112245 4.035097 -0.470627 101
0.653712 3.983998 -0.737046 101
0.530857 4.031005 -0.133456 101
0.407885 4.100018 0.252728 100
0.271202 4.020220 -0.427769 101
0.144821 4.069145 -0.047616 101
0.015962 4.113970 0.339678 101
-0.112379 4.064666 -0.282198 101
0.655914 3.993191 -0.453195 101
0.532267 4.036437 -0.071066 101
0.409728 4.111477 0.317203 98
0.272832 4.034204 -0.366557 101
0.146663 4.101351 0.015042 101
-0.111358 4.052567 -0.218852 101
0.657337 3.997624 -0.265537 101
0.535430 4.055128 0.117111 101
0.401762 4.024641 -0.593799 101
0.275177 4.058681 -0.180458 101
0.148323 4.128221 0.205648 101
0.016987 4.026955 -0.411887 101
-0.111157 4.070357 -0.031981 101
0.661194 4.016833 -0.204085 101
0.539484 4.080508 0.181149 101
0.404797 4.048108 -0.439803 101
0.276019 4.060922 -0.117959 101
0.148890 4.124552 0.269067 100
0.017712 4.036788 -0.350337 101
-0.110686 4.078383 0.030620 101
0.663439 4.015101 -0.141400 101
0.539454 4.061104 0.243393 101
0.401130 3.986732 -0.371000 101
0.278055 4.054099 -0.055324 101
0.151251 4.119844 0.332422 101
0.020173 4.033701 -0.287728 101
-0.108052 4.073502 0.093185 101
0.666353 4.028495 -0.079115 101
0.544318 4.092414 0.308971 101
0.405128 4.019639 -0.311571 101
0.280412 4.078365 0.007135 101
0.021104 4.081571 -0.228198 101
-0.107945 4.095583 0.156675 101
0.530055 3.980029 -0.653480 101
0.408827 4.049472 -0.125774 101
0.282980 4.105549 0.196952 101
0.149812 4.043310 -0.421691 101
0.021721 4.067748 -0.039759 101
-0.109035 4.163729 0.351954 0
0.532909 3.996285 -0.443675 101
0.408854 4.042889 -0.063125 101
0.285359 4.129877 0.261900 101
0.150423 4.041317 -0.358793 101
0.022630 4.107873 0.022943 101
0.538893 4.035951 -0.259028 101
0.413426 4.081199 0.125330 101
0.152311 4.073484 -0.172987 101
0.023476 4.134410 0.213785 101
-0.104282 4.034386 -0.404954 101
0.539510 4.035367 -0.196269 101
0.415890 4.098610 0.189234 101
0.275985 3.974651 -0.535148 101
0.152781 4.067642 -0.110145 101
0.024317 4.158572 0.279133 101
-0.104565 4.072021 -0.345630 101
0.664833 3.998288 -0.390991 100
0.541881 4.047882 -0.008554 101
0.415342 4.086320 0.412143 87
0.278910 4.006967 -0.302014 101
0.154252 4.088351 0.077842 101
0.025442 4.228585 -1.215904 19
-0.103968 4.075639 -0.157334 101
0.669035 4.019359 -0.329987 89
0.542519 4.047443 0.054171 101
0.282658 4.050906 -0.242676 101
0.156092 4.118606 0.141768 101
0.025058 4.050798 -0.486623 92
-0.102820 4.057604 -0.094236 101
0.550144 4.088557 0.392145 101
0.412095 4.027276 -0.249733 101
0.285741 4.065374 0.069713 101
0.026940 4.024608 -0.163056 101
-0.101634 4.092854 0.219579 101
0.413527 4.034521 -0.187713 101
0.288849 4.099670 0.133465 101
0.154066 3.993706 -0.501355 100
0.027854 4.058622 -0.102028 101
-0.102126 4.140878 0.286014 101
0.542504 4.021483 -0.383585 101
0.417512 4.066624 -0.000713 101
0.284027 4.021516 0.317289 200
0.156928 4.050099 -0.296933 101
0.028825 4.099000 0.085864 101
0.544443 4.030707 -0.321533 101
0.420198 4.085977 0.062375 101
0.158082 4.062132 -0.235110 101
0.029736 4.129170 0.149970 101
-0.098159 4.035464 -0.470627 101
0.667614 3.981692 -0.737046 101
0.546532 4.041013 -0.133850 101
0.423421 4.110483 0.253462 100
0.284671 4.011313 -0.426925 101
0.159024 4.068615 -0.047616 101
0.030469 4.133821 0.341324 101
-0.098479 4.077002 -0.283029 101
0.671165 3.998718 -0.454086 101
0.547964 4.046444 -0.071276 101
0.425714 4.125890 0.318427 100
0.286629 4.029253 -0.366196 101
0.160664 4.092820 0.015013 101
-0.097403 4.060917 -0.219284 101
0.675917 4.022859 -0.267368 101
0.552805 4.077007 0.117798 101
0.414181 4.007467 -0.591475 101
0.290196 4.069654 -0.180990 101
0.162575 4.123686 0.205449 101
0.031351 4.066662 -0.415957 101
-0.096853 4.066721 -0.031950 101
0.677862 4.030259 -0.204886 101
0.552111 4.066720 0.180621 101
0.416468 4.022936 -0.437224 101
0.289623 4.051957 -0.117728 101
0.163129 4.120019 0.268806 99
0.031834 4.040686 -0.350683 101
-0.096638 4.086742 0.030680 101
0.678156 4.016696 -0.141539 101
0.553127 4.055234 0.243156 100
0.414258 3.977380 -0.370262 101
0.292245 4.053101 -0.055324 101
0.165672 4.119289 0.332422 101
0.034260 4.029616 -0.287443 101
-0.094068 4.085849 0.093459 101
0.556466 4.074677 0.307777 101
0.419182 4.018198 -0.311571 101
0.294672 4.077360 0.007135 101
0.035065 4.045530 -0.226189 101
-0.093531 4.091939 0.156522 101
0.542885 3.970330 -0.652195 101
0.421723 4.036090 -0.125403 101
0.297030 4.100551 0.196760 101
0.163934 4.042762 -0.421691 101
0.035965 4.071647 -0.039798 101
-0.093858 4.136191 0.349597 0
0.551164 4.025916 -0.447175 101
0.422958 4.041438 -0.063125 101
0.298900 4.116911 0.261142 101
0.164523 4.040767 -0.358793 101
0.036855 4.095770 0.022876 101
0.552415 4.030093 -0.258774 101
0.427231 4.075757 0.125208 101
0.166181 4.064943 -0.172648 101
0.037849 4.130309 0.213578 101
-0.090220 4.034725 -0.404954 101
0.553013 4.029505 -0.196077 101
0.430157 4.097137 0.189234 101
0.290110 3.977620 -0.535680 101
0.166614 4.059095 -0.109928 101
0.038609 4.138507 0.277794 101
-0.090210 4.064390 -0.344953 101
0.679400 3.999877 -0.391375 100
0.555955 4.045973 -0.008554 101
0.429967 4.088809 0.412542 100
0.293425 4.013928 -0.302614 101
0.167646 4.067810 0.077461 101
0.040002 4.213094 -1.211483 17
-0.089705 4.071980 -0.157180 101
0.681658 4.009149 -0.329341 89
0.556577 4.045534 0.054171 101
0.296728 4.049900 -0.242676 101
0.170729 4.126027 0.142043 101
0.039092 4.046716 -0.486146 92
-0.089074 4.073928 -0.094607 101
0.565386 4.094517 0.392902 101
0.426037 4.025825 -0.249733 101
0.300404 4.072338 0.069850 101
0.181801 4.341450 -1.545738 12
0.040874 4.024491 -0.163056 101
-0.088145 4.125128 0.221293 101
0.428741 4.044987 -0.188268 101
0.303027 4.098647 0.133465 101
0.167211 3.977288 -0.499363 100
0.042056 4.074496 -0.102430 101
-0.087634 4.133227 0.285463 101
0.556395 4.019585 -0.383585 101
0.431559 4.065157 -0.000713 101
0.297624 4.016534 0.316975 175
0.171760 4.069461 -0.298394 101
0.043070 4.106873 0.086031 101
0.557803 4.024854 -0.321218 101
0.435142 4.092457 0.062496 101
0.172607 4.073532 -0.235803 101
0.043986 4.129043 0.149970 101
-0.084481 4.047696 -0.472017 101
0.681336 3.979367 -0.737046 101
0.561558 4.047025 -0.134112 101
0.438011 4.112969 0.253707 100
0.298792 4.014275 -0.427347 101
0.173559 4.080031 -0.047756 101
0.044460 4.109774 0.339349 101
-0.084342 4.073327 -0.282752 101
0.683587 3.988547 -0.453195 101
0.560793 4.036611 -0.071136 101
0.439919 4.124400 0.318427 100
0.300798 4.032215 -0.366557 101
0.174756 4.092243 0.015013 101
-0.083255 4.053242 -0.218852 101
0.689075 4.016576 -0.267106 101
0.564071 4.055280 0.117225 101
0.427962 4.006019 -0.591475 101
0.304191 4.068632 -0.180990 101
0.176586 4.119111 0.205250 101
0.044983 4.034698 -0.412701 101
-0.083191 4.083026 -0.032075 101
0.691704 4.027906 -0.204886 101
0.567734 4.076673 0.181149 101
0.431133 4.029390 -0.438084 101
0.303244 4.046951 -0.117612 101
0.177454 4.123422 0.269067 100
0.045672 4.036568 -0.350337 101
-0.082758 4.095048 0.030740 101
0.568940 4.065142 0.243868 100
0.428139 3.975910 -0.370262 101
0.306391 4.052056 -0.055324 101
0.180050 4.118686 0.332422 101
0.048230 4.021492 -0.286874 101
-0.079961 4.094149 0.093642 101
0.574007 4.096412 0.309568 101
0.434060 4.024641 -0.312186 101
0.309810 4.088272 0.007156 101
0.049526 4.073337 -0.227752 101
-0.079711 4.116219 0.157439 101
0.556192 3.964501 -0.651553 101
0.437526 4.050493 -0.125897 101
0.311644 4.103473 0.196952 101
0.177170 4.022292 -0.419618 101
0.050226 4.075496 -0.039838 101
-0.079266 4.128523 0.348923 1
0.563001 4.008218 -0.445425 101
0.438783 4.055842 -0.063374 101
0.313269 4.115843 0.261142 101
0.179155 4.052110 -0.359854 101
0.051302 4.107615 0.022943 101
0.567591 4.036047 -0.259282 101
0.441455 4.074241 0.125208 101
0.180192 4.060346 -0.172478 101
0.052267 4.130151 0.213578 101
-0.076135 4.035016 -0.404954 101
0.565961 4.019638 -0.195692 101
0.443594 4.087666 0.188867 101
0.304295 3.980536 -0.536213 101
0.180782 4.058488 -0.109928 101
0.053004 4.134357 0.277526 101
-0.075799 4.052726 -0.343939 101
0.691998 3.989635 -0.390607 100
0.570075 4.044008 -0.008554 101
0.442947 4.075413 0.411344 101
0.307130 4.008903 -0.302314 101
0.182202 4.075191 0.077614 101
0.054658 4.209085 -1.210378 24
-0.075639 4.080261 -0.157488 101
0.696330 4.010674 -0.329664 89
0.573490 4.063368 0.054436 100
0.311780 4.060782 -0.243392 101
0.185310 4.129400 0.142180 101
0.053322 4.054497 -0.487101 92
-0.074853 4.074214 -0.094607 101
0.578558 4.084633 0.392145 101
0.441823 4.040188 -0.250718 101
0.314001 4.063289 0.069713 101
0.195076 4.299376 -1.530991 18
0.054922 4.024323 -0.163056 101
-0.073460 4.109437 0.220436 101
0.441553 4.031550 -0.187713 101
0.317023 4.093578 0.133335 101
0.181093 3.976680 -0.499363 100
0.056058 4.058331 -0.102028 101
-0.073206 4.133508 0.285463 101
0.570982 4.021561 -0.383962 101
0.445311 4.059649 -0.000713 101
0.311642 4.015471 0.316975 113
0.185600 4.060867 -0.297809 101
0.057461 4.110697 0.086115 101
0.575216 4.046570 -0.323109 101
0.448988 4.086937 0.062436 101
0.186825 4.072904 -0.235803 101
0.058455 4.132862 0.150116 101
-0.070282 4.043993 -0.471554 101
0.696578 3.984717 -0.738483 101
0.576244 4.048998 -0.134243 101
0.452366 4.111415 0.253707 95
0.312184 4.005276 -0.426502 101
0.187616 4.075405 -0.047709 101
0.059262 4.141482 0.341982 101
-0.070054 4.069607 -0.282475 101
0.698876 3.993968 -0.454086 101
0.574880 4.034629 -0.071136 101
0.453439 4.114911 0.317815 100
0.314561 4.027169 -0.366196 101
0.189224 4.095603 0.015027 101
-0.069038 4.049514 -0.218637 101
0.702402 4.010215 -0.266845 101
0.579917 4.065162 0.117569 100
0.441943 4.004501 -0.591475 101
0.318704 4.071529 -0.181167 101
0.191704 4.134432 0.206045 101
0.059474 4.062368 -0.415550 101
-0.068803 4.075294 -0.032012 101
0.583090 4.082579 0.181500 101
0.444759 4.023908 -0.437654 101
0.317368 4.045867 -0.117612 101
0.191661 4.118790 0.268806 100
0.059998 4.052322 -0.351720 101
-0.068196 4.079315 0.030620 101
0.584261 4.071036 0.244342 100
0.443336 3.986267 -0.371369 101
0.320534 4.050962 -0.055324 101
0.194990 4.129980 0.333387 101
0.062267 4.021299 -0.286874 101
-0.065734 4.098401 0.093733 101
0.584899 4.070693 0.307777 101
0.447223 4.015173 -0.311571 101
0.324079 4.087165 0.007156 101
0.063432 4.053173 -0.226635 101
-0.065089 4.100486 0.156828 101
0.571714 3.974259 -0.653480 101
0.450333 4.037021 -0.125526 101
0.325966 4.102360 0.196952 101
0.191776 4.033571 -0.420862 101
0.064452 4.075295 -0.039838 101
-0.065105 4.144716 0.350270 20
0.575289 3.994422 -0.444113 101
0.452938 4.054286 -0.063374 101
0.329218 4.134622 0.262405 101
0.192729 4.039520 -0.358793 101
0.065768 4.115410 0.022988 101
0.580536 4.026138 -0.258774 101
0.456564 4.080622 0.125452 101
0.193791 4.047716 -0.171969 101
0.066490 4.117961 0.212958 101
-0.061867 4.023318 -0.403756 101
0.581702 4.029501 -0.196269 101
0.457860 4.086092 0.188867 100
0.317871 3.975497 -0.535680 101
0.195140 4.061827 -0.110037 101
0.067435 4.134147 0.277526 101
-0.061652 4.052966 -0.343939 101
0.707308 3.995037 -0.391375 100
0.583615 4.038034 -0.008545 101
0.457614 4.077797 0.411743 101
0.320803 4.003830 -0.302014 101
0.196426 4.074530 0.077614 101
0.069414 4.212712 -1.211483 22
-0.061275 4.072507 -0.157180 101
0.709630 4.004292 -0.329341 89
0.584806 4.041550 0.054171 101
0.325953 4.059669 -0.243392 101
0.199143 4.116749 0.141768 101
0.067144 4.034431 -0.484715 92
-0.060571 4.070452 -0.094514 101
0.594530 4.094411 0.393281 55
0.456819 4.046556 -0.251210 101
0.328827 4.070141 0.069850 101
0.209346 4.283613 -1.525628 29
0.069106 4.032100 -0.163380 101
-0.059287 4.121649 0.221079 101
0.457419 4.045866 -0.188453 101
0.331956 4.100416 0.133595 101
0.194779 3.972060 -0.498865 100
0.070224 4.058110 -0.102028 101
-0.058834 4.137728 0.285739 101
0.585016 4.019543 -0.383962 101
0.459929 4.062045 -0.000713 101
0.326947 4.030257 0.318230 175
0.199774 4.060194 -0.297809 101
0.071461 4.090478 0.085696 101
0.586462 4.024808 -0.321533 101
0.464153 4.093293 0.062557 100
0.201238 4.076216 -0.236034 101
0.072599 4.116645 0.149535 101
-0.056055 4.036269 -0.470627 101
0.708409 3.970639 -0.736327 101
0.590374 4.046962 -0.134243 101
0.467165 4.113778 0.253952 98
0.327455 4.020020 -0.428191 101
0.202038 4.078720 -0.047756 101
0.073221 4.113349 0.339678 101
-0.055793 4.065836 -0.282198 101
0.712813 3.991504 -0.454086 101
0.590116 4.040512 -0.071276 101
0.469152 4.125191 0.318733 100
0.328292 4.022076 -0.365835 101
0.203718 4.098913 0.015042 101
-0.054956 4.053725 -0.218852 101
0.595260 4.071025 0.117798 101
0.459054 4.030459 -0.595542 101
0.332262 4.062427 -0.180813 101
0.205935 4.129748 0.205846 101
0.073366 4.046222 -0.413922 101
-0.054417 4.063510 -0.031918 101
0.599653 4.096334 0.182204 100
0.458802 4.022331 -0.437654 101
0.332469 4.056690 -0.117959 101
0.206636 4.130056 0.269587 99
0.074361 4.064042 -0.352758 101
-0.054221 4.099526 0.030770 101
0.597857 4.065026 0.244105 100
0.458581 3.996569 -0.372475 101
0.334972 4.053807 -0.055378 101
0.209577 4.133258 0.333708 101
0.076350 4.025047 -0.287158 101
-0.051307 4.086609 0.093459 101
0.601410 4.084414 0.308971 97
0.462129 4.021514 -0.312186 101
0.338325 4.086011 0.007156 101
0.078172 4.084872 -0.228422 101
-0.050843 4.104685 0.156981 101
0.588455 3.991769 -0.656693 101
0.464872 4.039397 -0.125650 101
0.340938 4.109161 0.197334 101
0.205645 4.028904 -0.420447 101
0.078593 4.071047 -0.039798 101
-0.050595 4.140933 0.349934 27
0.589813 3.996322 -0.444550 101
0.465718 4.040760 -0.063187 101
0.341668 4.109577 0.260890 101
0.206832 4.038823 -0.358793 101
0.079903 4.103158 0.022921 101
0.596353 4.035932 -0.259536 101
0.469904 4.071058 0.125208 101
0.208139 4.051005 -0.172139 101
0.080801 4.113710 0.212752 101
-0.047759 4.019530 -0.403357 101
0.595206 4.023489 -0.196077 101
0.473065 4.092405 0.189234 101
0.332433 3.982263 -0.536745 101
0.209138 4.057126 -0.109928 101
0.082288 4.153837 0.278865 101
-0.047570 4.061127 -0.344615 101
0.721287 3.992536 -0.391375 100
0.600089 4.051794 -0.008579 101
0.471884 4.076171 0.411743 101
0.335148 4.006658 -0.302314 101
0.210686 4.073817 0.077614 101
0.083774 4.193226 -1.205956 26
-0.046975 4.068700 -0.157025 101
0.600133 4.047389 0.054277 101
0.340839 4.066461 -0.243869 101
0.214184 4.128003 0.142180 101
0.081196 4.030201 -0.484238 92
-0.046358 4.074638 -0.094607 101
0.468254 4.021132 -0.249733 101
0.341772 4.053020 0.069577 101
0.223006 4.256506 -1.516244 31
0.083099 4.023840 -0.163056 101
-0.044597 4.101862 0.220008 101
0.469783 4.028358 -0.187713 101
0.345017 4.083290 0.133075 101
0.209153 3.979278 -0.499861 100
0.084401 4.053841 -0.101928 101
-0.044122 4.121949 0.284637 101
0.597387 4.005645 -0.382833 101
0.473284 4.052456 -0.000712 101
0.339773 4.013188 0.316975 200
0.213002 4.039547 -0.296348 101
0.086014 4.098198 0.085864 101
-0.046004 4.366451 -1.053591 10
0.601214 4.026662 -0.321848 101
0.478092 4.087662 0.062496 101
0.215162 4.067507 -0.235572 101
0.087342 4.128354 0.149970 101
-0.041848 4.036441 -0.470627 101
0.722391 3.968119 -0.736327 101
0.600489 4.017180 -0.133325 101
0.479330 4.092280 0.252728 100
0.340940 4.010915 -0.427347 101
0.215768 4.066000 -0.047616 101
0.088220 4.136979 0.341653 101
-0.041267 4.046057 -0.280814 101
0.729018 4.000699 -0.455421 79
0.602581 4.026541 -0.071066 101
0.481833 4.107667 0.317509 100
0.342808 4.024863 -0.366196 101
0.217954 4.094175 0.015027 101
-0.040665 4.053893 -0.218852 101
0.606658 4.049129 0.117225 101
0.469577 3.997370 -0.590894 101
0.346253 4.057247 -0.180635 101
0.219652 4.113038 0.205051 101
0.086865 4.010133 -0.410259 101
-0.040119 4.067677 -0.031950 101
0.612928 4.086287 0.181852 100
0.471608 4.008837 -0.436364 101
0.347131 4.059474 -0.118075 101
0.220790 4.121329 0.269067 100
0.088015 4.031881 -0.349991 101
-0.039551 4.079693 0.030620 101
0.612638 4.066863 0.244342 86
0.470189 3.975167 -0.370631 101
0.349120 4.052613 -0.055378 101
0.223572 4.124538 0.333065 101
0.090400 4.024756 -0.287158 101
-0.037114 4.094761 0.093642 101
0.476163 4.019876 -0.312186 101
0.352586 4.084805 0.007156 101
0.091708 4.052632 -0.226635 101
-0.036550 4.108834 0.157134 101
0.599438 3.970171 -0.653480 101
0.478027 4.029809 -0.125403 101
0.355279 4.107946 0.197334 101
0.220357 4.040080 -0.421691 101
0.092894 4.074747 -0.039838 101
-0.036001 4.125142 0.348586 51
0.604353 3.998170 -0.444988 101
0.479348 4.035138 -0.063125 101
0.357045 4.120291 0.261648 101
0.220711 4.034098 -0.358440 101
0.094501 4.114851 0.022988 101
0.608645 4.021985 -0.258774 101
0.482695 4.057483 0.124841 101
0.222498 4.054245 -0.172309 101
0.095530 4.129377 0.213578 101
-0.033695 4.015693 -0.402957 101
0.609247 4.021388 -0.196077 101
0.485457 4.074858 0.188500 100
0.345644 3.973179 -0.535680 101
0.223299 4.056371 -0.109928 101
0.096230 4.129584 0.277258 101
-0.033329 4.053298 -0.343939 101
0.614229 4.049675 -0.008579 101
0.488467 4.094259 0.413740 101
0.349478 4.009437 -0.302614 101
0.225787 4.089030 0.077918 101
0.098321 4.189065 -1.204851 23
-0.032868 4.080830 -0.157488 101
0.616659 4.061087 0.054489 100
0.355032 4.065246 -0.243869 101
0.228371 4.123239 0.142043 101
0.095545 4.041804 -0.485669 92
-0.032071 4.066778 -0.094422 101
0.482288 4.019474 -0.249733 101
0.356268 4.055787 0.069645 101
0.237652 4.251939 -1.514903 38
0.097048 4.019530 -0.162894 101
-0.030396 4.117969 0.220865 101
0.482411 4.014792 -0.187158 101
0.360319 4.094008 0.133465 101
0.223264 3.982486 -0.500359 100
0.098551 4.053521 -0.101928 101
-0.029906 4.146020 0.286290 101
0.611967 4.007472 -0.383209 101
0.488382 4.058722 -0.000713 101
0.354130 4.015950 0.317289 138
0.227549 4.046745 -0.296933 101
0.100612 4.109867 0.086115 101
-0.030461 4.323813 -1.043271 37
0.617676 4.040307 -0.323109 101
0.494272 4.101851 0.062739 101
0.229359 4.066731 -0.235572 101
0.101752 4.128024 0.149970 101
-0.027786 4.040535 -0.471091 101
0.739112 3.981049 -0.739201 101
0.616927 4.030867 -0.133850 101
0.495047 4.102473 0.253462 100
0.355289 4.013662 -0.427769 101
0.229960 4.065223 -0.047616 101
0.102562 4.132660 0.341324 101
-0.027278 4.066128 -0.282198 101
0.618450 4.036273 -0.071276 101
0.497604 4.117838 0.318427 96
0.356855 4.023642 -0.366196 101
0.231111 4.073421 0.014954 101
-0.026540 4.058004 -0.219068 101
0.622607 4.058843 0.117569 100
0.483528 3.995706 -0.590894 101
0.360768 4.059994 -0.180813 101
0.234689 4.124212 0.205648 101
0.100963 4.013783 -0.410666 101
-0.025971 4.075791 -0.032012 101
0.627188 4.084123 0.181852 100
0.487034 4.019010 -0.437654 101
0.360590 4.050273 -0.117844 101
0.235630 4.128503 0.269587 100
0.102391 4.043500 -0.351029 101
-0.025335 4.083807 0.030650 101
0.484812 3.985448 -0.371737 101
0.362201 4.047449 -0.055324 101
0.236561 4.111833 0.332101 101
0.103746 4.024435 -0.287158 101
-0.023489 4.086864 0.093459 101
0.489491 4.018276 -0.312186 101
0.365415 4.075645 0.007142 101
0.105768 4.076260 -0.227975 101
-0.022902 4.104936 0.156981 101
0.611998 3.964260 -0.652838 101
0.492841 4.040108 -0.125774 101
0.367827 4.094807 0.196760 101
0.233523 4.035355 -0.421276 101
0.105884 4.054424 -0.039642 101
-0.022429 4.145167 0.350270 75
0.617608 3.996144 -0.444988 101
0.492241 4.029556 -0.063063 101
0.371422 4.127036 0.262153 101
0.234549 4.041299 -0.359147 101
0.107936 4.106518 0.022943 101
0.623200 4.027834 -0.259282 101
0.497118 4.063797 0.125086 101
0.236173 4.057474 -0.172478 101
0.109223 4.129037 0.213578 101
-0.020459 4.031702 -0.404555 101
0.621967 4.015397 -0.195884 101
0.500910 4.089090 0.189234 101
0.358104 3.964114 -0.534615 101
0.236749 4.055609 -0.109928 101
0.110348 4.145201 0.278329 101
-0.019926 4.061357 -0.344615 101
0.625816 4.035757 -0.008554 101
0.499618 4.072865 0.411743 101
0.361693 3.996339 -0.301714 101
0.237709 4.060311 0.077385 101
0.112006 4.181030 -1.202640 19
-0.019260 4.064929 -0.156871 101
0.628896 4.051115 0.054383 101
0.366708 4.044163 -0.242676 101
0.242981 4.138422 0.142593 101
0.109375 4.057345 -0.487578 92
-0.018585 4.066862 -0.094422 101
0.498058 4.037664 -0.250964 101
0.370442 4.062549 0.069782 101
0.252196 4.258652 -1.517585 44
0.110815 4.035167 -0.163542 101
-0.016741 4.118047 0.220865 101
0.496702 4.021101 -0.187528 101
0.373894 4.092791 0.133465 101
0.237175 3.993609 -0.501853 100
0.112213 4.061167 -0.102129 101
-0.016110 4.134125 0.285463 101
0.627095 4.017224 -0.384338 101
0.503312 4.068990 -0.000716 100
0.368173 4.022696 0.317916 150
0.241205 4.049951 -0.297225 101
0.113907 4.097518 0.085864 101
-0.015905 4.265565 -1.029198 11
0.629840 4.030356 -0.322479 101
0.508363 4.104159 0.062800 101
0.242606 4.061962 -0.235341 101
0.115440 4.127664 0.149970 101
-0.014372 4.036632 -0.470627 101
0.751578 3.974710 -0.738483 101
0.630909 4.032748 -0.133981 101
0.508649 4.100809 0.253462 101
0.368961 4.016423 -0.428191 101
0.243679 4.068430 -0.047662 101
0.115257 4.096434 0.338362 101
-0.013821 4.074177 -0.282752 101
0.632450 4.038151 -0.071345 101
0.512731 4.128039 0.319346 100
0.370196 4.022436 -0.366196 101
0.245577 4.088604 0.015013 101
-0.013071 4.054076 -0.218852 101
0.632966 4.037005 0.116996 87
0.496287 3.990154 -0.590313 101
0.373495 4.050817 -0.180458 101
0.248124 4.119423 0.205449 101
0.114159 4.009449 -0.410259 101
-0.012406 4.059856 -0.031887 101
0.499867 4.013426 -0.437224 101
0.374755 4.057018 -0.118075 101
0.248357 4.111762 0.268546 100
0.115571 4.035172 -0.350337 101
-0.011769 4.075868 0.030590 101
0.498729 3.983730 -0.371737 101
0.376705 4.050142 -0.055378 101
0.251650 4.122921 0.333065 101
0.117451 4.012083 -0.286305 101
-0.009251 4.102917 0.093825 101
0.504016 4.020499 -0.312493 101
0.379274 4.070362 0.007135 101
0.119179 4.047922 -0.226412 101
-0.008551 4.096996 0.156675 101
0.625834 3.962099 -0.652838 101
0.505448 4.026462 -0.125403 101
0.383235 4.105433 0.197334 101
0.246879 4.022602 -0.420033 101
0.120275 4.062026 -0.039720 101
-0.007904 4.117319 0.347913 52
0.631553 3.993964 -0.444988 101
0.507799 4.039718 -0.063250 101
0.385081 4.117765 0.261648 101
0.248409 4.036479 -0.358793 101
0.122149 4.102118 0.022921 101
0.637252 4.025635 -0.259282 101
0.512794 4.073938 0.125452 101
0.250084 4.052637 -0.172309 101
0.123511 4.124639 0.213371 101
-0.006384 4.027769 -0.404155 101
0.635972 4.013202 -0.195884 101
0.513674 4.075424 0.188683 100
0.372673 3.970735 -0.535680 101
0.250403 4.046776 -0.109712 101
0.124088 4.120856 0.276722 101
-0.005729 4.041473 -0.342924 101
0.639889 4.033550 -0.008554 100
0.515815 4.086892 0.413341 101
0.375630 3.995053 -0.301714 101
0.252613 4.071433 0.077614 101
0.126821 4.188299 -1.204851 24
-0.005096 4.076962 -0.157334 101
0.641764 4.040997 0.054277 100
0.381931 4.054786 -0.243392 101
0.255921 4.113609 0.141768 101
0.122798 4.033122 -0.484715 92
-0.004407 4.070900 -0.094514 101
0.511120 4.027983 -0.250471 101
0.385351 4.069197 0.069919 101
0.267507 4.265270 -1.520266 48
0.124506 4.022772 -0.163056 101
-0.002380 4.102104 0.220008 101
0.512219 4.031238 -0.188083 101
0.388151 4.091463 0.133465 101
0.251087 3.992759 -0.501853 100
0.126486 4.064748 -0.102229 101
-0.001702 4.122184 0.284637 101
0.641085 4.015016 -0.384338 101
0.514453 4.043404 -0.000711 101
0.381428 4.013450 0.317289 175
0.255561 4.053068 -0.297517 101
0.128179 4.097096 0.085864 101
-0.001045 4.257817 -1.027322 16
0.645760 4.039951 -0.323424 101
0.521642 4.094429 0.062679 101
0.257254 4.069063 -0.235803 101
0.129814 4.127236 0.149970 101
-0.000315 4.044604 -0.471554 101
0.771369 4.002980 -0.744230 75
0.646841 4.042370 -0.134375 101
0.521913 4.091092 0.252972 100
0.381432 3.999276 -0.426502 101
0.257842 4.067557 -0.047662 101
0.130778 4.135852 0.341653 101
0.000363 4.058239 -0.281644 101
0.645870 4.031976 -0.071276 101
0.525582 4.114361 0.318427 100
0.383438 4.013192 -0.365473 101
0.259808 4.087724 0.015013 101
0.001040 4.050103 -0.218637 101
0.510170 3.988402 -0.590313 101
0.387971 4.053471 -0.180635 101
0.262459 4.118535 0.205449 101
0.128366 4.016982 -0.411073 101
0.001723 4.059875 -0.031887 101
0.515344 4.023497 -0.438514 101
0.389250 4.059669 -0.118191 101
0.263680 4.126807 0.269587 100
0.130122 4.050677 -0.351720 101
0.002410 4.071885 0.030560 101
0.514157 3.993816 -0.372844 101
0.391225 4.052783 -0.055433 101
0.265013 4.106102 0.331779 101
0.131586 4.015636 -0.286589 101
0.005056 4.090928 0.093551 101
0.518557 4.022671 -0.312801 101
0.394249 4.076976 0.007149 101
0.133702 4.059456 -0.227082 101
0.005744 4.093004 0.156522 101
0.642808 3.979378 -0.656051 101
0.520012 4.028638 -0.125526 101
0.395252 4.080209 0.196187 101
0.261434 4.029656 -0.420862 101
0.134453 4.061581 -0.039720 101
0.006449 4.105364 0.346902 68
0.646760 3.999585 -0.445863 101
0.522923 4.045854 -0.063374 101
0.399453 4.116396 0.261648 100
0.261463 4.019683 -0.357379 101
0.136999 4.117657 0.023010 101
0.653214 4.035208 -0.260044 101
0.526498 4.068158 0.125330 101
0.265009 4.063703 -0.172817 101
0.137908 4.124182 0.213371 101
0.007676 4.027767 -0.404155 101
0.651255 4.018846 -0.196269 101
0.528924 4.081532 0.189050 101
0.386531 3.969410 -0.535680 101
0.265049 4.053857 -0.109928 101
0.139410 4.148319 0.278597 101
0.008428 4.065382 -0.344953 101
0.657808 4.054982 -0.008604 100
0.529053 4.077173 0.412542 101
0.390348 4.001657 -0.302314 101
0.267347 4.078507 0.077766 101
0.140921 4.172463 -1.200429 26
0.009117 4.068961 -0.157025 101
0.395695 4.049454 -0.243153 101
0.270803 4.120669 0.142043 101
0.136741 4.028699 -0.484238 92
0.009803 4.070891 -0.094514 101
0.526210 4.034091 -0.250964 101
0.399553 4.067827 0.069919 101
0.281398 4.249269 -1.514903 51
0.138685 4.026307 -0.163218 101
0.011904 4.090104 0.219365 101
0.525770 4.025464 -0.187898 101
0.403996 4.105998 0.133984 101
0.265286 3.995818 -0.502350 100
0.140536 4.060285 -0.102129 101
0.012687 4.122165 0.284637 101
0.655737 4.016684 -0.384715 101
0.530639 4.057448 -0.000714 101
0.395826 4.016062 0.317602 175
0.268913 4.040209 -0.296640 101
0.142619 4.100621 0.085948 101
0.013843 4.265572 -1.029198 17
0.657285 4.021931 -0.322163 101
0.533334 4.072754 0.062375 101
0.270924 4.060171 -0.235341 101
0.143801 4.114773 0.149535 101
0.013762 4.032661 -0.470164 101
0.783063 3.988679 -0.742074 45
0.658365 4.024306 -0.133850 101
0.536709 4.093204 0.253217 100
0.395390 3.997920 -0.426502 101
0.272039 4.066632 -0.047662 101
0.145354 4.139355 0.341982 101
0.014529 4.058213 -0.281644 101
0.661233 4.037590 -0.071415 101
0.540459 4.116456 0.318733 90
0.398622 4.023722 -0.366557 101
0.274611 4.094775 0.015042 101
0.015208 4.058063 -0.219068 101
0.525121 3.994445 -0.591475 101
0.401723 4.048115 -0.180458 101
0.276833 4.117594 0.205449 101
0.142105 4.008555 -0.410259 101
0.015910 4.063844 -0.031918 101
0.526790 4.001959 -0.436364 101
0.403419 4.058286 -0.118191 101
0.278888 4.137808 0.270368 100
0.143835 4.038251 -0.350683 101
0.016639 4.075851 0.030590 101
0.527573 3.988048 -0.372475 101
0.404573 4.043434 -0.055324 101
0.280698 4.125041 0.333387 101
0.145891 4.023127 -0.287158 101
0.019317 4.086886 0.093459 101
0.534167 4.032697 -0.313724 101
0.408079 4.071595 0.007142 101
0.147144 4.039009 -0.225965 101
0.020090 4.104950 0.156981 101
0.659268 3.992691 -0.658621 101
0.536174 4.042652 -0.126021 101
0.411887 4.102657 0.197334 101
0.274956 4.020781 -0.420033 101
0.149215 4.077075 -0.039877 101
0.020719 4.093359 0.345892 78
0.660069 3.993381 -0.445425 101
0.535989 4.036075 -0.063250 101
0.414219 4.118948 0.261900 101
0.276855 4.038621 -0.359147 101
0.151372 4.117154 0.023010 101
0.665340 4.021088 -0.259282 101
0.541222 4.070259 0.125452 101
0.278097 4.046805 -0.172139 101
0.152008 4.115692 0.212958 101
0.021714 4.023735 -0.403756 101
0.664627 4.012606 -0.196077 101
0.544222 4.087582 0.189418 101
0.400385 3.968037 -0.535680 101
0.279198 4.052907 -0.109928 101
0.153150 4.127865 0.277258 101
0.022486 4.041415 -0.342924 101
0.545911 4.095026 0.414539 101
0.403913 3.996301 -0.302014 101
0.279928 4.053611 0.077309 101
0.155342 4.168104 -1.199324 56
0.023274 4.060911 -0.156717 101
0.410632 4.055993 -0.243630 101
0.285461 4.123687 0.142180 101
0.150952 4.032166 -0.484715 92
0.024037 4.074831 -0.094607 101
0.540289 4.032230 -0.250964 101
