# This PCD file was generated using the MATLAB® pcwrite function
# from Computer Vision Toolbox®.
# .PCD v.7 - Point Cloud Data file format
VERSION .7
FIELDS x y z intensity
SIZE 4 4 4 1
TYPE F F F U
COUNT 1 1 1 1
WIDTH 1502
HEIGHT 1
VIEWPOINT 0 0 0 1 0 0 0
POINTS 1502
DATA ascii
0.115351 4.107794 -0.468208 78
-0.283776 4.233900 -0.327257 42
-0.419883 4.239250 0.007435 45
-0.148826 4.253398 -0.692676 55
-0.280309 4.192634 -0.129851 53
-0.574483 4.382567 -0.460667 56
-0.147091 4.223924 -0.465115 64
-0.278646 4.178214 -0.065051 24
-0.572018 4.369407 -0.390961 47
-0.145039 4.185023 -0.266393 60
-0.561621 4.295542 -0.183841 38
-0.143916 4.172670 -0.201277 65
-0.425381 4.324109 -0.583604 68
-0.563276 4.313788 -0.117719 1
-0.010838 4.144746 -0.399825 54
-0.415963 4.235610 -0.320009 55
-0.010142 4.142426 -0.335476 59
-0.419974 4.283783 -0.257232 60
-0.719672 4.425631 -0.538625 29
0.120996 4.090446 -0.402689 63
-0.275642 4.206965 -0.260077 50
0.121372 4.080187 -0.338470 64
-0.274127 4.194552 -0.194556 49
-0.568084 4.384701 -0.554627 62
-0.140588 4.218841 -0.399019 55
-0.562082 4.344048 -0.320898 48
-0.138619 4.180653 -0.330674 56
-0.556294 4.304953 -0.251046 39
-0.005429 4.230083 -0.772246 64
-0.417236 4.307520 -0.459440 66
-0.004662 4.173904 -0.467441 57
-0.415232 4.294280 -0.391114 57
-0.003900 4.103194 -0.268938 79
-0.274933 4.261366 -0.626917 50
-0.410817 4.256014 -0.189676 52
-0.710645 4.411818 -0.457065 31
-0.274536 4.266268 -0.462159 45
-0.408039 4.234601 -0.123290 55
-0.709043 4.406543 -0.387342 8
0.131518 4.188372 -0.871002 63
-0.269633 4.233278 -0.392758 42
-0.404259 4.224308 -0.057774 47
0.129796 4.111339 -0.468661 61
-0.267750 4.214963 -0.325719 40
-0.401678 4.204852 0.007372 33
-0.134110 4.257837 -0.693319 51
-0.266185 4.201567 -0.130098 42
-0.560196 4.392437 -0.461497 61
-0.132093 4.216464 -0.464240 61
-0.554744 4.355568 -0.389547 55
-0.130165 4.177524 -0.265885 65
-0.542573 4.265763 -0.182484 38
-0.129322 4.173148 -0.201277 65
-0.405764 4.278209 -0.577214 65
-0.548690 4.319698 -0.117827 22
0.003677 4.152721 -0.400593 49
-0.402639 4.252924 -0.321209 49
0.004331 4.106553 -0.332570 61
-0.404215 4.277277 -0.256754 52
-0.706036 4.439891 -0.540057 34
0.135359 4.089995 -0.402689 55
-0.260620 4.203923 -0.259830 42
-0.259385 4.195489 -0.194556 51
-0.552671 4.386671 -0.554627 58
-0.125749 4.219309 -0.399019 48
-0.546800 4.345998 -0.320898 49
-0.123902 4.181115 -0.330674 58
-0.541636 4.310846 -0.251277 48
0.009446 4.218272 -0.770091 61
-0.402798 4.316885 -0.460285 57
0.010024 4.161969 -0.466105 58
-0.400090 4.295717 -0.391114 62
0.010567 4.099191 -0.268676 67
-0.260859 4.278111 -0.629241 45
-0.396168 4.261415 -0.189853 59
-0.696312 4.422160 -0.457879 31
-0.259469 4.267210 -0.462159 44
-0.393822 4.243977 -0.123521 56
-0.692240 4.401146 -0.386650 43
0.145455 4.168318 -0.866931 55
-0.255572 4.246120 -0.393865 52
-0.387675 4.205779 -0.057502 53
0.143311 4.087030 -0.465944 75
-0.253513 4.223834 -0.326334 40
-0.387365 4.210211 0.007379 22
-0.119026 4.250387 -0.692034 54
-0.250084 4.178524 -0.129356 62
-0.543391 4.382521 -0.460253 55
-0.117042 4.204976 -0.462927 66
-0.538068 4.345616 -0.388487 48
-0.115692 4.181943 -0.266139 60
-0.527189 4.263664 -0.182315 38
-0.114315 4.157598 -0.200507 56
-0.391909 4.291444 -0.578812 66
-0.527238 4.269998 -0.116420 43
0.018103 4.136757 -0.399057 54
-0.385981 4.234442 -0.319709 49
0.018792 4.134421 -0.334830 62
-0.388920 4.274686 -0.256516 58
-0.691144 4.446253 -0.540534 37
0.149926 4.097455 -0.403473 53
-0.245012 4.188864 -0.258845 44
-0.244505 4.192380 -0.194371 50
-0.534461 4.364936 -0.551640 64
-0.110287 4.191856 -0.396384 44
-0.528237 4.320161 -0.318852 61
-0.109515 4.189494 -0.331305 59
-0.527553 4.320638 -0.251739 52
0.024080 4.202473 -0.767217 61
-0.386304 4.302417 -0.458596 60
-0.521857 4.280008 -0.050422 1
0.024552 4.161909 -0.466105 54
-0.384026 4.285184 -0.390031 61
0.024876 4.099129 -0.268676 32
-0.244788 4.259240 -0.626336 47
-0.380934 4.258792 -0.189676 48
-0.677845 4.404899 -0.455844 36
-0.244800 4.272060 -0.462589 42
-0.378650 4.241343 -0.123405 50
-0.675056 4.391720 -0.385613 48
0.160004 4.167785 -0.866931 57
-0.239396 4.223127 -0.391652 51
-0.374758 4.227027 -0.057774 50
-0.670764 4.381693 -0.316187 4
0.157576 4.086505 -0.465944 81
-0.237643 4.204784 -0.324796 40
-0.103801 4.234989 -0.689463 56
-0.234597 4.163405 -0.128862 57
-0.526187 4.368592 -0.458594 57
-0.102169 4.197409 -0.462052 57
-0.520517 4.327688 -0.386719 48
-0.100515 4.158377 -0.264615 61
-0.514209 4.281350 -0.182993 38
-0.100280 4.177943 -0.201470 53
-0.376927 4.292786 -0.578812 63
-0.513282 4.279752 -0.116637 52
0.032417 4.120743 -0.397521 56
-0.371198 4.235764 -0.319709 58
0.033160 4.126357 -0.334184 62
-0.373648 4.272040 -0.256277 60
-0.675619 4.448639 -0.540534 37
0.163590 4.080996 -0.401906 56
-0.229950 4.181721 -0.258353 51
-0.228557 4.169270 -0.193261 52
-0.519221 4.366776 -0.551640 62
-0.095835 4.200178 -0.397137 49
-0.514564 4.333864 -0.319729 52
-0.094620 4.177891 -0.330359 55
-0.511527 4.314522 -0.251277 51
0.038858 4.214168 -0.769372 59
-0.368548 4.272036 -0.455217 54
-0.506443 4.277832 -0.050375 38
0.039005 4.153848 -0.465215 58
-0.368724 4.282529 -0.389670 59
-0.230559 4.271924 -0.628079 43
-0.366066 4.260096 -0.189676 57
-0.657733 4.375758 -0.452588 41
-0.228818 4.253034 -0.460439 38
-0.364184 4.246623 -0.123521 51
-0.654989 4.362523 -0.382846 49
0.174356 4.178968 -0.869374 69
-0.224500 4.207991 -0.390177 42
-0.360696 4.228250 -0.057774 50
-0.653823 4.368117 -0.315049 47
0.171152 4.085959 -0.465944 75
-0.223036 4.193603 -0.323874 36
-0.089580 4.227416 -0.688178 71
-0.221626 4.180130 -0.129356 59
-0.513075 4.382168 -0.459838 50
-0.088423 4.205675 -0.462927 64
-0.507095 4.337305 -0.387426 49
-0.086580 4.150705 -0.264107 63
-0.502348 4.302876 -0.183841 46
-0.085719 4.142302 -0.199736 43
-0.362061 4.286108 -0.577747 59
-0.498663 4.277455 -0.116528 51
0.046073 4.124595 -0.397905 56
-0.356199 4.225043 -0.318810 50
0.046638 4.114265 -0.333216 61
-0.360890 4.289165 -0.257232 50
-0.655687 4.415488 -0.536240 32
0.177352 4.088390 -0.402689 53
-0.215581 4.170494 -0.257614 51
-0.215070 4.173988 -0.193446 49
-0.504878 4.368457 -0.551640 64
-0.081668 4.180562 -0.395255 57
-0.499431 4.327602 -0.319144 59
-0.817063 4.538706 -1.112697 1
-0.080853 4.174192 -0.330044 60
-0.499217 4.332044 -0.252201 73
0.052650 4.214018 -0.769372 61
-0.356210 4.293040 -0.457329 55
-0.487868 4.239731 -0.049908 41
0.052231 4.125875 -0.462099 60
-0.354394 4.279742 -0.389309 57
-0.484457 4.216230 0.015555 0
-0.215208 4.244987 -0.624012 49
-0.350180 4.237374 -0.188612 53
-0.639392 4.350323 -0.449739 34
-0.214545 4.245813 -0.459579 41
-0.348690 4.227864 -0.122942 49
-0.637286 4.340979 -0.380771 43
0.188765 4.174422 -0.868560 55
-0.209215 4.196815 -0.389070 53
-0.345608 4.225497 -0.057720 40
-0.635687 4.350633 -0.313626 46
0.185054 4.077396 -0.465039 67
-0.208594 4.198339 -0.324181 45
-0.637896 4.370799 -0.246954 2
-0.074473 4.207965 -0.684966 57
-0.205847 4.156919 -0.128615 57
-0.493287 4.344402 -0.455692 56
-0.073533 4.194032 -0.461615 61
-0.489258 4.315294 -0.385305 48
-0.071952 4.142999 -0.263599 64
-0.485077 4.284749 -0.182993 53
-0.071122 4.134586 -0.199351 19
-0.346777 4.283394 -0.577214 54
-0.483729 4.279170 -0.116528 63
0.060529 4.128390 -0.398289 63
-0.341127 4.222285 -0.318510 57
0.061059 4.118063 -0.333538 56
-0.343670 4.262538 -0.255561 64
-0.641979 4.429541 -0.537671 37
0.190876 4.071840 -0.401122 49
-0.201407 4.179196 -0.258106 42
-0.200115 4.166731 -0.193076 52
-0.488742 4.362304 -0.550644 64
-0.067203 4.188786 -0.396008 56
-0.482104 4.309496 -0.317683 69
-0.801215 4.541530 -1.112697 48
-0.066219 4.170462 -0.329729 59
-0.481876 4.313917 -0.251046 56
-0.784102 4.448831 -0.526677 13
0.066919 4.186267 -0.764344 59
-0.338702 4.262536 -0.453950 62
-0.468189 4.197682 -0.049393 47
0.066825 4.137591 -0.463434 56
-0.338508 4.269039 -0.388225 69
-0.475935 4.273551 0.015760 18
-0.200948 4.257571 -0.625755 39
-0.335071 4.234587 -0.188435 56
-0.626463 4.368284 -0.451367 45
-0.199350 4.238592 -0.458720 38
-0.333930 4.229056 -0.122942 49
-0.620999 4.335288 -0.380079 48
0.202573 4.158091 -0.865303 55
-0.195301 4.213434 -0.390546 52
-0.329920 4.214715 -0.057556 40
-0.614866 4.313326 -0.310780 48
0.198509 4.060847 -0.463228 77
-0.194122 4.203025 -0.324489 47
-0.616442 4.329506 -0.244498 31
-0.060065 4.227938 -0.688178 54
-0.191336 4.157613 -0.128615 39
-0.475943 4.326324 -0.453619 57
-0.059004 4.202214 -0.462490 61
-0.474627 4.320937 -0.385659 55
-0.057656 4.155200 -0.264361 61
-0.470118 4.286416 -0.182993 60
-0.331824 4.284578 -0.577214 50
-0.467918 4.272882 -0.116312 56
0.074578 4.108250 -0.396368 58
-0.326387 4.223450 -0.318510 56
0.075506 4.121812 -0.333861 59
-0.328788 4.263712 -0.255561 57
-0.625958 4.427823 -0.537194 39
0.204888 4.067173 -0.400731 40
-0.187174 4.187850 -0.258599 48
-0.602643 4.278219 -0.175038 0
-0.185214 4.159421 -0.192706 58
-0.470943 4.340309 -0.547657 56
-0.052531 4.185013 -0.395631 48
-0.468777 4.327017 -0.318852 44
-0.784695 4.540468 -1.111759 70
-0.051463 4.154718 -0.328468 61
-0.465097 4.299692 -0.250122 67
-0.765188 4.431965 -0.524360 31
0.081761 4.197811 -0.766499 54
-0.323821 4.263692 -0.453950 54
-0.456110 4.223150 -0.049674 35
0.080877 4.117461 -0.461208 59
-0.323303 4.266222 -0.387864 61
-0.456298 4.231440 0.015599 47
-0.186258 4.262201 -0.626336 48
-0.319685 4.227761 -0.188081 56
-0.610660 4.366504 -0.450960 52
-0.183861 4.223370 -0.457000 48
-0.318865 4.226209 -0.122826 58
-0.605862 4.337429 -0.380079 56
0.217045 4.157361 -0.865303 69
-0.179441 4.186233 -0.387964 45
-0.314950 4.211850 -0.057502 40
-0.599300 4.311488 -0.310495 40
0.211826 4.044255 -0.461416 72
-0.178285 4.175785 -0.322336 47
-0.598057 4.307892 -0.243158 34
-0.044978 4.196539 -0.683038 58
-0.175982 4.138283 -0.127997 17
-0.461692 4.335871 -0.454448 58
-0.044161 4.186491 -0.460739 65
-0.457429 4.302757 -0.383891 57
-0.043130 4.155376 -0.264361 56
-0.453865 4.276111 -0.182484 63
-0.752925 4.413757 -0.449283 0
-0.315658 4.269899 -0.575084 58
-0.452540 4.270517 -0.116204 50
0.089143 4.115924 -0.397137 58
-0.310707 4.212634 -0.317610 65
0.089701 4.109563 -0.332893 58
-0.313539 4.260857 -0.255323 60
-0.609882 4.426057 -0.536717 34
0.218556 4.054502 -0.399556 22
-0.171122 4.156571 -0.256629 47
-0.593020 4.319909 -0.176657 3
-0.170069 4.148071 -0.192152 53
-0.454822 4.334047 -0.546661 66
-0.037664 4.173226 -0.394502 48
-0.451436 4.308805 -0.317391 63
-0.766083 4.527871 -1.108006 58
-0.036831 4.158862 -0.328783 56
-0.449499 4.297335 -0.249891 61
-0.748213 4.426804 -0.523434 40
0.096143 4.177826 -0.762907 63
-0.309612 4.276711 -0.455217 49
-0.441182 4.224736 -0.049674 40
0.095352 4.113174 -0.460763 58
-0.307921 4.263366 -0.387503 65
-0.440080 4.221093 0.015555 52
-0.171002 4.258879 -0.625755 46
-0.304422 4.224881 -0.187903 64
-0.596802 4.380467 -0.452181 58
-0.168409 4.212074 -0.455710 44
-0.303018 4.215349 -0.122478 44
-0.590479 4.339550 -0.380079 65
0.231120 4.148757 -0.863675 60
-0.164984 4.190814 -0.388333 47
-0.298824 4.192976 -0.057230 28
-0.583176 4.305646 -0.309926 39
0.226607 4.055396 -0.462775 86
-0.164020 4.184352 -0.322951 48
-0.581410 4.298080 -0.242489 35
-0.030471 4.216410 -0.686251 54
-0.446146 4.333498 -0.454033 60
-0.029379 4.162765 -0.458114 64
-0.444037 4.320182 -0.385305 63
-0.028625 4.155501 -0.264361 56
-0.438120 4.269718 -0.182145 64
-0.736202 4.408507 -0.448485 42
-0.300751 4.270975 -0.575084 58
-0.436408 4.260138 -0.115879 60
0.103510 4.115588 -0.397137 63
-0.296560 4.221650 -0.318210 62
0.103743 4.097268 -0.331924 45
-0.297827 4.249976 -0.254607 61
-0.591786 4.408478 -0.534332 37
-0.156612 4.157143 -0.256629 51
-0.571581 4.274415 -0.174714 37
-0.155589 4.148639 -0.192152 52
-0.438890 4.327711 -0.545665 66
-0.022964 4.149439 -0.392243 54
-0.435589 4.302417 -0.316806 64
-0.749003 4.522845 -1.106130 55
-0.022249 4.147002 -0.327837 62
-0.435299 4.306824 -0.250353 56
-0.727568 4.398030 -0.519728 43
0.110413 4.165665 -0.760752 67
-0.293041 4.253957 -0.452684 57
-0.426834 4.230230 -0.049721 47
0.110133 4.128712 -0.462544 60
-0.292217 4.252492 -0.386420 72
-0.426545 4.234543 0.015599 60
-0.155700 4.247585 -0.624012 45
-0.288853 4.213958 -0.187372 55
-0.579414 4.366745 -0.450553 60
-0.153995 4.220584 -0.456570 51
-0.287484 4.204413 -0.122131 53
-0.576898 4.353436 -0.381117 76
0.245600 4.147925 -0.863675 73
-0.150069 4.183403 -0.387595 62
-0.282023 4.162069 -0.056794 8
-0.567099 4.299744 -0.309357 49
0.241468 4.066482 -0.464133 83
-0.148844 4.168956 -0.321721 45
-0.566925 4.304043 -0.242712 40
-0.015665 4.192803 -0.682395 52
-0.430230 4.327111 -0.453204 63
-0.014905 4.178746 -0.459864 65
-0.426592 4.297916 -0.383184 61
-0.014065 4.139608 -0.263345 54
-0.423607 4.275198 -0.182315 60
-0.720809 4.411050 -0.448485 81
-0.283988 4.244310 -0.571357 60
-0.421141 4.257656 -0.115771 56
0.117762 4.111222 -0.396753 61
-0.281025 4.210720 -0.317310 58
0.118045 4.096881 -0.331924 19
-0.281929 4.235054 -0.253652 60
-0.575879 4.406579 -0.533855 39
-0.141827 4.149684 -0.256136 52
-0.553561 4.252605 -0.173743 47
-0.140835 4.141170 -0.191782 53
-0.423394 4.325266 -0.545167 68
-0.558275 4.294497 -0.108864 0
-0.008504 4.161440 -0.393373 55
-0.421344 4.311852 -0.317391 53
-0.734454 4.533109 -1.108006 59
-0.007766 4.143067 -0.327522 62
-0.416773 4.272547 -0.248275 67
-0.706499 4.365245 -0.515559 38
0.125426 4.180986 -0.763626 56
-0.278191 4.254954 -0.452684 54
-0.411678 4.227713 -0.049674 63
0.124425 4.124329 -0.462099 60
-0.276853 4.245536 -0.385697 62
-0.410213 4.220081 0.015540 43
-0.140217 4.228326 -0.621107 45
-0.274920 4.226903 -0.187903 57
-0.564168 4.368742 -0.450553 61
-0.139131 4.217122 -0.456140 50
-0.272029 4.193422 -0.121783 57
-0.561698 4.355423 -0.381117 74
0.259108 4.131407 -0.860419 55
-0.134938 4.167979 -0.386120 50
-0.553091 4.309614 -0.309926 57
0.254421 4.045781 -0.461869 80
-0.133642 4.149520 -0.320183 49
-0.550875 4.298074 -0.242265 44
-0.001025 4.188884 -0.681753 61
-0.414740 4.324627 -0.452789 63
-0.000319 4.166845 -0.458552 69
-0.411209 4.295413 -0.382831 59
0.000379 4.135640 -0.263091 41
-0.407927 4.268693 -0.181976 61
-0.703529 4.401748 -0.447287 80
-0.268930 4.241318 -0.570824 67
-0.405527 4.251139 -0.115555 58
-0.702532 4.400259 -0.378096 7
0.131970 4.106807 -0.396368 60
-0.265584 4.199732 -0.316410 58
-0.267163 4.236011 -0.253652 61
-0.559011 4.396740 -0.532423 39
-0.127128 4.142172 -0.255643 50
-0.538243 4.250542 -0.173581 52
-0.126536 4.145629 -0.191967 55
-0.406093 4.303007 -0.542180 70
-0.544321 4.304349 -0.109065 17
0.005953 4.141533 -0.391491 65
-0.405209 4.301377 -0.316514 57
-0.714410 4.508754 -1.101439 63
0.006672 4.155032 -0.328468 74
-0.402650 4.281923 -0.248736 61
-0.693788 4.383374 -0.517412 38
0.139839 4.176592 -0.762907 68
-0.263386 4.255896 -0.452684 57
-0.398462 4.245049 -0.049861 66
0.138100 4.104006 -0.459873 65
-0.261840 4.242497 -0.385336 68
-0.394414 4.209535 0.015496 15
-0.125866 4.240655 -0.622850 48
-0.258503 4.199914 -0.186663 50
-0.547486 4.358832 -0.449332 56
-0.124236 4.209630 -0.455280 45
-0.256962 4.186360 -0.121551 54
-0.545068 4.345487 -0.380079 77
0.274304 4.142201 -0.862861 55
-0.120618 4.176387 -0.386858 47
-0.539033 4.319437 -0.310495 60
0.269069 4.052800 -0.462775 81
-0.119729 4.169894 -0.321721 47
-0.534881 4.292045 -0.241819 51
0.013609 4.192810 -0.682395 56
-0.398178 4.310202 -0.451131 61
0.014185 4.154892 -0.457239 71
-0.396579 4.300789 -0.383184 57
0.014887 4.155573 -0.264361 22
-0.394123 4.282030 -0.182484 60
-0.688774 4.408109 -0.447686 69
-0.254835 4.254103 -0.572422 60
-0.390686 4.252528 -0.115555 58
-0.685938 4.394808 -0.377420 29
0.145737 4.090405 -0.394832 69
-0.250685 4.196652 -0.316110 54
-0.252137 4.232932 -0.253414 60
-0.543660 4.398665 -0.532423 38
-0.112559 4.138599 -0.255397 48
-0.524379 4.260329 -0.173905 42
-0.111740 4.134063 -0.191412 52
-0.390711 4.300445 -0.541682 78
-0.525390 4.274472 -0.108260 51
0.020430 4.145470 -0.391867 56
-0.390192 4.302766 -0.316514 53
-0.696882 4.499693 -1.098624 72
0.021114 4.143021 -0.327522 65
-0.387341 4.279325 -0.248506 61
-0.682127 4.409328 -0.520191 47
0.153836 4.160349 -0.760034 57
-0.248296 4.252819 -0.452261 48
-0.382922 4.238447 -0.049767 79
-0.681917 4.412882 -0.309892 0
0.152720 4.111444 -0.460763 61
-0.247492 4.251339 -0.386058 63
-0.110752 4.229200 -0.621107 51
-0.243841 4.200791 -0.186663 57
-0.530822 4.348866 -0.448111 58
-0.109645 4.214013 -0.455710 48
-0.242578 4.191223 -0.121667 53
-0.529896 4.347363 -0.380079 77
0.287127 4.117777 -0.857977 55
-0.105837 4.168819 -0.386120 53
-0.522511 4.309409 -0.309642 70
0.282660 4.043907 -0.461869 75
-0.105172 4.170287 -0.321721 41
-0.521336 4.305780 -0.242489 57
0.028218 4.188789 -0.681753 55
-0.384187 4.323454 -0.452375 57
-0.522840 4.324299 -0.042574 3
0.028606 4.142890 -0.455926 66
-0.379100 4.274366 -0.380710 61
-0.377764 4.267457 -0.181806 63
-0.672782 4.406552 -0.447287 70
-0.239314 4.243093 -0.570824 66
-0.374784 4.241917 -0.115230 56
-0.669392 4.389296 -0.376743 43
0.159081 4.066000 -0.392528 80
-0.235586 4.189537 -0.315510 62
-0.533664 4.438883 -1.285543 7
-0.238254 4.249732 -0.254368 53
-0.524515 4.368991 -0.528607 39
-0.098207 4.142959 -0.255643 48
-0.509030 4.258164 -0.173743 44
-0.097215 4.130433 -0.191227 33
-0.375697 4.301783 -0.541682 62
-0.508097 4.256427 -0.107758 55
0.034866 4.141391 -0.391491 65
-0.374131 4.292179 -0.315637 53
-0.681171 4.502098 -1.098624 84
0.035576 4.142921 -0.327522 57
-0.371362 4.268717 -0.247813 63
-0.667325 4.415610 -0.520655 58
0.168198 4.155855 -0.759315 63
-0.232578 4.237772 -0.450572 60
-0.367778 4.235773 -0.049721 93
-0.658766 4.363942 -0.306292 11
0.166586 4.098970 -0.459428 64
-0.231998 4.240244 -0.384975 63
-0.095719 4.217691 -0.619364 48
-0.228305 4.185656 -0.185953 52
-0.513296 4.330935 -0.446076 61
-0.094487 4.194491 -0.453561 47
-0.227295 4.180067 -0.121320 48
-0.512844 4.333357 -0.378696 73
0.300652 4.105031 -0.855535 55
-0.090925 4.153235 -0.384645 47
-0.507454 4.311208 -0.309642 64
0.295326 4.023077 -0.459605 67
-0.090435 4.162654 -0.321105 53
-0.508161 4.323441 -0.243382 54
0.042641 4.168926 -0.678540 65
-0.367060 4.300985 -0.449887 61
-0.497016 4.234730 -0.041675 38
0.043190 4.154692 -0.457239 66
-0.362826 4.259784 -0.379296 59
-0.362532 4.264767 -0.181636 64
-0.656228 4.401000 -0.446488 79
-0.224930 4.251819 -0.571889 53
-0.359308 4.235230 -0.115014 58
-0.650554 4.367951 -0.374714 43
0.173937 4.081333 -0.394064 77
-0.220975 4.190332 -0.315510 54
-0.518627 4.444536 -1.286648 26
-0.221970 4.222626 -0.252698 60
-0.510200 4.378683 -0.529561 39
-0.083856 4.147267 -0.255890 41
-0.492353 4.244031 -0.173095 52
-0.360052 4.295155 -0.540686 66
-0.493732 4.262143 -0.107858 68
0.049094 4.125317 -0.389985 54
-0.357191 4.269603 -0.313884 62
-0.664357 4.496749 -1.096748 78
0.049898 4.134798 -0.326892 65
-0.356836 4.273963 -0.248044 73
-0.651374 4.413975 -0.520191 64
0.182656 4.155245 -0.759315 65
-0.217628 4.234584 -0.450150 66
-0.350382 4.205139 -0.049346 100
-0.638924 4.334625 -0.304076 27
0.180667 4.094395 -0.458983 61
-0.216637 4.229090 -0.383892 61
-0.080825 4.206129 -0.617621 52
-0.213749 4.186424 -0.185953 57
-0.498234 4.332694 -0.446076 56
-0.080057 4.202746 -0.454420 49
-0.212966 4.184825 -0.121436 32
-0.495050 4.311359 -0.376621 83
0.314979 4.103957 -0.855535 55
-0.076280 4.145563 -0.383907 48
-0.490591 4.297097 -0.308503 70
0.311196 4.045797 -0.462322 15
-0.075686 4.150982 -0.320183 50
-0.490804 4.305348 -0.242265 59
0.057138 4.164804 -0.677897 66
-0.350747 4.286379 -0.448228 62
-0.480874 4.224516 -0.041558 45
0.057416 4.134638 -0.455051 71
-0.348279 4.264995 -0.379649 64
-0.347643 4.266006 -0.181636 68
-0.639715 4.395386 -0.445689 81
-0.208327 4.216942 -0.567097 62
-0.344198 4.232473 -0.114905 66
-0.633583 4.358362 -0.373700 48
0.187632 4.068769 -0.392912 91
-0.205170 4.167175 -0.313711 56
-0.502677 4.442499 -1.285543 47
-0.207229 4.223375 -0.252698 60
-0.490900 4.344920 -0.525267 37
-0.069245 4.139551 -0.255397 38
-0.476195 4.233809 -0.172609 67
-0.345057 4.296386 -0.540686 72
-0.479297 4.267814 -0.107959 73
0.063309 4.113175 -0.388856 65
-0.343560 4.286730 -0.315053 64
-0.646437 4.483646 -1.092995 72
0.064331 4.134599 -0.326892 62
-0.341279 4.267221 -0.247582 68
-0.634830 4.408357 -0.519265 65
0.196786 4.146721 -0.757879 64
-0.202655 4.231344 -0.449728 57
-0.335383 4.202350 -0.049300 100
-0.622653 4.328930 -0.303522 37
0.194769 4.089769 -0.458537 68
-0.201683 4.225841 -0.383530 59
-0.624223 4.344998 -0.236964 6
-0.066329 4.218256 -0.619364 54
-0.198565 4.175170 -0.185422 52
-0.482225 4.326497 -0.445262 59
-0.064705 4.159260 -0.449691 54
-0.197600 4.169568 -0.120972 21
-0.479557 4.309101 -0.376275 76
0.329929 4.110640 -0.857163 48
-0.061868 4.149786 -0.384276 43
-0.474273 4.286886 -0.307649 72
0.324360 4.032801 -0.460963 19
-0.060960 4.135270 -0.318952 53
-0.475334 4.303065 -0.242042 66
0.071744 4.168526 -0.678540 65
-0.336093 4.291543 -0.448643 62
-0.469194 4.253999 -0.041831 53
0.072056 4.146338 -0.456364 62
-0.334320 4.278101 -0.380710 55
-0.469373 4.262166 0.023949 17
-0.330575 4.239304 -0.180449 60
-0.622131 4.381831 -0.444092 75
-0.193787 4.221604 -0.567629 62
-0.329732 4.237635 -0.115014 56
-0.613888 4.328978 -0.370994 47
0.202623 4.083995 -0.394448 55
-0.190440 4.163881 -0.313411 58
-0.484234 4.417478 -1.277805 36
-0.191576 4.204129 -0.251505 56
-0.477459 4.362398 -0.527175 49
-0.054848 4.143759 -0.255643 32
-0.460115 4.223526 -0.172123 69
-0.328234 4.273820 -0.537699 64
-0.463100 4.257535 -0.107657 82
0.078043 4.132836 -0.390738 57
-0.328290 4.283925 -0.314760 60
-0.630782 4.485875 -1.092995 80
0.078687 4.130362 -0.326577 67
-0.326990 4.276350 -0.248044 63
-0.619990 4.414481 -0.519728 60
0.210058 4.122430 -0.753568 69
-0.187002 4.212157 -0.447616 60
-0.320104 4.195518 -0.049206 73
-0.608093 4.335029 -0.303799 40
0.208638 4.081124 -0.457647 65
-0.186579 4.218560 -0.382808 59
-0.605173 4.319462 -0.235455 35
-0.051362 4.198676 -0.616459 48
-0.183990 4.175838 -0.185422 62
-0.466693 4.324198 -0.444855 67
-0.050522 4.187297 -0.452701 59
-0.464939 4.314710 -0.376621 78
0.342293 4.086050 -0.852279 73
-0.047450 4.153960 -0.384645 50
-0.458054 4.276612 -0.306796 72
0.339087 4.039567 -0.461869 6
-0.046449 4.127481 -0.318337 50
-0.458202 4.284841 -0.240926 68
0.086126 4.160356 -0.677255 77
-0.320522 4.284755 -0.447814 67
-0.453498 4.247656 -0.041753 47
0.085951 4.118236 -0.453301 69
-0.317603 4.255403 -0.378589 66
-0.449402 4.216050 0.023681 50
-0.316654 4.252388 -0.180958 71
-0.607365 4.387920 -0.444491 86
-0.179198 4.226216 -0.568162 53
-0.312844 4.210849 -0.114256 68
-0.599299 4.335045 -0.371332 52
-0.175707 4.160537 -0.313111 63
-0.469592 4.426790 -1.280016 36
-0.595349 4.311853 -0.167977 0
-0.176527 4.196795 -0.251027 61
-0.460516 4.348245 -0.525267 44
-0.040244 4.135942 -0.255151 33
-0.446144 4.233062 -0.172447 73
-0.313821 4.282862 -0.538695 68
-0.447326 4.251180 -0.107456 71
0.092190 4.116612 -0.389232 55
-0.311798 4.265158 -0.313299 56
-0.612923 4.472651 -1.089242 71
0.093011 4.122087 -0.325946 40
-0.309647 4.245610 -0.246196 68
-0.603946 4.412694 -0.519265 71
0.226254 4.153099 -0.759315 61
-0.172688 4.224711 -0.448883 55
-0.305360 4.196618 -0.049206 31
-0.590695 4.321324 -0.302692 47
0.222768 4.076396 -0.457202 75
-0.171909 4.223170 -0.383169 69
-0.586741 4.297818 -0.234161 40
-0.036592 4.198830 -0.616459 52
-0.168652 4.160488 -0.184713 67
-0.450652 4.317897 -0.444041 56
-0.035478 4.151659 -0.448831 54
-0.448097 4.300466 -0.375237 75
0.357575 4.096534 -0.854721 71
-0.032918 4.150117 -0.384276 48
-0.443123 4.278184 -0.306796 71
-0.032165 4.143571 -0.319568 51
-0.442831 4.282442 -0.240702 68
0.100743 4.163977 -0.677897 70
-0.306130 4.293785 -0.448643 63
-0.435382 4.217384 -0.041440 50
0.100810 4.137785 -0.455489 71
-0.302181 4.248537 -0.377882 62
-0.437143 4.241466 0.023815 45
-0.299263 4.217590 -0.179432 61
-0.587789 4.358459 -0.441296 91
-0.164136 4.218893 -0.567097 57
-0.297861 4.207927 -0.114148 64
-0.584695 4.341061 -0.371670 59
-0.160875 4.153153 -0.312511 65
-0.454529 4.432226 -1.281121 38
-0.581360 4.321828 -0.168286 19
-0.162030 4.201375 -0.251266 60
-0.443313 4.330072 -0.522882 52
-0.025707 4.120088 -0.254166 37
-0.431365 4.234594 -0.172447 69
-0.297765 4.268095 -0.536703 76
-0.431270 4.240780 -0.107155 65
0.106766 4.124227 -0.389985 62
-0.296908 4.266220 -0.313299 61
-0.597821 4.478618 -1.090181 81
0.107295 4.117751 -0.325631 21
-0.295378 4.254632 -0.246658 75
-0.586439 4.399023 -0.517412 64
0.238928 4.120857 -0.753568 75
-0.158088 4.229263 -0.449305 65
-0.575081 4.319404 -0.302415 44
0.237226 4.079562 -0.457647 69
-0.156574 4.207821 -0.381725 63
-0.570682 4.291921 -0.233730 36
-0.021935 4.198932 -0.616459 52
-0.153980 4.157058 -0.184535 65
-0.434779 4.311526 -0.443227 61
-0.021066 4.167664 -0.450551 50
-0.432285 4.294074 -0.374546 70
0.370810 4.083560 -0.852279 93
-0.018396 4.142241 -0.383539 50
-0.428186 4.279705 -0.306796 72
-0.017684 4.139669 -0.319260 51
-0.427880 4.283961 -0.240702 72
0.114622 4.139921 -0.674042 64
-0.290602 4.286889 -0.447814 69
-0.419468 4.206937 -0.041323 67
0.114921 4.125484 -0.454176 66
-0.287349 4.249566 -0.377882 69
-0.419562 4.215104 0.023658 34
-0.284808 4.222597 -0.179601 61
-0.572054 4.356538 -0.440897 86
-0.148567 4.195669 -0.563902 62
-0.283439 4.212931 -0.114256 56
-0.570575 4.350979 -0.372347 65
-0.146095 4.145717 -0.311911 62
-0.439813 4.441437 -1.283332 50
-0.563675 4.304015 -0.167514 52
-0.147644 4.209896 -0.251743 60
-0.428586 4.335546 -0.523359 59
-0.011336 4.124145 -0.254412 30
-0.415799 4.228119 -0.172123 73
-0.283389 4.277028 -0.537699 66
-0.415683 4.234301 -0.106954 82
0.120226 4.091985 -0.386973 72
-0.280436 4.243347 -0.311545 63
-0.579178 4.457541 -1.084551 80
-0.278949 4.231730 -0.245272 64
-0.569035 4.385283 -0.515559 72
0.253552 4.123926 -0.754287 68
-0.142381 4.201962 -0.446349 60
-0.558974 4.313470 -0.301861 50
0.250976 4.070774 -0.456757 70
-0.142019 4.212323 -0.382086 70
-0.555697 4.293887 -0.233730 38
-0.007257 4.187111 -0.614716 55
-0.139468 4.157570 -0.184535 82
-0.419341 4.309056 -0.442820 64
-0.006493 4.151805 -0.448831 56
-0.417679 4.299523 -0.374892 74
0.384348 4.074441 -0.850651 80
-0.003915 4.142280 -0.383539 50
-0.409772 4.245433 -0.304234 71
-0.003211 4.127742 -0.318337 50
-0.412909 4.285430 -0.240702 60
0.128831 4.131603 -0.672757 67
-0.274865 4.275967 -0.446570 64
-0.404775 4.208376 -0.041323 70
0.128570 4.101214 -0.451551 72
-0.272772 4.254519 -0.378235 60
-0.405613 4.224506 0.023703 5
-0.269058 4.207612 -0.178923 61
-0.556351 4.354558 -0.440497 100
-0.134320 4.208048 -0.565499 65
-0.267989 4.201921 -0.113932 62
-0.553891 4.341081 -0.371332 70
-0.131905 4.154174 -0.312511 56
-0.425434 4.454422 -1.286648 52
-0.547667 4.298023 -0.167206 53
-0.131976 4.178458 -0.249834 64
-0.412734 4.329104 -0.522405 55
-0.549732 4.319989 -0.101106 18
0.003004 4.132144 -0.254905 10
-0.399591 4.213623 -0.171476 77
-0.268530 4.277987 -0.537699 78
-0.402103 4.247662 -0.107255 85
0.134562 4.095523 -0.387350 77
-0.265454 4.240313 -0.311253 52
-0.564675 4.467241 -1.086428 77
-0.264016 4.228686 -0.245041 60
-0.552323 4.375405 -0.514170 72
0.266831 4.107315 -0.751413 62
-0.128294 4.218334 -0.448039 63
-0.544013 4.315383 -0.301861 62
0.265082 4.069880 -0.456757 63
-0.127059 4.200844 -0.381002 65
-0.539815 4.287861 -0.233299 38
0.007238 4.183153 -0.614135 51
-0.124587 4.142051 -0.183826 68
-0.404042 4.306521 -0.442413 65
0.007894 4.159756 -0.449691 55
-0.402793 4.300943 -0.374892 68
0.397805 4.065279 -0.849023 71
0.010524 4.134303 -0.382801 45
-0.394950 4.246838 -0.304234 62
0.011154 4.111775 -0.317107 51
-0.396471 4.270939 -0.239809 66
0.144073 4.154802 -0.676612 60
-0.258972 4.261015 -0.444911 64
-0.390821 4.217730 -0.041401 87
0.143024 4.104714 -0.451989 65
-0.257196 4.243514 -0.377175 65
-0.254610 4.212514 -0.179092 64
-0.540657 4.352524 -0.440098 99
-0.119180 4.192641 -0.563370 62
-0.253079 4.198840 -0.113823 55
-0.537262 4.331121 -0.370318 81
-0.117065 4.142648 -0.311612 60
-0.408826 4.444396 -1.283332 59
-0.532661 4.299908 -0.167206 61
-0.117726 4.190867 -0.250550 65
-0.396531 4.318654 -0.520973 65
-0.530230 4.286164 -0.100271 50
-0.384881 4.214992 -0.171476 68
-0.252187 4.255126 -0.534712 76
-0.386184 4.237093 -0.106954 75
0.148278 4.079110 -0.385844 83
-0.250886 4.245196 -0.311545 61
-0.548129 4.461466 -1.084551 86
-0.249489 4.233568 -0.245272 64
-0.538014 4.385193 -0.515096 62
0.281435 4.110284 -0.752132 58
-0.112926 4.194899 -0.445505 54
-0.528461 4.313295 -0.301584 73
0.279287 4.068930 -0.456757 74
-0.112288 4.197280 -0.380641 65
-0.524845 4.289720 -0.233299 45
0.021758 4.167272 -0.611811 59
-0.110446 4.154445 -0.184358 45
-0.388291 4.299979 -0.441599 64
-0.522449 4.276069 -0.033835 0
0.022307 4.139820 -0.447542 50
-0.385274 4.274540 -0.372471 76
0.024835 4.114326 -0.380957 50
-0.380124 4.248190 -0.304234 71
0.025532 4.115699 -0.317414 52
-0.381916 4.276275 -0.240032 64
0.157672 4.130603 -0.672757 62
-0.243187 4.246006 -0.443252 67
-0.373610 4.191180 -0.041128 100
0.157351 4.104189 -0.451989 69
-0.241700 4.232452 -0.376114 63
-0.238541 4.189437 -0.178075 64
-0.522599 4.330677 -0.437702 89
-0.104544 4.193031 -0.563370 61
-0.237514 4.183730 -0.113391 53
-0.523571 4.344841 -0.371332 70
-0.102110 4.123094 -0.310112 63
-0.392632 4.438138 -1.281121 59
-0.515738 4.285868 -0.166589 59
-0.102901 4.183269 -0.250073 56
-0.381104 4.316056 -0.520496 66
-0.509540 4.240345 -0.099157 53
-0.370165 4.216310 -0.171476 66
-0.237553 4.259943 -0.535210 70
-0.370694 4.230448 -0.106753 75
0.162516 4.078568 -0.385844 74
-0.235623 4.238080 -0.310961 58
-0.532553 4.463352 -1.084551 80
-0.234046 4.222452 -0.244579 60
-0.521764 4.379154 -0.514170 64
0.294651 4.093577 -0.749258 69
-0.098189 4.191290 -0.445083 68
-0.513402 4.315113 -0.301584 81
0.293489 4.067930 -0.456757 55
-0.097543 4.193664 -0.380280 66
-0.507983 4.275661 -0.232436 48
0.036407 4.179043 -0.613554 56
-0.373623 4.305273 -0.442006 55
-0.507991 4.281839 -0.033866 13
0.036757 4.139716 -0.447542 52
-0.371038 4.283799 -0.373162 79
0.039224 4.118197 -0.381326 53
-0.365304 4.249491 -0.304234 68
0.039814 4.107609 -0.316799 49
-0.365287 4.257685 -0.238916 70
0.171922 4.126083 -0.672114 65
-0.227512 4.230937 -0.441594 64
-0.357956 4.180502 -0.041010 101
0.171179 4.091698 -0.450676 75
-0.226923 4.233271 -0.376114 60
-0.224336 4.198226 -0.178414 72
-0.508399 4.340382 -0.438501 91
-0.089812 4.189407 -0.562837 54
-0.222048 4.168562 -0.112958 35
-0.505150 4.318933 -0.368965 72
-0.087788 4.127413 -0.310412 60
-0.375495 4.420330 -1.275594 67
-0.501223 4.291614 -0.166743 67
-0.088532 4.195579 -0.250789 50
-0.365682 4.313405 -0.520019 63
-0.495180 4.246071 -0.099249 42
-0.355078 4.213596 -0.171314 71
-0.222853 4.264712 -0.535708 78
-0.355218 4.223750 -0.106552 86
0.176618 4.073995 -0.385468 51
-0.219336 4.210991 -0.308915 67
-0.513797 4.438150 -1.077984 80
-0.219468 4.227233 -0.244810 58
-0.503691 4.357273 -0.511390 64
0.308689 4.088597 -0.748540 75
-0.083272 4.179678 -0.443816 68
-0.497829 4.312921 -0.301307 81
-0.082301 4.166100 -0.377752 65
-0.493001 4.277413 -0.232436 58
0.051003 4.174932 -0.612973 68
-0.358205 4.302590 -0.441599 60
-0.488410 4.243856 -0.033552 51
0.051119 4.127633 -0.446252 54
-0.355361 4.277131 -0.372471 74
0.053547 4.114053 -0.380957 45
-0.348829 4.230858 -0.302811 76
0.054205 4.111433 -0.317107 48
-0.349112 4.243013 -0.238023 80
0.186324 4.125458 -0.672114 67
-0.213541 4.247600 -0.443252 59
-0.343034 4.177740 -0.040971 101
0.185461 4.091075 -0.450676 73
-0.211946 4.230058 -0.375761 66
-0.208684 4.179027 -0.177566 68
-0.489651 4.310493 -0.435306 97
-0.074974 4.177804 -0.561240 68
-0.208291 4.185287 -0.113391 9
-0.490970 4.328591 -0.369641 76
-0.073309 4.123706 -0.310112 52
-0.359439 4.413951 -1.273384 58
-0.485790 4.289365 -0.166589 65
-0.073324 4.163924 -0.248880 60
-0.350944 4.318613 -0.520496 59
-0.479906 4.243801 -0.099157 39
-0.338759 4.194891 -0.170504 69
-0.207965 4.265464 -0.535708 72
-0.340794 4.228951 -0.106652 88
0.191024 4.077332 -0.385844 35
-0.204248 4.203762 -0.308331 68
-0.497435 4.432189 -1.076108 69
-0.202973 4.192076 -0.242732 67
-0.487151 4.347160 -0.510001 69
0.324199 4.103185 -0.751413 53
-0.068878 4.191875 -0.445083 67
-0.480109 4.290838 -0.299645 86
0.323500 4.085592 -0.458983 11
-0.067952 4.178311 -0.378836 63
-0.478067 4.279109 -0.232436 63
0.065203 4.150987 -0.609487 58
-0.342867 4.299848 -0.441192 64
-0.466942 4.185907 -0.033081 48
0.065527 4.127429 -0.446252 54
-0.339480 4.266428 -0.371433 81
-0.469338 4.213823 0.031821 3
0.067124 4.109870 -0.380588 48
-0.333538 4.216082 -0.301673 80
0.067641 4.099268 -0.316184 41
-0.335354 4.248129 -0.238246 72
0.200004 4.124817 -0.672114 70
-0.199454 4.248284 -0.443252 58
-0.329807 4.186830 -0.041049 100
0.198447 4.078524 -0.449363 72
-0.197545 4.222777 -0.375054 68
-0.194825 4.179696 -0.177566 76
-0.477535 4.331873 -0.437302 94
-0.060888 4.162174 -0.559110 61
-0.474433 4.310386 -0.367950 75
-0.059346 4.103985 -0.308612 58
-0.344202 4.407454 -1.271173 56
-0.471563 4.290953 -0.166589 66
-0.059572 4.168137 -0.249119 54
-0.336313 4.315794 -0.520019 59
-0.464522 4.233443 -0.098878 43
-0.325464 4.203961 -0.170828 70
-0.193279 4.254236 -0.534214 76
-0.325536 4.214110 -0.106250 86
-0.190307 4.204416 -0.308331 73
-0.483576 4.441545 -1.077984 74
-0.189251 4.196715 -0.242963 62
-0.473592 4.356651 -0.510927 69
0.336835 4.090322 -0.749258 56
-0.054977 4.192080 -0.445083 67
-0.468030 4.312242 -0.301030 82
-0.054148 4.182497 -0.379197 63
-0.462584 4.268757 -0.231789 57
0.079043 4.154705 -0.610068 58
-0.327697 4.289058 -0.439971 69
-0.455640 4.211292 -0.033269 46
0.079290 4.131165 -0.446682 55
-0.325936 4.275477 -0.372125 76
-0.460517 4.263078 0.032181 49
0.081400 4.105628 -0.380220 58
-0.318811 4.217221 -0.301673 76
0.081955 4.099007 -0.316184 28
-0.320218 4.245292 -0.238023 71
0.214198 4.120151 -0.671472 74
-0.184276 4.241005 -0.442423 70
-0.316388 4.203910 -0.041206 36
0.212888 4.081777 -0.449801 72
-0.182632 4.219460 -0.374700 65
-0.179377 4.160387 -0.176718 77
-0.459882 4.309768 -0.434906 90
-0.046278 4.154432 -0.558045 64
-0.458125 4.300126 -0.366936 77
-0.045075 4.108155 -0.308912 62
-0.329398 4.416294 -1.273384 59
-0.453211 4.260775 -0.165355 77
-0.044907 4.156342 -0.248403 54
-0.321261 4.316940 -0.520019 66
-0.450601 4.242990 -0.099064 56
-0.309339 4.185141 -0.170018 72
-0.177957 4.242987 -0.532721 76
-0.311146 4.219206 -0.106351 81
-0.175827 4.209039 -0.308623 80
-0.466065 4.423867 -1.073293 76
-0.174302 4.189369 -0.242501 65
-0.455923 4.334566 -0.508148 65
0.351411 4.093046 -0.749977 49
-0.040266 4.180314 -0.443816 67
-0.452180 4.305909 -0.300476 88
-0.039513 4.174693 -0.378475 74
-0.447305 4.266369 -0.231574 64
0.093768 4.166274 -0.611811 63
-0.313347 4.298110 -0.440785 64
-0.438483 4.188983 -0.033081 41
0.093213 4.110985 -0.444532 60
-0.309613 4.256713 -0.370396 86
-0.439861 4.208959 0.031761 41
0.095545 4.097355 -0.379482 56
-0.304088 4.218308 -0.301673 75
-0.305683 4.250367 -0.238246 83
0.228360 4.115436 -0.670829 70
-0.168995 4.229697 -0.441179 74
0.227356 4.084979 -0.450238 69
-0.167744 4.216091 -0.374347 68
-0.165645 4.180954 -0.177566 80
-0.446061 4.323224 -0.436104 86
-0.032019 4.186283 -0.562305 57
-0.443112 4.301699 -0.366936 81
-0.030734 4.108288 -0.308912 60
-0.312345 4.394410 -1.266751 55
-0.438744 4.266307 -0.165509 79
-0.030369 4.152480 -0.248164 43
-0.304785 4.298228 -0.517634 76
-0.435787 4.244538 -0.099064 60
-0.293886 4.174234 -0.169533 74
-0.162382 4.223752 -0.530231 78
-0.295856 4.212289 -0.106150 89
-0.161133 4.209628 -0.308623 75
-0.451802 4.437072 -1.076108 81
-0.159830 4.193942 -0.242732 78
-0.440388 4.332179 -0.507685 66
0.366046 4.095713 -0.750695 47
-0.025674 4.180429 -0.443816 67
-0.435938 4.295551 -0.299645 82
-0.024869 4.162855 -0.377391 63
-0.432008 4.263931 -0.231358 63
0.107488 4.134272 -0.607163 57
-0.296414 4.271389 -0.437936 64
-0.426676 4.218346 -0.033301 47
0.107770 4.118586 -0.445392 58
-0.294202 4.249816 -0.369704 81
-0.425970 4.218428 0.031821 12
0.109847 4.096997 -0.379482 43
-0.288542 4.207402 -0.300819 72
-0.289209 4.227501 -0.236906 69
0.242491 4.110673 -0.670187 68
-0.154664 4.242188 -0.442423 68
0.242083 4.092098 -0.451113 71
-0.153170 4.220633 -0.374700 71
-0.149895 4.149556 -0.176209 71
-0.427415 4.289111 -0.432510 75
-0.017257 4.150690 -0.557512 59
-0.426910 4.291321 -0.365921 73
-0.016362 4.100393 -0.308313 58
-0.296745 4.391638 -1.265646 58
-0.423060 4.259858 -0.165201 70
-0.015798 4.132597 -0.246971 28
-0.289246 4.291340 -0.516680 69
-0.420574 4.242054 -0.098971 55
-0.279580 4.179223 -0.169695 78
-0.147915 4.232227 -0.531227 80
-0.280352 4.201326 -0.105848 79
-0.146161 4.202190 -0.308038 73
-0.434028 4.415404 -1.070479 75
-0.145327 4.198465 -0.242963 69
-0.425651 4.337644 -0.508148 71
0.377429 4.063066 -0.744948 55
-0.011050 4.168560 -0.442549 70
-0.420941 4.297046 -0.299645 77
-0.010308 4.150965 -0.376308 66
-0.417121 4.265413 -0.231358 61
0.121919 4.133871 -0.607163 64
-0.280979 4.264457 -0.437122 62
-0.410394 4.203886 -0.033175 56
0.122264 4.122159 -0.445822 54
-0.279365 4.250818 -0.369704 78
0.123563 4.100591 -0.379851 29
-0.274837 4.212318 -0.301104 72
-0.274663 4.220467 -0.236460 61
0.255387 4.098025 -0.668259 63
-0.140066 4.226773 -0.440765 67
0.254410 4.071432 -0.448926 69
-0.138519 4.201206 -0.372933 69
-0.136140 4.150031 -0.176209 63
-0.411670 4.274658 -0.430913 77
-0.003506 4.154689 -0.558045 66
-0.413832 4.304614 -0.366936 68
-0.002770 4.088458 -0.307413 68
-0.281209 4.377252 -1.261225 56
-0.408182 4.253278 -0.164892 68
-0.274271 4.280385 -0.515248 63
-0.405379 4.231481 -0.098692 59
-0.264737 4.164170 -0.169047 80
-0.133790 4.228726 -0.530729 66
-0.265948 4.194249 -0.105647 77
-0.131512 4.178727 -0.306285 75
-0.417588 4.397460 -1.065788 69
-0.130698 4.174975 -0.241577 69
-0.409061 4.315295 -0.505369 69
0.392738 4.081381 -0.748540 50
0.002721 4.160618 -0.441704 62
-0.405987 4.290468 -0.299091 76
0.003402 4.146993 -0.375947 62
-0.401525 4.250862 -0.230496 65
0.135311 4.125535 -0.606001 57
-0.266645 4.261390 -0.436715 59
-0.393504 4.173360 -0.032924 75
0.134956 4.093911 -0.442813 59
-0.264337 4.235807 -0.368321 72
0.137608 4.092173 -0.379113 29
-0.260377 4.217234 -0.301388 67
-0.259684 4.217414 -0.236237 71
0.269691 4.097108 -0.668259 57
-0.125429 4.231213 -0.441179 63
0.269144 4.078454 -0.449801 58
-0.123853 4.201664 -0.372933 72
-0.121067 4.130507 -0.175361 38
-0.396378 4.272106 -0.430513 89
0.010975 4.146747 -0.556980 65
-0.396598 4.282220 -0.364907 77
0.011535 4.100409 -0.308313 56
-0.265462 4.370532 -1.259014 59
-0.393333 4.254677 -0.164892 81
-0.259808 4.289245 -0.516203 70
-0.392076 4.248798 -0.099064 62
-0.250199 4.165069 -0.169047 80
-0.118805 4.221232 -0.529733 76
-0.250110 4.175194 -0.105144 81
-0.117259 4.191123 -0.307162 82
-0.403298 4.410508 -1.068602 82
-0.116235 4.179398 -0.241808 75
-0.393995 4.316696 -0.505369 64
0.406201 4.072154 -0.747103 53
0.017277 4.168539 -0.442549 65
-0.390284 4.283912 -0.298538 79
0.017895 4.150939 -0.376308 66
-0.385961 4.244282 -0.230065 64
0.149424 4.117127 -0.604838 63
-0.250830 4.246406 -0.435087 61
-0.380380 4.190642 -0.033049 95
0.149680 4.105337 -0.444102 53
-0.250721 4.256595 -0.370050 61
0.151596 4.083707 -0.378376 32
-0.244727 4.202185 -0.300250 75
-0.244961 4.218295 -0.236237 65
0.284264 4.100080 -0.668902 68
-0.110242 4.215717 -0.439521 64
0.283931 4.085422 -0.450676 40
-0.107944 4.154275 -0.368691 67
-0.382171 4.281392 -0.431312 77
0.025426 4.142719 -0.556447 81
-0.381294 4.279608 -0.364568 79
0.025848 4.100344 -0.308313 56
-0.249545 4.359918 -1.255698 63
-0.378125 4.252043 -0.164738 75
-0.244834 4.290125 -0.516203 70
-0.375121 4.226242 -0.098507 59
-0.235659 4.165917 -0.169047 67
-0.103678 4.205751 -0.527742 74
-0.237111 4.203989 -0.105848 49
-0.102434 4.183531 -0.306577 73
-0.386878 4.400268 -1.065788 76
-0.100966 4.151833 -0.240191 69
-0.376146 4.286382 -0.501663 69
0.418392 4.051140 -0.743511 51
0.031797 4.164475 -0.442127 65
-0.374980 4.281272 -0.298261 71
0.032260 4.134917 -0.374863 70
-0.370448 4.237645 -0.229633 67
0.163322 4.104718 -0.603095 75
-0.236006 4.247255 -0.435087 58
-0.365750 4.191945 -0.033049 97
0.163692 4.096842 -0.443243 59
-0.234759 4.237550 -0.368321 80
0.165346 4.071215 -0.377269 23
-0.230295 4.206996 -0.300535 69
-0.229594 4.207160 -0.235567 71
0.298856 4.103001 -0.669544 70
-0.095711 4.224030 -0.440350 64
-0.094066 4.182510 -0.371166 73
-0.366533 4.274770 -0.430513 74
0.040019 4.154498 -0.558045 79
-0.366335 4.280915 -0.364568 75
0.040029 4.084274 -0.307113 49
-0.234298 4.360764 -1.255698 59
-0.361894 4.237409 -0.164121 78
-0.228761 4.271127 -0.513817 71
-0.360673 4.231513 -0.098599 72
-0.220425 4.154744 -0.168561 70
-0.089269 4.221961 -0.529733 64
-0.220259 4.164862 -0.104843 16
-0.087592 4.175888 -0.305993 73
-0.370460 4.389974 -1.062973 64
-0.086645 4.164139 -0.240884 73
-0.363102 4.311430 -0.504442 71
0.433031 4.053559 -0.744230 51
0.045976 4.124564 -0.437904 62
-0.357940 4.258705 -0.296599 82
0.046740 4.130795 -0.374502 65
-0.354891 4.230960 -0.229202 72
0.177235 4.092257 -0.601352 56
-0.220870 4.244085 -0.434680 65
-0.349679 4.177260 -0.032924 84
0.178270 4.100214 -0.443673 56
-0.219030 4.222430 -0.366937 80
0.178679 4.050718 -0.375425 14
-0.214384 4.183867 -0.298827 75
-0.214500 4.199959 -0.235120 65
0.313176 4.101933 -0.669544 68
-0.080737 4.212406 -0.439106 64
-0.079769 4.198747 -0.372580 70
-0.350305 4.260157 -0.428916 73
0.054572 4.158297 -0.558577 74
-0.350085 4.266278 -0.363216 75
0.054127 4.072145 -0.306213 37
-0.217725 4.334680 -1.247960 61
-0.345143 4.214744 -0.163195 76
-0.213454 4.263967 -0.512863 65
-0.344272 4.212817 -0.098135 66
-0.206119 4.159480 -0.168723 72
-0.074321 4.210341 -0.528240 68
-0.072666 4.156225 -0.304531 80
-0.354507 4.383489 -1.061097 76
-0.071694 4.140460 -0.239498 58
-0.345813 4.284950 -0.501200 65
0.447610 4.055934 -0.744948 48
0.060722 4.148242 -0.440437 67
-0.343713 4.267883 -0.297153 82
0.061041 4.122640 -0.373780 66
-0.340760 4.240136 -0.229633 73
0.192443 4.111379 -0.604258 62
-0.205668 4.236881 -0.433866 62
-0.336055 4.190417 -0.033018 58
0.191835 4.083677 -0.441953 58
-0.204675 4.231130 -0.367629 76
-0.200158 4.192560 -0.299396 75
-0.199079 4.184725 -0.234227 69
0.327493 4.100815 -0.669544 67
-0.065908 4.204706 -0.438277 60
-0.064679 4.171113 -0.370105 66
-0.334807 4.253418 -0.428117 82
0.068560 4.126370 -0.554317 81
-0.335503 4.271448 -0.363554 87
0.068140 4.059966 -0.305313 28
-0.203131 4.346933 -1.251276 55
-0.331053 4.223893 -0.163504 82
-0.198753 4.268652 -0.513340 76
-0.330499 4.225954 -0.098414 75
-0.190495 4.136219 -0.167752 91
-0.059286 4.186764 -0.525252 57
-0.058269 4.164431 -0.305116 75
-0.338304 4.373069 -1.058282 65
-0.057185 4.136692 -0.239267 58
-0.330548 4.282170 -0.500736 69
0.462656 4.062166 -0.746385 46
0.074337 4.100281 -0.435370 63
-0.326668 4.241207 -0.295214 82
0.075213 4.110453 -0.372696 70
-0.325651 4.237317 -0.229418 73
0.206396 4.102777 -0.603095 69
-0.190519 4.229622 -0.433052 63
0.206089 4.082983 -0.441953 66
-0.189190 4.215895 -0.366246 75
-0.185699 4.197219 -0.299681 71
-0.184998 4.197364 -0.234897 59
0.338853 4.064237 -0.663761 65
-0.051327 4.212867 -0.439106 66
-0.049880 4.151393 -0.368338 63
-0.320256 4.258530 -0.428516 83
0.083123 4.134033 -0.555382 83
-0.320889 4.276567 -0.363892 85
0.082716 4.079643 -0.306813 5
-0.187458 4.336094 -1.247960 58
-0.315412 4.213065 -0.163041 82
-0.184023 4.273288 -0.513817 74
-0.314555 4.211131 -0.098042 67
-0.176906 4.156824 -0.168561 86
-0.044714 4.190914 -0.525750 59
-0.043858 4.176576 -0.305993 68
-0.322465 4.366467 -1.056406 65
-0.042951 4.156832 -0.240422 42
-0.316182 4.291222 -0.501663 65
0.088993 4.115903 -0.437059 73
-0.313031 4.258240 -0.296322 73
0.089734 4.118131 -0.373419 66
-0.310858 4.238428 -0.229418 68
0.220503 4.098080 -0.602514 59
-0.174928 4.210382 -0.431017 59
0.219911 4.074296 -0.441093 52
-0.174308 4.212548 -0.365900 77
-0.170884 4.193856 -0.299396 79
-0.170021 4.190003 -0.234450 61
0.354747 4.082696 -0.666974 71
-0.036483 4.197107 -0.437447 64
-0.035286 4.139589 -0.367277 68
-0.305674 4.263591 -0.428916 81
0.097179 4.117864 -0.553252 76
-0.304253 4.253808 -0.361863 81
-0.172168 4.332880 -1.246855 50
-0.300419 4.210154 -0.162887 84
-0.168791 4.265968 -0.512863 69
-0.300137 4.216192 -0.098135 65
-0.161770 4.141442 -0.167913 89
-0.030084 4.191045 -0.525750 72
-0.029111 4.152769 -0.304239 79
-0.306948 4.363688 -1.055467 67
-0.028386 4.148970 -0.239960 22
-0.300645 4.284373 -0.500736 71
0.103260 4.111591 -0.436637 73
-0.296215 4.231441 -0.294384 66
0.104008 4.113810 -0.373057 68
-0.294948 4.223549 -0.228555 69
0.234354 4.089383 -0.601352 64
-0.160078 4.206991 -0.430610 63
0.234816 4.085415 -0.442383 55
-0.159451 4.209148 -0.365554 79
-0.155798 4.182465 -0.298542 72
-0.154950 4.178598 -0.233780 69
0.365441 4.042112 -0.660548 77
-0.021708 4.173338 -0.434960 67
-0.020897 4.151640 -0.368338 59
-0.290519 4.260662 -0.428516 83
0.111230 4.105611 -0.551655 70
-0.289132 4.250868 -0.361525 79
-0.157043 4.333455 -1.246855 64
-0.286262 4.219152 -0.163195 71
-0.153326 4.250656 -0.510955 74
-0.283798 4.193275 -0.097578 60
-0.146603 4.122010 -0.167104 42
-0.015367 4.167311 -0.522763 66
-0.014601 4.148856 -0.303947 71
-0.291195 4.356973 -1.053591 83
-0.285687 4.285396 -0.500736 64
0.117384 4.103253 -0.435792 73
-0.281443 4.232450 -0.294384 73
0.118367 4.113422 -0.373057 63
-0.280468 4.228539 -0.228771 74
0.249108 4.096441 -0.602514 59
-0.145530 4.211501 -0.431017 57
0.248833 4.080601 -0.441953 48
-0.144484 4.201714 -0.364862 83
-0.140940 4.175008 -0.297973 76
-0.139566 4.155164 -0.232441 68
0.382130 4.068327 -0.665046 71
-0.007122 4.161454 -0.433716 68
-0.006384 4.139735 -0.367277 67
-0.274097 4.237820 -0.426120 80
0.125571 4.105197 -0.551655 77
-0.275308 4.267762 -0.362878 71
-0.141271 4.314767 -1.241328 59
-0.270748 4.208160 -0.162733 82
-0.138727 4.259104 -0.511909 76
-0.269652 4.202222 -0.097764 61
-0.131542 4.102524 -0.166294 25
-0.000784 4.163371 -0.522265 64
-0.000079 4.132924 -0.302778 62
-0.274469 4.334682 -1.047962 70
-0.270181 4.278440 -0.499810 76
0.131626 4.098842 -0.435370 73
-0.266618 4.233410 -0.294384 77
0.132391 4.101038 -0.371974 65
-0.264901 4.217536 -0.228124 62
0.261429 4.063947 -0.597866 65
-0.130153 4.192099 -0.428982 65
0.261600 4.055892 -0.439373 35
-0.129509 4.194228 -0.364171 74
-0.126851 4.167476 -0.297404 70
-0.125786 4.155604 -0.232441 55
0.394090 4.051320 -0.662476 66
0.006684 4.165433 -0.434130 64
0.007336 4.135749 -0.366924 67
-0.259799 4.234733 -0.425721 80
0.138780 4.092872 -0.550057 73
-0.259694 4.244781 -0.360848 79
-0.127075 4.319054 -1.242433 64
-0.256305 4.201056 -0.162424 74
-0.123558 4.223813 -0.507615 77
-0.255230 4.195110 -0.097578 45
0.012997 4.155413 -0.521270 58
0.013666 4.144869 -0.303655 53
-0.260326 4.339449 -1.048900 70
-0.255042 4.263448 -0.497957 75
0.144654 4.082482 -0.433681 66
-0.251390 4.214354 -0.292999 87
0.145706 4.092614 -0.371252 55
-0.250440 4.210417 -0.227693 74
0.275973 4.078852 -0.600190 62
-0.116361 4.196485 -0.429388 63
0.273703 4.035164 -0.437224 13
-0.114721 4.162766 -0.361404 68
-0.111444 4.135986 -0.295127 72
-0.111173 4.152026 -0.232217 61
0.409417 4.061704 -0.664404 72
0.021163 4.153449 -0.432886 69
0.021710 4.123745 -0.365863 64
-0.245015 4.235614 -0.425721 75
0.153066 4.092362 -0.550057 79
-0.244416 4.237704 -0.360172 76
-0.111799 4.311785 -1.240223 66
-0.240721 4.185963 -0.161807 67
-0.108813 4.224218 -0.507615 70
-0.240127 4.187991 -0.097392 22
0.027476 4.151373 -0.520772 70
0.028161 4.148786 -0.303947 51
-0.244300 4.324803 -1.045147 69
-0.240159 4.264313 -0.497957 70
0.159058 4.085927 -0.434103 75
-0.236901 4.219190 -0.293276 87
0.160458 4.104022 -0.372335 38
-0.235741 4.211266 -0.227693 59
0.289928 4.073916 -0.599609 65
-0.101230 4.176975 -0.427354 61
-0.100285 4.167126 -0.361750 77
-0.097443 4.156295 -0.296550 79
-0.096195 4.132425 -0.231101 64
0.423190 4.056323 -0.663761 69
0.035737 4.161306 -0.433716 74
0.036030 4.115676 -0.365156 71
-0.229813 4.228494 -0.424922 79
0.166837 4.079921 -0.548460 58
-0.228788 4.222610 -0.358819 70
-0.096530 4.300619 -1.236906 66
-0.226148 4.186776 -0.161807 74
-0.094208 4.228542 -0.508092 73
0.042353 4.269672 -1.518925 19
