# This PCD file was generated using the MATLAB® pcwrite function
# from Computer Vision Toolbox®.
# .PCD v.7 - Point Cloud Data file format
VERSION .7
FIELDS x y z intensity
SIZE 4 4 4 1
TYPE F F F U
COUNT 1 1 1 1
WIDTH 1453
HEIGHT 1
VIEWPOINT 0 0 0 1 0 0 0
POINTS 1453
DATA ascii
-2.720462 13.132587 0.126403 19
-2.666472 13.090961 -0.079279 4
-2.677795 13.157681 0.126554 29
-2.625468 13.123722 -0.079422 56
-2.638122 13.198326 0.126856 38
-2.596816 13.081723 -0.284027 17
-2.622449 13.222305 0.334149 5
-2.576488 13.117120 -0.079327 42
-2.587294 13.183928 0.126629 31
-2.548323 13.079033 -0.283772 28
-2.582580 13.266817 0.335041 40
-2.533714 13.141745 -0.079422 47
-2.537475 13.173242 0.126441 39
-2.497742 13.050193 -0.487215 32
-2.507911 13.115344 -0.284368 31
-2.537755 13.283607 0.335239 52
-2.460008 12.979038 -0.687689 1
-2.489377 13.146144 -0.079398 44
-2.501212 13.220884 0.126818 36
-2.458883 13.081975 -0.488094 39
-2.460715 13.103937 -0.283942 30
-2.488530 13.264438 0.334545 48
-2.428575 13.062161 -0.691640 35
-2.444985 13.162609 -0.079446 47
-2.458785 13.249182 0.127006 37
-2.412824 13.086483 -0.487948 41
-2.418240 13.128107 -0.284283 31
-2.445534 13.288695 0.334942 47
-2.373651 13.019472 -0.688937 40
-2.403324 13.194674 -0.079588 54
-2.416102 13.277360 0.127195 41
-2.368551 13.102693 -0.488241 43
-2.373821 13.144340 -0.284453 37
-2.399843 13.301086 0.335041 51
-2.335217 13.067001 -0.691016 39
-2.356549 13.199046 -0.079564 63
-2.369741 13.285713 0.127195 46
-2.324892 13.122689 -0.488681 42
-2.333500 13.184049 -0.285135 38
-2.356880 13.329071 0.335537 59
-2.291878 13.074673 -0.691016 38
-2.317614 13.234365 -0.079730 64
-2.325702 13.293492 0.127195 40
-2.718188 13.157291 0.152423 47
-2.282855 13.138182 -0.488974 44
-2.290588 13.195631 -0.285220 37
-2.316918 13.360427 0.336131 64
-2.242845 13.062908 -0.689976 39
-2.271404 13.242373 -0.079730 66
-2.280636 13.309415 0.127270 39
-2.661833 13.104280 -0.053679 28
-2.665084 13.131421 0.152015 40
-2.238992 13.157892 -0.489413 42
-2.246524 13.215374 -0.285475 41
-2.272276 13.380260 0.336429 76
-2.205842 13.121868 -0.692680 43
-2.226490 13.258111 -0.079778 72
-2.238135 13.340962 0.127497 38
-2.616074 13.113491 -0.053679 36
-2.628613 13.187715 0.152559 40
-2.192392 13.161685 -0.489267 46
-2.203662 13.242859 -0.285901 38
-2.227524 13.399944 0.336726 67
-2.584786 13.092789 -0.258577 45
-2.160006 13.129492 -0.692680 42
-2.180776 13.269761 -0.079802 64
-2.192079 13.352661 0.127534 36
-2.568376 13.114765 -0.053646 32
-2.585981 13.216519 0.152786 37
-2.149178 13.189060 -0.490000 43
-2.157539 13.254503 -0.285986 40
-2.181436 13.415627 0.336924 70
-2.527289 13.029142 -0.461149 27
-2.536785 13.089953 -0.258344 33
-2.115432 13.144839 -0.693096 42
-2.135077 13.281241 -0.079825 72
-2.148627 13.379977 0.127723 34
-2.524091 13.131507 -0.053679 44
-2.542848 13.241178 0.152968 40
-2.103127 13.196483 -0.490000 42
-2.111259 13.261954 -0.285986 42
-2.135849 13.431058 0.337123 90
-2.489668 13.035714 -0.665330 1
-2.480298 13.030031 -0.460871 30
-2.493319 13.110515 -0.258577 31
-2.521281 13.269782 0.360775 7
-2.073260 13.175819 -0.694343 43
-2.094294 13.324176 -0.080039 69
-2.101289 13.383445 0.127685 42
-2.481204 13.155960 -0.053743 40
-2.491428 13.222459 0.152650 38
-2.061972 13.235340 -0.491172 51
-2.066798 13.281097 -0.286242 35
-2.093253 13.466090 0.337816 79
-2.442678 13.036471 -0.664930 42
-2.434765 13.038616 -0.460871 29
-2.448251 13.123074 -0.258654 37
-2.477135 13.290297 0.361096 19
-2.027261 13.182976 -0.694343 48
-2.049004 13.339310 -0.080086 63
-2.055198 13.394647 0.127723 39
-2.438275 13.180256 -0.053807 42
-2.444644 13.227121 0.152605 42
-2.017089 13.250341 -0.491465 52
-2.021769 13.296117 -0.286412 37
-2.046991 13.477245 0.337916 73
-2.396627 13.040955 -0.664729 52
-2.398721 13.085938 -0.462260 32
-2.406161 13.138988 -0.258809 38
-2.036811 13.528425 -0.923075 4
-2.433049 13.298438 0.361096 23
-1.987097 13.213326 -0.695591 15
-2.005352 13.349987 -0.080110 64
-2.012549 13.413255 0.127836 42
-2.003482 13.429798 -1.336161 15
-2.397413 13.204011 -0.053871 41
-2.004599 13.452790 -1.127793 12
-2.401482 13.239091 0.152650 45
-1.973727 13.260912 -0.491612 44
-1.978842 13.310659 -0.286582 40
-2.002875 13.487914 0.338015 73
-2.347696 13.017378 -0.663127 41
-2.355149 13.106036 -0.462677 39
-2.363816 13.166988 -0.259197 40
-1.956493 13.310388 -0.907726 4
-2.390144 13.326529 0.361630 24
-1.939802 13.212277 -0.695175 27
-1.960481 13.368778 -0.080181 64
-1.965716 13.420198 0.127836 37
-1.953723 13.417013 -1.334202 9
-2.351308 13.212299 -0.053871 43
-1.949595 13.404478 -1.123165 14
-2.358755 13.267082 0.152877 46
-1.929150 13.279588 -0.492052 42
-1.933516 13.325401 -0.286753 41
-1.959223 13.518568 0.338609 77
-2.305024 13.041229 -0.663928 37
-2.314109 13.141759 -0.463649 41
-2.318452 13.179112 -0.259274 38
-1.908288 13.305289 -0.906918 6
-2.345656 13.346611 0.361950 25
-1.894822 13.226874 -0.695591 40
-1.914440 13.379490 -0.080205 61
-1.921809 13.446758 0.128024 34
-2.732042 13.150013 0.178164 43
-1.905013 13.407933 -1.332635 12
-2.306918 13.228243 -0.053903 43
-1.903219 13.411141 -1.123165 15
-2.316971 13.298804 0.153149 46
-1.882695 13.282216 -0.491905 43
-1.888075 13.335955 -0.286838 39
-1.912046 13.521283 0.338510 77
-2.265653 13.080564 -0.665531 42
-2.267542 13.145818 -0.463510 40
-2.275830 13.206831 -0.259662 43
-1.878969 13.434396 -0.915266 7
-2.301767 13.370481 0.362377 28
-1.854167 13.272969 -0.697670 23
-1.870489 13.405898 -0.080324 60
-1.877068 13.469232 0.128175 37
-2.677309 13.105289 -0.028015 14
-2.678124 13.120280 0.177633 29
-1.855468 13.394786 -1.330677 15
-2.262076 13.244101 -0.053935 44
-1.852570 13.390062 -1.120851 12
-2.273226 13.322582 0.153331 46
-1.841245 13.324345 -0.493224 40
-1.843153 13.354348 -0.287093 37
-1.868113 13.551642 0.339105 69
-2.221984 13.100209 -0.666131 50
-2.221640 13.153652 -0.463510 37
-2.228385 13.206808 -0.259507 58
-1.834219 13.456690 -0.916343 12
-2.255745 13.382377 0.362484 28
-1.842310 13.532679 -0.710979 20
-1.826916 13.436127 -0.080466 67
-1.828425 13.463811 0.128062 40
-2.629972 13.106711 -0.027998 23
-2.633882 13.137392 0.177739 29
-1.809765 13.409071 -1.331460 12
-2.219130 13.271642 -0.054016 44
-1.809546 13.424102 -1.123165 14
-2.228684 13.342271 0.153467 42
-1.795789 13.338614 -0.493517 44
-1.797059 13.364664 -0.287179 40
-1.823458 13.577897 0.339601 77
-1.825100 13.607078 0.551411 7
-2.604714 13.081164 -0.232815 29
-2.180168 13.131532 -0.667333 61
-2.179139 13.181020 -0.464205 39
-2.187587 13.246056 -0.260126 42
-1.787276 13.463005 -0.916343 15
-2.208408 13.386217 0.362377 28
-1.811837 13.665748 -0.717634 11
-1.779915 13.442434 -0.080466 67
-1.784409 13.493923 0.128288 39
-2.583992 13.115854 -0.027998 19
-2.590821 13.162258 0.177951 34
-1.764027 13.427210 -1.332635 11
-2.173610 13.287279 -0.054048 40
-1.763691 13.442265 -1.124157 18
-2.179624 13.338215 0.153331 45
-1.750174 13.356770 -0.493957 45
-1.753361 13.398700 -0.287775 33
-1.775826 13.588242 0.339700 71
-2.556414 13.069149 -0.437111 2
-1.778332 13.625360 0.551892 26
-2.555189 13.074629 -0.232536 35
-2.133408 13.139210 -0.667333 66
-2.132477 13.184600 -0.464066 39
-2.141337 13.253611 -0.260126 42
-1.745896 13.512700 -0.919305 13
-2.168039 13.433319 0.363445 27
-1.760034 13.640295 -0.715970 10
-1.735537 13.468401 -0.080585 67
-1.738827 13.511971 0.128401 38
-2.537434 13.120867 -0.027989 23
-2.547895 13.186930 0.178164 43
-1.727241 13.512259 -1.340470 23
-2.129111 13.306635 -0.054096 41
-1.722310 13.491836 -1.127793 11
-2.136840 13.369440 0.153603 44
-1.704550 13.370728 -0.494250 41
-1.706076 13.400772 -0.287690 34
-1.729896 13.606258 0.339997 74
-2.498719 13.015175 -0.435012 29
-1.730256 13.627521 0.551732 17
-2.511041 13.091324 -0.232675 29
-2.087531 13.146576 -0.667333 79
-2.088939 13.207758 -0.464621 43
-2.096308 13.268905 -0.260281 45
-1.712151 13.625627 -0.926575 16
-2.123004 13.452654 0.363766 27
-1.717384 13.685990 -0.718049 15
-1.689010 13.478346 -0.080609 67
-1.694134 13.537803 0.128590 37
-2.476787 13.039442 -0.639850 26
-2.494601 13.145364 -0.028023 26
-2.504829 13.211462 0.178376 49
-1.678100 13.502403 -1.338903 12
-2.082031 13.310034 -0.054080 39
-1.678150 13.521502 -1.129776 12
-2.090776 13.380769 0.153649 45
-1.659834 13.392465 -0.494837 38
-1.659288 13.406646 -0.287690 40
-1.683372 13.620151 0.340195 80
-2.459932 13.059176 -0.436193 24
-2.466068 13.103940 -0.232745 33
-2.044079 13.169574 -0.668134 83
-2.045841 13.234728 -0.465316 42
-2.054839 13.307764 -0.260901 40
-2.073586 13.444177 0.363339 25
-1.667671 13.676041 -0.717218 14
-1.642938 13.492098 -0.080656 58
-1.649798 13.567453 0.128816 38
-2.432751 13.055859 -0.640235 39
-2.450942 13.165780 -0.028048 29
-2.461681 13.235843 0.178588 57
-1.633446 13.527927 -1.340862 14
-2.034449 13.309298 -0.054048 43
-2.044170 13.387968 0.153649 45
-1.615593 13.418005 -0.495570 38
-1.616918 13.448073 -0.288456 38
-2.415936 13.075518 -0.436455 28
-2.424833 13.136035 -0.233164 37
-2.061639 13.578917 -0.900209 1
-2.003680 13.212148 -0.669937 36
-2.004929 13.261203 -0.466010 40
-2.010697 13.314506 -0.260901 42
-2.033167 13.478656 0.364086 29
-1.613844 13.610093 -0.713475 15
-1.597717 13.493500 -0.080632 58
-2.378805 12.993339 -0.840317 8
-1.604328 13.568878 0.128778 34
-2.382255 13.024552 -0.638309 36
-2.022558 13.469769 -1.313931 11
-2.417336 13.228923 -0.028165 28
-2.024821 13.500306 -1.105552 5
-2.420649 13.259671 0.178800 53
-1.598786 13.620249 -1.349479 8
-1.994442 13.343662 -0.054160 43
-2.002125 13.410497 0.153830 44
-1.570159 13.415348 -0.495276 44
-1.570457 13.437473 -0.288115 35
-2.376843 13.107059 -0.437242 32
-2.010646 13.529906 -1.531871 11
-2.381972 13.147940 -0.233234 42
-1.987882 13.392218 -0.887390 7
-1.960442 13.222672 -0.670137 52
-1.960962 13.283939 -0.466566 41
-1.961875 13.305617 -0.260591 50
-1.986688 13.489627 0.364193 28
-1.565413 13.607707 -0.713059 13
-1.551975 13.510917 -0.080704 69
-2.336776 13.032788 -0.638309 31
-1.968598 13.429475 -1.309322 12
-2.371143 13.237280 -0.028165 29
-1.966709 13.432339 -1.099418 14
-2.375759 13.275914 0.178906 49
-1.948429 13.354502 -0.054176 39
-1.958185 13.437194 0.154057 44
-1.525124 13.436634 -0.495863 47
-1.528496 13.486583 -0.289052 35
-2.778908 13.176603 0.204495 2
-2.329678 13.107405 -0.436980 36
-1.957129 13.493568 -1.526974 28
-2.343754 13.199490 -0.234002 47
-1.927960 13.308220 -0.881373 5
-2.364675 13.330341 0.387622 14
-1.911986 13.213619 -0.669336 80
-1.916193 13.302588 -0.466983 44
-1.920483 13.348020 -0.261289 43
-1.941271 13.508357 0.364513 28
-1.515262 13.589267 -0.711811 3
-1.503971 13.508295 -0.080656 34
-2.298961 13.084137 -0.640428 36
-1.918453 13.412599 -1.307017 12
-2.325739 13.249394 -0.028174 36
-1.917719 13.423311 -1.098126 16
-2.332329 13.299856 0.179119 49
-1.905460 13.384942 -0.054273 39
-1.913837 13.459742 0.154238 46
-1.479877 13.453757 -0.496302 41
-1.480492 13.479868 -0.288797 34
-2.724350 13.143064 0.203827 22
-2.287072 13.131138 -0.437505 44
-1.908813 13.488444 -1.525638 21
-2.298809 13.211451 -0.234072 44
-1.884228 13.330607 -0.882419 2
-2.319314 13.342366 0.387737 19
-1.870851 13.251783 -0.670938 83
-1.868078 13.297319 -0.466566 44
-1.873878 13.354642 -0.261289 44
-1.894107 13.515051 0.364513 28
-2.254631 13.099957 -0.640813 45
-1.870522 13.411326 -1.306249 13
-2.281509 13.269258 -0.028199 33
-1.868101 13.410179 -1.096512 17
-2.283858 13.296091 0.178959 47
-1.860926 13.407360 -0.054337 42
-1.866293 13.462379 0.154193 47
-1.433329 13.462816 -0.496449 39
-2.675348 13.126131 -0.002338 48
-2.688831 13.203443 0.204617 27
-2.245928 13.166628 -0.438423 48
-2.255365 13.235165 -0.234351 46
-1.857297 13.479450 -0.891837 11
-2.271385 13.342498 0.387508 23
-1.825126 13.262191 -0.671138 89
-1.822192 13.307719 -0.466705 44
-1.827792 13.365064 -0.261366 39
-1.848542 13.533465 0.364834 25
-2.640837 13.090672 -0.207456 1
-2.208889 13.107747 -0.640813 39
-1.823160 13.413829 -1.305865 14
-2.234513 13.273197 -0.028191 31
-1.823424 13.432422 -1.097803 18
-2.239422 13.315815 0.179119 43
-1.814650 13.417738 -0.054353 42
-1.821966 13.488630 0.154420 43
-1.387963 13.483643 -0.497035 36
-2.631868 13.147157 -0.002340 46
-2.642726 13.212748 0.204617 24
-2.202588 13.190161 -0.438948 51
-2.211127 13.254791 -0.234560 47
-1.814482 13.517499 -0.893930 6
-2.233998 13.405560 0.389111 26
-1.782537 13.296198 -0.672540 67
-1.778963 13.337766 -0.467538 42
-1.781167 13.371357 -0.261366 42
-1.803415 13.555688 0.365261 25
-2.594340 13.095888 -0.207394 38
-2.165016 13.127213 -0.641391 39
-1.780424 13.451698 -1.308938 12
-2.191338 13.300663 -0.028232 30
-1.779555 13.462434 -1.099741 18
-2.195421 13.339354 0.179331 45
-1.768669 13.431946 -0.054385 43
-1.776232 13.506831 0.154556 38
-2.581882 13.136683 -0.002337 28
-2.597113 13.225865 0.204677 25
-2.157552 13.205704 -0.439211 55
-2.166483 13.274319 -0.234770 38
-1.767478 13.527750 -0.894192 11
-2.184938 13.401491 0.388767 29
-1.736288 13.306345 -0.672741 14
-1.731880 13.339930 -0.467399 40
-1.738595 13.409222 -0.261986 44
-1.754545 13.550004 0.364941 30
-2.542254 13.060522 -0.411173 29
-2.544794 13.085235 -0.207083 36
-2.120453 13.142579 -0.641776 40
-1.741088 13.517065 -1.314699 26
-2.146806 13.320079 -0.028258 35
-1.735095 13.488336 -1.101355 16
-2.148209 13.342987 0.179278 47
-1.725330 13.465810 -0.054497 42
-1.729074 13.512949 0.154556 41
-2.541314 13.173108 -0.002342 33
-2.550173 13.230923 0.204617 27
-2.113334 13.224998 -0.439604 54
-2.120134 13.281800 -0.234770 43
-1.723770 13.561555 -0.896023 10
-2.141293 13.428779 0.389340 30
-1.741646 13.720532 -0.693369 13
-1.687808 13.365725 -0.468094 41
-1.691278 13.411241 -0.261909 45
-1.711233 13.587784 0.365795 29
-2.495899 13.065389 -0.411050 23
-2.501351 13.105824 -0.207270 33
-2.076432 13.161740 -0.642354 39
-1.690925 13.499356 -1.312394 11
-2.102788 13.343296 -0.028291 31
-1.696909 13.565520 -1.107167 15
-2.107840 13.389915 0.179808 41
-1.677821 13.467781 -0.054481 39
-1.682882 13.526840 0.154647 42
-2.461376 12.990721 -0.611963 29
-2.499780 13.205480 -0.002346 41
-2.508432 13.263324 0.204981 30
-2.066541 13.228344 -0.439473 50
-2.074992 13.297023 -0.234909 49
-2.096868 13.451974 0.389797 33
-1.687382 13.674985 -0.690766 11
-1.641665 13.375498 -0.468233 39
-1.646908 13.436908 -0.262296 41
-1.665258 13.605580 0.366115 24
-2.448812 13.066161 -0.410803 21
-2.457056 13.122338 -0.207394 34
-2.031662 13.176810 -0.642739 36
-1.650482 13.560514 -1.317771 11
-2.055544 13.346608 -0.028283 33
-2.060420 13.393247 0.179755 45
-1.632141 13.485481 -0.054530 39
-2.414628 12.980224 -0.814463 9
-1.636980 13.544559 0.154783 43
-2.419556 13.018896 -0.612888 32
-2.452084 13.206283 -0.002344 43
-2.461251 13.268092 0.204920 33
-2.023217 13.255260 -0.440129 60
-2.029001 13.308165 -0.234979 43
-2.051524 13.471097 0.390141 32
-1.635161 13.645116 -0.688963 14
-1.596385 13.393056 -0.468650 41
-1.602830 13.466402 -0.262761 42
-2.408970 13.106087 -0.411791 20
-2.413402 13.142636 -0.207580 37
-2.033186 13.484010 -0.867490 8
-1.989820 13.211478 -0.644087 27
-1.609211 13.617596 -1.322764 17
-2.009538 13.357657 -0.028291 30
-2.016629 13.420134 0.180021 45
-1.585058 13.491096 -0.054530 45
-2.366438 12.972863 -0.813478 32
-1.590156 13.554163 0.154828 36
-2.376963 13.042986 -0.613627 28
-2.010738 13.457959 -1.286272 7
-2.409553 13.234438 -0.002348 42
-2.009976 13.468361 -1.076505 10
-2.414922 13.276603 0.204920 32
-1.979293 13.278059 -0.440654 50
-1.984891 13.330989 -0.235258 46
-2.003900 13.474221 0.390026 37
-1.583367 13.615026 -0.687161 19
-1.552424 13.402246 -0.468788 44
-1.558625 13.475616 -0.262839 41
-2.364076 13.106134 -0.411544 21
-1.992651 13.503364 -1.502107 21
-2.371225 13.158440 -0.207705 40
-1.957609 13.281366 -0.854031 5
-1.947744 13.229862 -0.644665 36
-1.965231 13.364248 -0.028291 35
-1.973858 13.438619 0.180180 43
-1.541672 13.508201 -0.054578 46
-2.329033 13.012078 -0.815448 28
-2.784534 13.134109 0.229664 2
-2.330181 13.031130 -0.612703 28
-1.964373 13.452731 -1.285143 6
-2.365653 13.242355 -0.002348 44
-1.963001 13.459168 -1.075244 10
-2.375801 13.312099 0.205345 29
-1.937556 13.300374 -0.441179 50
-1.942976 13.353329 -0.235538 44
-1.960932 13.492663 0.390370 34
-1.534174 13.584475 -0.685358 15
-1.506425 13.415541 -0.469066 44
-1.511070 13.477007 -0.262761 48
-2.321073 13.130059 -0.412038 23
-1.935884 13.443334 -1.494669 10
-2.328771 13.186327 -0.208015 43
-1.909583 13.276258 -0.853269 3
-1.904480 13.256341 -0.645628 40
-1.920969 13.386847 -0.028325 30
-1.928804 13.457281 0.180339 45
-2.284557 13.024014 -0.815695 10
-2.734047 13.120200 0.229254 40
-2.282917 13.027324 -0.612148 30
-1.913824 13.431859 -1.282508 7
-2.321831 13.262292 -0.002350 41
-1.910781 13.426405 -1.072092 13
-2.331084 13.328123 0.205467 31
-1.889291 13.291163 -0.440654 52
-1.896816 13.359963 -0.235538 44
-1.915451 13.507272 0.390599 35
-1.484251 13.561888 -0.683956 2
-1.462612 13.448536 -0.470039 43
-1.465744 13.498103 -0.263071 38
-2.707360 13.123630 0.023387 3
-2.279320 13.161717 -0.412779 21
-1.886734 13.434259 -1.492918 15
-2.284773 13.206199 -0.208202 45
-1.885964 13.444925 -0.863681 9
-2.309717 13.363538 0.414347 22
-1.860412 13.278735 -0.646399 37
-1.874783 13.397431 -0.028333 32
-1.881818 13.463932 0.180339 45
-2.697859 13.176682 0.230075 35
-2.247568 13.094285 -0.614922 36
-1.865282 13.426624 -1.281379 8
-2.276875 13.278201 -0.002351 42
-1.863354 13.429044 -1.071776 14
-2.282520 13.324352 0.205285 35
-1.844531 13.309557 -0.441048 57
-1.852363 13.382350 -0.235817 42
-1.869385 13.521797 0.390828 30
-1.416496 13.461511 -0.470316 39
-2.663123 13.140841 0.023401 41
-2.232695 13.165652 -0.412656 23
-1.840907 13.448643 -1.493794 15
-2.240665 13.225924 -0.208388 46
-1.847132 13.510754 -0.867490 8
-2.264390 13.379403 0.414591 43
-1.815131 13.293066 -0.646784 36
-1.834491 13.451454 -0.028433 30
-1.837507 13.490233 0.180604 43
-2.656578 13.209543 0.230485 39
-2.207807 13.137515 -0.616586 34
-1.820006 13.444893 -1.282508 7
-2.231174 13.290012 -0.002352 40
-1.817535 13.443369 -1.072407 13
-2.240626 13.359850 0.205710 32
-1.799666 13.327801 -0.441442 52
-1.807242 13.400625 -0.236026 43
-1.824843 13.548053 0.391400 32
-1.370811 13.478294 -0.470733 12
-2.609111 13.097413 -0.181817 24
-2.620420 13.165737 0.023429 40
-2.186093 13.169417 -0.412532 26
-1.799717 13.498341 -1.498607 17
-2.196433 13.245503 -0.208575 45
-1.801488 13.528996 -0.868252 7
-2.218929 13.395123 0.414835 32
-1.766523 13.283490 -0.646013 42
-1.783712 13.430037 -0.028375 31
-1.790241 13.496588 0.180604 40
-2.608629 13.210943 0.230348 40
-2.160978 13.141250 -0.616401 31
-1.776352 13.478847 -1.285143 8
-2.188310 13.321460 -0.002356 42
-1.773329 13.473404 -1.074298 12
-2.194885 13.375546 0.205831 33
-1.754791 13.349913 -0.441967 51
-1.759468 13.402947 -0.235957 44
-1.777032 13.554407 0.391400 33
-2.560794 13.049529 -0.385396 23
-2.561074 13.094665 -0.181654 22
-2.577515 13.190507 0.023457 41
-2.145237 13.208539 -0.413521 26
-1.756170 13.532141 -1.501670 24
-2.151465 13.260985 -0.208699 41
-1.758870 13.570832 -0.870537 9
-2.172158 13.402787 0.414835 35
-1.725273 13.329199 -0.647940 34
-1.739898 13.459983 -0.028425 31
-1.745678 13.522588 0.180869 42
-2.557171 13.192484 0.229870 37
-2.117631 13.164493 -0.617141 34
-1.734357 13.524465 -1.288907 14
-2.140527 13.321118 -0.002355 48
-1.729833 13.507198 -1.076505 11
-2.149450 13.391025 0.205953 37
-1.709702 13.367853 -0.442360 58
-1.714193 13.420909 -0.236166 48
-1.729707 13.560527 0.391400 34
-2.512981 13.034918 -0.588882 1
-2.515984 13.062315 -0.385512 27
-2.518365 13.119236 -0.181872 24
-2.523168 13.156211 0.023380 31
-2.100999 13.227793 -0.413891 25
-1.710417 13.550023 -1.502982 25
-2.106416 13.276315 -0.208823 43
-1.718478 13.632338 -0.874093 9
-2.130992 13.445827 0.415935 40
-1.677737 13.327212 -0.647554 12
-1.692904 13.465974 -0.028425 29
-1.698963 13.532568 0.180923 44
-2.514095 13.217046 0.230143 43
-2.073528 13.183646 -0.617696 33
-1.684180 13.506726 -1.286649 6
-2.094636 13.332460 -0.002355 45
-1.692035 13.588338 -1.082494 12
-2.103313 13.402397 0.206014 29
-1.663522 13.377707 -0.442491 53
-1.669306 13.442686 -0.236445 42
-1.682854 13.570450 0.391515 31
-2.468208 13.047537 -0.589059 35
-2.471115 13.074946 -0.385628 27
-2.473331 13.131871 -0.181926 21
-2.482429 13.192451 0.023429 33
-2.055434 13.238996 -0.414015 28
-2.061894 13.295444 -0.209009 50
-2.083414 13.449236 0.415812 50
-1.674354 13.685946 -0.664697 7
-1.648753 13.495629 -0.028475 27
-1.652140 13.542394 0.180976 45
-2.442606 13.053743 -0.793648 4
-2.471512 13.245418 0.230485 45
-2.027384 13.190822 -0.617696 32
-1.644077 13.571838 -1.292295 6
-2.050385 13.355526 -0.002358 41
-2.058194 13.421539 0.206196 29
-1.616660 13.383451 -0.442491 52
-1.623160 13.456393 -0.236585 45
-2.425387 13.071822 -0.589769 37
-2.430369 13.111048 -0.386439 25
-2.429770 13.140000 -0.181926 21
-2.441574 13.216345 0.023457 37
-2.013922 13.261550 -0.414509 24
-2.020793 13.321980 -0.209320 45
-2.040001 13.463977 0.416057 50
-1.621408 13.627946 -0.661615 9
-1.605406 13.512939 -0.028501 35
-1.608165 13.555741 0.181082 39
-2.392812 13.026427 -0.791500 34
-2.021051 13.430972 -0.837860 13
-2.433339 13.285012 0.231033 49
-1.985412 13.209326 -0.618251 31
-2.006085 13.362251 -0.002358 44
-2.016048 13.444112 0.206439 34
-1.575067 13.412561 -0.443279 53
-1.579926 13.473619 -0.236794 45
-2.379162 13.064068 -0.589059 36
-2.018448 13.522528 -1.478049 9
-2.389025 13.130836 -0.386786 29
-1.998026 13.442190 -1.258302 8
-2.388883 13.175950 -0.182307 25
-2.000696 13.475838 -1.050667 8
-2.398277 13.240531 0.023485 41
-1.968205 13.272453 -0.414633 26
-1.975450 13.336865 -0.209444 43
-1.997672 13.502656 0.417034 60
-1.571079 13.609708 -0.660459 9
-1.559601 13.530382 -0.028526 31
-2.352281 13.062208 -0.793171 27
-1.950944 13.279944 -0.828009 11
-2.385538 13.285552 0.230896 43
-1.941611 13.231989 -0.618991 31
-1.962910 13.392919 -0.002362 41
-1.970266 13.458982 0.206560 36
-1.529144 13.425922 -0.443541 52
-1.536048 13.506867 -0.237283 40
-2.333545 13.072293 -0.589059 33
-1.954032 13.411432 -1.465151 7
-2.343175 13.139095 -0.386786 32
-1.945204 13.409690 -1.254614 7
-2.345508 13.199990 -0.182525 28
-1.950680 13.463020 -1.049129 9
-2.353339 13.256717 0.023499 42
-1.922969 13.287163 -0.414880 25
-1.927763 13.335760 -0.209320 49
-1.951187 13.513492 0.417156 65
-1.518386 13.567445 -0.658148 13
-2.760441 13.167322 0.255973 11
-2.309028 13.082087 -0.793886 33
-1.901648 13.262894 -0.826531 9
-2.342393 13.309471 0.231169 45
-1.896511 13.242565 -0.619176 29
-1.918452 13.411482 -0.002365 42
-1.924511 13.469641 0.206621 32
-1.484321 13.443018 -0.443935 48
-1.488381 13.500133 -0.237073 40
-2.734095 13.138444 0.049187 1
-2.296319 13.123510 -0.591009 37
-1.906454 13.406228 -1.463861 7
-2.301650 13.166729 -0.387366 32
-1.893919 13.384849 -1.251664 9
-2.302847 13.227798 -0.182797 24
-1.895860 13.414462 -1.044823 9
-2.307050 13.264851 0.023499 38
-1.878253 13.305671 -0.415250 25
-1.883993 13.362209 -0.209631 41
-1.904004 13.520220 0.417156 56
-2.707199 13.141624 0.255288 7
-2.259948 13.070395 -0.792693 37
-1.883535 13.471103 -0.839092 8
-2.295920 13.317566 0.231169 48
-1.850274 13.249104 -0.619176 30
-1.873283 13.429981 -0.002367 41
-1.880241 13.496083 0.206925 33
-1.437387 13.448117 -0.443935 52
-2.689819 13.155746 0.049216 36
-2.249145 13.123569 -0.590655 39
-1.861831 13.428557 -1.465581 7
-2.257699 13.186505 -0.387713 34
-1.848819 13.403215 -1.252770 9
-2.255315 13.227871 -0.182688 22
-1.847934 13.413097 -1.044208 8
-2.263420 13.288596 0.023527 45
-1.831796 13.312146 -0.415250 28
-1.836794 13.364742 -0.209569 42
-1.858430 13.538667 0.417523 61
-2.664483 13.166674 0.255592 10
-2.218309 13.101825 -0.794125 30
-1.837579 13.485507 -0.839584 8
-2.250750 13.333386 0.231306 47
-1.806709 13.275279 -0.620100 37
-1.830164 13.464184 -0.002372 45
-1.833657 13.506527 0.206985 28
-1.389614 13.445100 -0.443672 26
-2.630907 13.089303 -0.156131 23
-2.641518 13.153289 0.049172 34
-2.207950 13.158927 -0.591896 42
-1.816010 13.442857 -1.466441 8
-2.212978 13.202192 -0.387945 31
-1.802120 13.409574 -1.252770 8
-2.213834 13.263263 -0.183070 25
-1.802225 13.427363 -1.044823 7
-2.219054 13.308242 0.023548 42
-1.787465 13.334307 -0.415745 23
-1.791179 13.379003 -0.209693 51
-1.812697 13.556967 0.417889 58
-2.608401 13.114218 -0.361811 1
-2.621501 13.191609 0.255897 11
-2.176318 13.133150 -0.795557 13
-1.790742 13.495833 -0.839831 8
-2.204572 13.345153 0.231375 48
-1.760574 13.285506 -0.620285 33
-2.215172 13.423277 0.441810 6
-1.781752 13.462605 -0.002370 49
-1.787157 13.520827 0.207107 28
-2.584786 13.098489 -0.156131 21
-2.600551 13.189990 0.049275 31
-2.162807 13.174520 -0.592250 38
-1.770609 13.464956 -1.468161 7
-2.167645 13.217815 -0.388177 35
-1.755817 13.419732 -1.253139 10
-2.166878 13.266962 -0.183015 24
-1.761544 13.481027 -1.048514 8
-2.171942 13.311959 0.023541 39
-1.741943 13.348393 -0.415992 24
-1.746017 13.397071 -0.209879 47
-1.764847 13.559247 0.417767 50
-2.553412 13.076150 -0.360513 28
-2.580032 13.224232 0.256353 13
-1.749758 13.549517 -0.842786 9
-2.159251 13.360663 0.231512 55
-1.714699 13.295534 -0.620470 35
-2.170851 13.446714 0.442330 21
-1.736792 13.484612 -0.002373 43
-1.741991 13.542850 0.207350 31
-2.540569 13.115285 -0.156224 24
-2.556013 13.206841 0.049304 29
-2.118707 13.193827 -0.592782 45
-1.732177 13.538115 -1.475469 13
-2.122760 13.233196 -0.388408 35
-1.713992 13.465290 -1.256827 6
-2.123709 13.294192 -0.183287 23
-1.716488 13.502918 -1.049744 8
-2.129874 13.347110 0.023590 46
-1.697352 13.370257 -0.416486 26
-1.699745 13.407052 -0.209941 50
-1.722026 13.601024 0.418866 61
-2.504083 13.054034 -0.564073 22
-2.500978 13.049640 -0.359539 25
-2.533855 13.233157 0.256353 13
-1.709913 13.614962 -0.846480 9
-2.114474 13.379971 0.231717 40
-1.669273 13.309368 -0.620840 34
-2.124523 13.458159 0.442460 26
-1.691203 13.502500 -0.002375 38
-1.696692 13.564724 0.207593 32
-2.498507 13.143721 -0.156458 27
-2.507658 13.203895 0.049260 33
-2.070160 13.185351 -0.592073 38
-1.683928 13.536185 -1.474609 4
-2.077793 13.248425 -0.388640 31
-1.668482 13.483046 -1.257933 6
-2.077943 13.305471 -0.183342 24
-1.679637 13.591945 -1.056203 8
-2.085142 13.366316 0.023611 40
-1.651658 13.384036 -0.416733 30
-1.657333 13.448629 -0.210501 42
-1.675497 13.614890 0.419111 23
-2.451091 13.023424 -0.562378 27
-2.456858 13.066155 -0.359756 28
-2.489818 13.253721 0.256581 15
-2.070098 13.403095 0.231990 42
-1.624626 13.330993 -0.621580 35
-2.076809 13.461559 0.442330 31
-1.647315 13.536131 -0.002380 42
-1.646295 13.546759 0.207228 31
-2.430232 13.021019 -0.766071 43
-2.460526 13.195642 -0.156973 28
-2.459191 13.200801 0.049216 38
-2.031216 13.239923 -0.594200 39
-1.638857 13.561745 -1.476759 1
-2.033766 13.271437 -0.389104 36
-1.631390 13.571832 -1.265678 9
-2.030882 13.308689 -0.183287 26
-2.040281 13.385376 0.023632 41
-1.605405 13.393689 -0.416857 24
-1.608952 13.442419 -0.210314 45
-2.404891 13.027971 -0.562208 20
-2.411958 13.078585 -0.359864 24
-2.447162 13.281997 0.256962 15
-2.047668 13.525471 -0.817510 20
-2.025687 13.426059 0.232264 46
-1.580430 13.356422 -0.622504 26
-2.030999 13.476634 0.442589 31
-1.600524 13.545772 -0.002381 40
-2.384046 13.025495 -0.765840 38
-2.032852 13.535280 -1.453064 8
-2.414450 13.204149 -0.156973 28
-2.032464 13.548216 -1.241960 6
-2.417409 13.232914 0.049304 38
-1.984988 13.246932 -0.594200 37
-1.989203 13.290318 -0.389451 35
-1.987951 13.339434 -0.183614 25
-1.994722 13.400330 0.023646 41
-1.560953 13.419068 -0.417474 28
-1.564788 13.471790 -0.210687 40
-2.365094 13.067746 -0.563565 25
-2.371983 13.118402 -0.360730 30
-1.988965 13.439267 -1.021510 3
-2.398651 13.278651 0.256734 15
-1.961321 13.267889 -0.801522 19
-1.979974 13.440961 0.232401 41
-1.539265 13.409493 -0.624724 11
-1.986854 13.503418 0.443239 29
-1.555053 13.567171 -0.002383 36
-2.795673 13.155271 0.281717 4
-2.333628 13.006223 -0.764224 37
-1.970012 13.436033 -1.441662 11
-2.369756 13.220371 -0.157066 31
-1.970151 13.452746 -1.232570 9
-2.373318 13.253083 0.049348 38
-1.938157 13.249826 -0.594023 39
-1.943955 13.305093 -0.389683 35
-1.944290 13.366076 -0.183886 22
-1.949107 13.415124 0.023660 41
-1.511870 13.404570 -0.416857 28
-1.516853 13.469222 -0.210563 43
-2.322936 13.095600 -0.564413 31
-2.328936 13.142356 -0.361162 35
-1.940285 13.434292 -1.020610 4
-2.357817 13.318456 0.257342 14
-1.915506 13.278615 -0.801761 19
-1.934082 13.455723 0.232538 42
-1.505145 13.529963 -0.630087 9
-1.941295 13.522160 0.443628 26
-2.746339 13.149317 0.281382 21
-2.288076 13.014314 -0.764224 31
-1.918438 13.411350 -1.438284 13
-2.324824 13.236468 -0.157160 32
-1.916813 13.416185 -1.228598 9
-2.330331 13.281015 0.049421 33
-1.894536 13.276317 -0.594909 44
-1.900125 13.331616 -0.390262 32
-1.896498 13.364861 -0.183777 26
-1.902829 13.425807 0.023667 45
-1.470281 13.457459 -0.418339 26
-1.472430 13.498291 -0.210936 39
-2.718587 13.145624 0.074973 38
-2.279947 13.119379 -0.565091 31
-2.285098 13.162225 -0.361487 39
-1.889484 13.413335 -1.018511 5
-2.312680 13.334486 0.257495 13
-1.901409 13.514548 -0.815601 9
-1.888211 13.470313 0.232675 36
-1.455340 13.511298 -0.628977 10
-1.896299 13.544690 0.444147 27
-2.704442 13.178411 0.281801 21
-2.251444 13.073381 -0.767226 37
-1.868864 13.398268 -1.436172 12
-2.277249 13.236619 -0.157066 33
-1.870519 13.426741 -1.228959 11
-2.285312 13.296953 0.049451 33
-1.848732 13.286807 -0.595087 43
-1.853578 13.338168 -0.390262 32
-1.851620 13.367115 -0.183723 25
-1.859941 13.443930 0.023688 39
-1.424804 13.454309 -0.418092 26
-2.664356 13.090980 -0.130576 2
-2.677371 13.166327 0.075040 44
-2.237100 13.130807 -0.565261 35
-2.245463 13.193380 -0.362136 38
-1.841733 13.395817 -1.016712 5
-2.265767 13.326310 0.257190 12
-1.859842 13.544514 -0.817032 8
-1.840821 13.456688 0.232332 41
-1.852456 13.558826 0.444407 26
-2.665472 13.210828 0.282304 22
-2.210073 13.092588 -0.767919 41
-1.829252 13.439863 -1.439973 16
-2.236668 13.263819 -0.157300 28
-1.827594 13.444712 -1.230042 10
-2.241205 13.304459 0.049451 38
-1.807350 13.312663 -0.595973 39
-1.809874 13.348204 -0.390378 35
-1.807524 13.393329 -0.183995 24
-1.812940 13.450348 0.023688 42
-1.378621 13.467157 -0.418339 8
-2.618621 13.100205 -0.130576 40
-2.630626 13.171667 0.075018 51
-2.191302 13.138527 -0.565261 39
-2.200799 13.209012 -0.362352 36
-1.801444 13.449589 -1.020311 4
-2.222645 13.353843 0.257571 11
-1.816954 13.582562 -0.818941 8
-1.798872 13.498673 0.232948 39
-1.805963 13.569130 0.444537 30
-2.589742 13.057454 -0.334632 7
-2.621245 13.227828 0.282471 21
-2.171251 13.139559 -0.770229 38
-1.784326 13.457938 -1.441240 15
-2.192084 13.279367 -0.157394 31
-1.782691 13.462794 -1.231125 11
-2.195215 13.312124 0.049451 40
-1.761371 13.318825 -0.595973 40
-1.765905 13.370224 -0.390842 32
-1.762846 13.415419 -0.184213 23
-1.769101 13.480391 0.023729 39
-2.573647 13.113191 -0.130616 36
-2.581553 13.165069 0.074929 41
-2.149933 13.173706 -0.566448 33
-2.155964 13.224506 -0.362569 36
-1.756032 13.467661 -1.021210 3
-2.175375 13.357573 0.257495 13
-1.766953 13.569025 -0.817748 11
-1.752771 13.512803 0.233085 36
-1.759614 13.583282 0.444797 28
-2.541090 13.050714 -0.334230 46
-2.575056 13.236897 0.282471 20
-2.125373 13.147058 -0.770229 38
-1.743447 13.511424 -1.446307 20
-2.145717 13.286939 -0.157394 29
-1.738231 13.488690 -1.232931 25
-2.151282 13.335502 0.049509 35
-1.715889 13.332819 -0.596327 39
-1.720752 13.388204 -0.391189 33
-1.715499 13.417523 -0.184159 24
-1.721022 13.478548 0.023716 41
-2.530128 13.133878 -0.130733 28
-2.535583 13.174000 0.074929 49
-2.104565 13.185077 -0.566617 35
-2.111677 13.243798 -0.362893 39
-1.718045 13.544935 -1.026609 4
-2.134397 13.400630 0.258179 13
-1.727605 13.638490 -0.821566 8
-1.709096 13.546615 0.233564 37
-2.495683 13.048582 -0.538230 51
-1.717686 13.632973 0.446225 24
-2.501524 13.090926 -0.335034 47
-2.529584 13.249733 0.282555 20
-2.079468 13.154397 -0.770229 16
-1.694292 13.501641 -1.444618 16
-2.100571 13.302249 -0.157487 26
-1.695595 13.530251 -1.236181 9
-2.107213 13.358734 0.049568 35
-1.672316 13.362518 -0.597391 38
-1.674504 13.398096 -0.391305 37
-1.671184 13.443267 -0.184431 21
-1.676959 13.508286 0.023757 39
-2.461203 13.008543 -0.740193 10
-2.480567 13.122975 -0.130537 33
-2.495511 13.214215 0.075107 55
-2.059727 13.200245 -0.566957 32
-2.068457 13.270851 -0.363434 37
-1.675552 13.590447 -1.029608 3
-2.090602 13.427770 0.258560 12
-2.101002 13.509517 0.470267 12
-1.659672 13.536641 0.233290 36
-2.444050 13.025821 -0.536934 60
-2.454878 13.095685 -0.334934 43
-2.488984 13.289970 0.283225 21
-2.029634 13.137935 -0.768843 5
-1.649764 13.531198 -1.447152 10
-2.057512 13.333260 -0.157768 28
-1.651905 13.567760 -1.239071 10
-2.062708 13.381867 0.049627 33
-1.628234 13.392115 -0.598455 37
-1.629306 13.419779 -0.391769 31
-1.624248 13.449018 -0.184431 23
-1.631712 13.529943 0.023785 40
-2.410678 12.989568 -0.738630 33
-2.442035 13.170882 -0.130928 39
-2.453741 13.246444 0.075241 55
-2.016649 13.227108 -0.567805 33
-2.023325 13.285896 -0.363651 40
-2.044920 13.442893 0.258712 13
-2.054432 13.520720 0.470404 20
-1.613356 13.550295 0.233427 19
-2.401460 13.049996 -0.537582 68
-2.412043 13.119906 -0.335336 46
-2.443301 13.302511 0.283309 19
-2.014748 13.350267 -0.780852 20
-1.608600 13.588224 -1.452641 9
-2.008573 13.324540 -0.157581 28
-2.017176 13.396896 0.049656 31
-1.581945 13.401685 -0.598632 41
-1.582921 13.429355 -0.391885 35
-1.581483 13.490358 -0.184921 21
-1.585403 13.543501 0.023799 39
-2.368896 13.017550 -0.739747 28
-2.016548 13.512357 -1.423881 13
-2.396761 13.183262 -0.130967 42
-2.010800 13.489383 -1.210000 10
-2.405343 13.243122 0.075174 51
-1.973408 13.253831 -0.568653 36
-1.976348 13.288923 -0.363543 30
-2.000334 13.465773 0.259016 12
-2.003703 13.504084 0.469579 23
-2.358021 13.070099 -0.538068 60
-2.367650 13.136116 -0.335537 50
-1.992269 13.505259 -1.000102 8
-2.392599 13.287344 0.282806 21
-1.947761 13.218946 -0.772769 9
-1.963797 13.343342 -0.157721 31
-1.974472 13.431559 0.049759 40
-1.535609 13.411096 -0.598809 38
-1.538759 13.458633 -0.392580 32
-1.533931 13.491822 -0.184867 25
-1.538118 13.548953 0.023799 11
-2.326949 13.045398 -0.740863 35
-1.955605 13.424829 -1.413930 7
-2.350729 13.191547 -0.130967 45
-1.955669 13.441120 -1.205051 9
-2.362606 13.271128 0.075286 44
-1.928281 13.268549 -0.568992 35
-1.933395 13.319484 -0.364192 37
-1.954465 13.480589 0.259169 12
-1.961136 13.542646 0.470679 21
-2.311688 13.074314 -0.537906 62
-2.324564 13.160052 -0.335939 54
-1.943410 13.500284 -0.999225 10
-2.353153 13.334997 0.283644 24
-1.932296 13.439108 -0.785240 8
-1.918914 13.361993 -0.157861 30
-1.926439 13.430449 0.049729 39
-1.490109 13.428288 -0.599341 29
-1.491330 13.459949 -0.392464 33
-2.732259 13.118104 0.100565 22
-1.489455 13.520948 -0.185193 22
-2.287586 13.088848 -0.742873 33
-1.908732 13.431573 -1.413930 8
-2.307419 13.215433 -0.131124 41
-1.905939 13.428141 -1.203283 10
-2.321765 13.310817 0.075465 48
-1.881953 13.275199 -0.568992 33
-1.886890 13.326151 -0.364192 36
-1.907397 13.487329 0.259169 12
-1.915529 13.561284 0.471092 24
-2.269447 13.101995 -0.538715 60
-2.282704 13.191728 -0.336542 56
-1.889063 13.455628 -0.995426 11
-2.305910 13.339190 0.283560 24
-1.896463 13.524864 -0.789860 9
-1.874479 13.384454 -0.158049 31
-1.881208 13.448977 0.049773 39
-1.447068 13.469168 -0.600936 17
-1.444763 13.469048 -0.392580 34
-2.688858 13.139318 0.100655 39
-2.687936 13.177129 0.307537 11
-2.243231 13.104627 -0.743319 35
-1.863473 13.449976 -1.415174 9
-2.263971 13.239178 -0.131280 44
-1.859601 13.438659 -1.203637 9
-2.271920 13.299127 0.075353 53
-1.836150 13.285645 -0.569161 32
-1.842548 13.348500 -0.364625 36
-1.860306 13.493905 0.259169 14
-1.865999 13.552047 0.470542 24
-2.223698 13.109837 -0.538715 68
-2.237978 13.207500 -0.336743 49
-1.842083 13.462141 -0.995426 8
-2.265340 13.382645 0.284314 21
-1.853567 13.563054 -0.791707 9
-1.829911 13.406768 -0.158236 29
-1.834792 13.459425 0.049788 35
-2.633348 13.089323 -0.104865 35
-1.403102 13.525709 -0.394086 6
-2.645341 13.160387 0.100745 43
-2.644279 13.198195 0.307812 27
-2.197474 13.112377 -0.743319 35
-1.816513 13.456399 -1.415174 9
-2.219725 13.258835 -0.131397 45
-1.813745 13.452965 -1.204344 7
-2.228783 13.326702 0.075465 52
-1.792963 13.315739 -0.570179 32
-1.798074 13.370703 -0.365057 38
-1.814257 13.508244 0.259321 12
-1.823465 13.594137 0.471779 25
-2.177923 13.117518 -0.538715 68
-2.191862 13.215232 -0.336743 50
-1.798242 13.492215 -0.997179 11
-2.221881 13.410197 0.284733 21
-1.810953 13.605067 -0.793786 8
-1.783628 13.417038 -0.158282 27
-1.789378 13.477643 0.049832 40
-2.591517 13.118056 -0.105022 45
-2.597838 13.161693 0.100685 48
-2.602052 13.226963 0.308269 26
-2.151690 13.119968 -0.743319 35
-1.772122 13.482380 -1.417247 9
-2.174076 13.270449 -0.131437 44
-1.767811 13.467115 -1.205051 11
-2.183542 13.342296 0.075510 46
-1.746991 13.325878 -0.570349 33
-1.752429 13.384827 -0.365274 36
-1.769686 13.534322 0.259701 12
-1.777554 13.612311 0.472192 22
-2.558832 13.088625 -0.309632 25
-2.138529 13.164492 -0.540335 54
-2.150843 13.254379 -0.337547 56
-1.754214 13.522147 -0.998933 9
-2.175057 13.417871 0.284733 22
-1.760887 13.591505 -0.792631 15
-1.737810 13.431116 -0.158376 31
-1.742833 13.487774 0.049846 38
-2.538857 13.091681 -0.104740 30
-2.554162 13.182462 0.100775 57
-2.558140 13.247745 0.308543 33
-2.107145 13.135285 -0.743766 34
-1.731105 13.535840 -1.422223 11
-2.129006 13.285856 -0.131515 44
-1.724830 13.504822 -1.207879 8
-2.140749 13.373534 0.075644 44
-1.700970 13.335859 -0.570518 34
-1.705191 13.386896 -0.365166 38
-1.721927 13.536449 0.259625 13
-2.508862 13.063362 -0.513340 57
-1.729524 13.614468 0.472054 23
-2.510115 13.081768 -0.309261 23
-2.093191 13.175823 -0.540497 61
-2.102683 13.249958 -0.337246 54
-1.713494 13.579640 -1.002732 10
-2.125076 13.405633 0.284314 23
-1.726912 13.704542 -0.798867 10
-1.694411 13.464879 -0.158703 31
-1.698236 13.513619 0.049920 39
-2.480585 13.022547 -0.715637 0
-2.492396 13.096535 -0.104708 28
-2.511119 13.207015 0.100895 56
-2.514080 13.268387 0.308817 36
-2.064972 13.166238 -0.745105 33
-1.680401 13.514165 -1.419320 8
-2.086942 13.320869 -0.131788 38
-1.682102 13.546346 -1.211060 8
-2.094677 13.384876 0.075666 49
-1.655903 13.353611 -0.571027 35
-1.659958 13.404667 -0.365490 34
-1.676674 13.558249 0.259929 13
-2.455149 13.028825 -0.511643 36
-2.465973 13.098299 -0.309446 23
-2.049737 13.198832 -0.541144 66
-2.060209 13.280909 -0.337849 56
-2.080232 13.424806 0.284566 22
-1.678722 13.706506 -0.798636 6
-1.647554 13.470693 -0.158703 27
-1.650252 13.511503 0.049890 39
-2.431607 13.011465 -0.714558 36
-2.451981 13.132646 -0.104928 28
-2.465928 13.219596 0.100925 45
-2.465557 13.265287 0.308543 34
-2.018396 13.169417 -0.744882 28
-1.640852 13.583144 -1.425954 7
-2.038615 13.316212 -0.131671 40
-1.641010 13.603559 -1.215656 10
-2.047338 13.388152 0.075644 47
-1.610714 13.371214 -0.571536 33
-1.616022 13.434199 -0.366139 34
-1.628860 13.560047 0.259853 5
-2.407476 13.025524 -0.511181 39
-2.427498 13.146152 -0.310375 24
-2.002453 13.198004 -0.540820 60
-2.015036 13.295926 -0.338050 53
-2.036950 13.455709 0.285068 20
-1.602881 13.496221 -0.158937 26
-1.604492 13.529098 0.049934 38
-2.391214 13.047376 -0.716068 47
-2.035655 13.508206 -1.397242 7
-2.412608 13.176535 -0.105211 37
-2.033385 13.508471 -1.185543 5
-2.423366 13.247796 0.101075 47
-2.419237 13.273813 0.308543 39
-1.971231 13.168484 -0.744436 17
-1.599914 13.644108 -1.431759 8
-1.991529 13.319291 -0.131632 42
-2.002955 13.411041 0.075733 49
-1.565886 13.392632 -0.572214 33
-1.568191 13.431815 -0.365923 35
-2.369121 13.073178 -0.512723 38
-2.378032 13.134871 -0.309911 24
-1.958714 13.220727 -0.541468 61
-1.969197 13.306835 -0.338151 60
-1.991138 13.470650 0.285236 20
-1.999688 13.544150 0.497240 20
-1.556677 13.509681 -0.159031 27
-1.560457 13.562432 0.050037 10
-2.340711 13.028124 -0.714558 36
-1.979223 13.452240 -1.390730 12
-2.368012 13.192750 -0.105274 38
-1.975211 13.440576 -1.178972 5
-2.378520 13.264049 0.101135 44
-1.956797 13.375274 -0.964215 9
-2.377847 13.309727 0.309183 45
-1.949654 13.357823 -0.131945 40
-1.956125 13.417953 0.075733 44
-1.519559 13.401989 -0.572384 37
-1.523062 13.453104 -0.366356 38
-2.328321 13.108925 -0.513803 39
-2.335604 13.162788 -0.310375 23
-1.913027 13.231454 -0.541630 64
-1.923195 13.317601 -0.338251 53
-1.945119 13.485453 0.285403 20
-1.955106 13.570850 0.497966 34
-1.511130 13.530950 -0.159218 27
-2.295058 13.036243 -0.714558 36
-1.930942 13.451216 -1.389916 13
-2.325233 13.220664 -0.105431 40
-1.926391 13.435582 -1.177934 7
-2.332705 13.276244 0.101165 44
-1.906714 13.358323 -0.962507 7
-2.334820 13.337641 0.309640 44
-1.928875 13.529855 -0.764085 5
-1.905270 13.380387 -0.132101 44
-1.910965 13.436579 0.075800 46
-1.473204 13.411184 -0.572553 35
-1.478273 13.478211 -0.366897 34
-2.284604 13.128785 -0.514266 40
-2.295122 13.202380 -0.311118 23
-1.871294 13.269711 -0.542925 55
-1.876139 13.320273 -0.338151 54
-1.899705 13.504041 0.285655 21
-1.906054 13.565718 0.497530 31
-2.254969 13.075665 -0.716283 33
-1.877908 13.414525 -1.385439 12
-2.279069 13.228700 -0.105431 44
-1.877273 13.426438 -1.176551 6
-2.284313 13.272480 0.101075 39
-1.873419 13.443606 -0.968199 14
-2.291255 13.349252 0.309732 56
-1.883998 13.536177 -0.764085 6
-1.862541 13.398517 -0.132218 43
-1.867497 13.450766 0.075845 48
-1.429570 13.423944 -0.572892 34
-1.433992 13.487016 -0.367005 35
-2.245088 13.159930 -0.515191 38
-2.250657 13.205976 -0.311025 22
-1.826189 13.267925 -0.542602 67
-1.832501 13.330383 -0.338251 52
-1.856546 13.522152 0.285906 22
-1.859972 13.564043 0.497240 32
-2.216257 13.110639 -0.717793 39
-1.835568 13.436449 -1.387067 13
-2.236521 13.244073 -0.105494 41
-1.834355 13.444435 -1.177589 6
-2.243614 13.299703 0.101225 41
-1.825379 13.442161 -0.967630 9
-2.247929 13.376891 0.310189 46
-1.840476 13.570375 -0.765648 5
-1.817364 13.416828 -0.132336 37
-1.822683 13.473058 0.075934 43
-1.384764 13.448728 -0.573740 25
-2.199172 13.167681 -0.515191 41
-2.205250 13.217689 -0.311118 22
-1.782597 13.294015 -0.543411 68
-1.788700 13.356503 -0.338754 48
-1.809963 13.532501 0.285990 26
-1.819075 13.617984 0.498982 31
-2.168650 13.106452 -0.717146 46
-1.786697 13.426978 -1.385439 10
-2.191069 13.255722 -0.105525 45
-1.789666 13.466537 -1.178972 6
-2.203843 13.346893 0.101526 36
-1.781585 13.472183 -0.969338 12
-2.201221 13.384657 0.310189 48
-1.797279 13.608392 -0.767434 5
-1.772611 13.438952 -0.132492 38
-1.775642 13.479338 0.075934 49
-2.153840 13.179222 -0.515345 37
-2.163608 13.252933 -0.311767 22
-1.737216 13.308083 -0.543735 68
-1.743617 13.374562 -0.339055 46
-1.762198 13.534771 0.285906 26
-1.774106 13.644071 0.499708 33
-2.125440 13.129713 -0.718008 44
-1.750550 13.516005 -1.393986 17
-2.147338 13.279084 -0.105651 42
-1.744182 13.484558 -1.180009 5
-2.157878 13.358453 0.101556 38
-1.740149 13.521850 -0.972468 10
-2.154487 13.392259 0.310189 53
-1.750784 13.622505 -0.767881 5
-1.727727 13.460927 -0.132648 42
-1.730105 13.497356 0.076001 48
-2.109085 13.194553 -0.515654 37
-2.116072 13.252506 -0.311582 23
-1.691255 13.318030 -0.543897 65
-1.697424 13.384534 -0.339156 49
-1.718962 13.572579 0.286576 24
-1.725967 13.646214 0.499563 25
-2.082093 13.152833 -0.718871 49
-1.701370 13.506241 -1.392358 13
-2.101597 13.290450 -0.105682 44
-1.701080 13.522195 -1.182776 4
-2.111235 13.365904 0.101556 39
-1.701426 13.595136 -0.977306 10
-2.110897 13.419439 0.310646 51
-1.710691 13.687973 -0.771230 8
-1.680744 13.466874 -0.132648 46
-1.683466 13.507283 0.076023 44
-2.062316 13.197899 -0.515500 41
-2.074629 13.291437 -0.312324 22
-1.647027 13.343708 -0.544707 58
-1.652447 13.406277 -0.339558 48
-1.670856 13.574555 0.286492 24
-2.037707 13.171907 -0.719518 54
-1.655339 13.523987 -1.393579 7
-2.056093 13.305660 -0.105745 39
-1.660286 13.583472 -1.187618 8
-2.067270 13.393011 0.101706 41
-2.067687 13.450441 0.311195 44
-1.659531 13.666108 -0.769667 5
-1.635170 13.484571 -0.132766 43
-1.637749 13.524990 0.076090 46
-2.018648 13.220822 -0.516117 41
-2.025809 13.282785 -0.311953 23
-1.599963 13.345407 -0.544545 65
-1.608017 13.431815 -0.340060 48
-1.991119 13.174991 -0.719302 17
-1.617044 13.604759 -1.401312 11
-2.012620 13.332532 -0.105902 42
-2.020507 13.400146 0.101706 40
-2.020129 13.453623 0.311104 46
-1.609947 13.655952 -0.768774 4
-1.586687 13.478279 -0.132648 40
-1.594264 13.562406 0.076269 48
-2.020323 13.517220 -1.371413 8
-2.012079 13.477669 -1.156271 6
-1.974255 13.239648 -0.516579 38
-1.984143 13.321418 -0.312696 22
-1.556141 13.374730 -0.545516 62
-1.563428 13.457207 -0.340563 48
-1.988077 13.457220 -0.944077 8
-1.939287 13.142347 -0.717146 22
-1.965485 13.335519 -0.105871 40
-1.976632 13.426904 0.101856 37
-1.971959 13.452683 0.310921 45
-1.541890 13.503607 -0.132844 36
-1.958206 13.421790 -1.361029 5
-1.960456 13.453053 -1.153565 7
-1.933255 13.282050 -0.517968 37
-1.938266 13.332211 -0.312789 21
-1.508649 13.372127 -0.545192 56
-1.516559 13.462569 -0.340563 49
-1.923593 13.341619 -0.935492 7
-1.903813 13.220174 -0.721027 26
-1.920244 13.350190 -0.105933 43
-1.930517 13.437653 0.101886 36
-1.928386 13.483237 0.311469 49
-1.495624 13.516858 -0.132922 23
-1.912465 13.436424 -1.361828 5
-1.907874 13.420354 -1.150183 7
-1.886318 13.284760 -0.517813 34
-1.895646 13.366611 -0.313439 21
-1.464134 13.397177 -0.546002 59
-1.471292 13.483682 -0.340965 54
-1.880345 13.371961 -0.937153 5
-1.876542 13.361221 -0.728358 11
-1.879188 13.396423 -0.106248 39
-1.886374 13.464115 0.102036 36
-1.881309 13.489886 0.311469 41
-1.887532 13.551174 0.523218 12
-1.862269 13.419365 -1.359432 5
-1.862659 13.438776 -1.151198 5
-1.841578 13.303142 -0.518276 36
-1.847334 13.361263 -0.313160 21
-1.418200 13.410154 -0.546326 60
-1.425896 13.504642 -0.341367 28
-1.847745 13.481233 -0.944354 16
-1.856435 13.561597 -0.738923 14
-1.831331 13.394975 -0.106185 40
-1.840447 13.478544 0.102096 35
-1.840239 13.523802 0.312110 46
-1.844137 13.569250 0.523677 28
-1.820480 13.445180 -1.361428 4
-1.820310 13.460666 -1.152550 7
-1.796510 13.301236 -0.517968 36
-1.803715 13.371257 -0.313253 21
-1.374407 13.418732 -0.546488 51
-1.800286 13.463497 -0.942692 12
-1.818797 13.619082 -0.741726 10
-1.791635 13.432625 -0.106436 35
-1.799453 13.508290 0.102276 41
-1.791445 13.518250 0.311835 46
-1.797285 13.579567 0.523829 33
-1.774577 13.459344 -1.362227 4
-1.773312 13.466938 -1.152550 8
-1.754238 13.339129 -0.519202 39
-1.757029 13.377471 -0.313253 19
-1.757399 13.501355 -0.944908 12
-1.770217 13.617427 -0.741295 6
-1.742675 13.422931 -0.106310 41
-1.751775 13.510522 0.102246 40
-1.749362 13.564082 0.312750 37
-1.751915 13.601615 0.524441 33
-1.736195 13.532567 -1.369016 11
-1.730852 13.508626 -1.155594 5
-1.709694 13.361031 -0.519819 36
-1.714378 13.415257 -0.313996 19
-1.720285 13.586584 -0.950446 17
-1.732193 13.698813 -0.745392 12
-1.699318 13.456711 -0.106530 40
-1.705104 13.520523 0.102276 40
-1.701144 13.562153 0.312567 41
-1.685920 13.514857 -1.366620 4
-1.689970 13.566017 -1.159991 5
-1.664353 13.378838 -0.520281 38
-1.666329 13.413250 -0.313810 21
-1.679820 13.673141 -0.743667 10
-1.655056 13.490436 -0.106750 42
-1.658614 13.538394 0.102366 36
-1.655729 13.583887 0.312933 39
-1.643044 13.556220 -1.370214 3
-1.619560 13.400438 -0.520898 32
-1.620935 13.430895 -0.314088 20
-1.624983 13.619431 -0.740433 12
-1.606062 13.480244 -0.106625 37
-1.611818 13.548074 0.102396 35
-1.606411 13.652785 -1.379400 5
-1.573706 13.413950 -0.521207 37
-1.574973 13.444415 -0.314274 20
-1.577892 13.628987 -0.740648 6
-1.561754 13.509608 -0.106813 40
-1.528320 13.431265 -0.521670 32
-1.530410 13.469684 -0.314738 18
-1.514508 13.510962 -0.106782 45
-1.481865 13.440491 -0.521824 33
-1.485133 13.490844 -0.315110 18
-1.434940 13.445581 -0.521824 35
-1.432524 13.444252 -0.313903 14
-1.388362 13.454490 -0.521978 32