# This PCD file was generated using the MATLAB® pcwrite function
# from Computer Vision Toolbox®.
# .PCD v.7 - Point Cloud Data file format
VERSION .7
FIELDS x y z intensity
SIZE 4 4 4 1
TYPE F F F U
COUNT 1 1 1 1
WIDTH 1505
HEIGHT 1
VIEWPOINT 0 0 0 1 0 0 0
POINTS 1505
DATA ascii
-0.984554 9.525329 0.274175 43
-0.675789 9.484013 -0.476666 76
-0.986122 9.555954 0.422797 31
-0.669016 9.478685 -0.330166 83
-0.374842 9.662173 -1.101694 9
-0.669946 9.514653 -0.184808 83
-0.375087 9.710664 -0.655685 10
-0.671594 9.561024 0.256003 100
-0.363358 9.448213 -0.492216 89
-0.670470 9.568047 0.403680 101
-0.364088 9.508864 -0.056469 67
-0.363241 9.528655 0.089873 101
-0.362763 9.558367 0.531431 101
-0.970595 9.562849 -0.020131 7
-0.965274 9.526379 0.127017 47
-0.358724 9.622807 -0.947574 5
-0.654558 9.501404 -0.038232 101
-0.358638 9.664160 -0.801883 4
-0.655665 9.540882 0.108498 58
-0.350766 9.495137 -0.348408 100
-0.657394 9.589625 0.552549 16
-0.349030 9.491431 -0.202268 55
-0.349746 9.554664 0.237007 94
-0.348402 9.561940 0.384302 101
-0.949209 9.495219 -0.166566 2
-0.641699 9.453916 -0.621068 58
-0.952132 9.540679 0.274518 39
-0.641757 9.478368 -0.476266 84
-0.951582 9.551424 0.422446 32
-0.637043 9.472875 -0.329888 73
-0.340967 9.611730 -1.095807 9
-0.637587 9.504851 -0.184576 81
-0.343869 9.739773 -0.657570 10
-0.639618 9.559208 0.255896 100
-0.332305 9.457350 -0.492632 78
-0.638738 9.570217 0.403680 101
-0.332274 9.502025 -0.056421 68
-0.331641 9.529808 0.089873 101
-0.330650 9.547544 0.530765 101
-0.931845 9.494360 -0.019981 100
-0.931728 9.509624 0.126752 40
-0.326677 9.619965 -0.947182 6
-0.622261 9.491548 -0.038184 101
-0.325512 9.633423 -0.799239 4
-0.623500 9.535021 0.108407 62
-0.319277 9.496248 -0.348408 100
-0.625330 9.587768 0.552319 22
-0.317821 9.500530 -0.202439 51
-0.317395 9.535789 0.236511 92
-0.918574 9.490515 -0.312972 1
-0.316162 9.547065 0.383660 101
-0.918870 9.510258 -0.166775 99
-0.610603 9.459974 -0.621330 54
-0.922025 9.559703 0.274976 48
-0.611349 9.496391 -0.477067 87
-0.919520 9.550550 0.422270 31
-0.603973 9.475040 -0.329888 76
-0.307160 9.604917 -1.094901 8
-0.605420 9.522984 -0.184886 84
-0.308727 9.705014 -0.655146 3
-0.605993 9.557392 0.255789 100
-0.299291 9.458452 -0.492632 82
-0.605328 9.572389 0.403680 101
-0.298852 9.495131 -0.056374 61
-0.298248 9.526909 0.089836 101
-0.899253 9.486407 -0.459374 2
-0.297693 9.560615 0.531431 101
-0.900582 9.517466 -0.020022 77
-0.898528 9.512818 0.126752 41
-0.292125 9.589214 -0.944048 7
-0.589621 9.501646 -0.038216 101
-0.292003 9.638485 -0.799569 3
-0.590954 9.549116 0.108543 60
-0.285886 9.489314 -0.348115 95
-0.591120 9.577934 0.551631 38
-0.284057 9.481595 -0.202013 63
-0.284464 9.548829 0.236809 100
-0.885812 9.497643 -0.313103 51
-0.283071 9.556100 0.383981 101
-0.883443 9.489514 -0.166356 93
-0.576848 9.450096 -0.620545 53
-0.887909 9.554901 0.274747 50
-0.577468 9.486505 -0.476466 83
-0.885070 9.541763 0.421742 40
-0.570850 9.477094 -0.329888 81
-0.273376 9.597986 -1.093996 10
-0.570708 9.501088 -0.184421 88
-0.275515 9.729969 -0.656762 9
-0.571900 9.547476 0.255469 101
-0.266054 9.451453 -0.492216 75
-0.570725 9.554496 0.402839 101
-0.265506 9.488119 -0.056326 58
-0.863737 9.445417 -0.603383 2
-0.265143 9.531890 0.089873 101
-0.865085 9.477548 -0.458797 68
-0.264046 9.549618 0.530765 101
-0.865598 9.500628 -0.019981 83
-0.864667 9.507924 0.126646 45
-0.258993 9.598131 -0.944831 8
-0.556343 9.499646 -0.038200 101
-0.257968 9.619517 -0.797917 3
-0.557529 9.547119 0.108498 63
-0.252921 9.490250 -0.348115 78
-0.558078 9.583917 0.551860 45
-0.251242 9.486522 -0.202098 55
-0.251221 9.545761 0.236709 93
-0.849989 9.468806 -0.312054 59
-0.249926 9.557025 0.383981 101
-0.846956 9.452686 -0.165658 97
-0.543856 9.448054 -0.620283 59
-0.855850 9.569869 0.275091 38
-0.543910 9.476483 -0.475865 78
-0.854491 9.572635 0.422973 49
-0.538218 9.487011 -0.330166 76
-0.239573 9.586963 -1.092637 15
-0.537088 9.495037 -0.184266 95
-0.241054 9.710922 -0.655415 9
-0.537894 9.537437 0.255149 101
-0.233061 9.452324 -0.492216 77
-0.537146 9.552440 0.402671 101
-0.232580 9.496985 -0.056374 65
-0.832510 9.468257 -0.604653 93
-0.231286 9.508765 0.089647 101
-0.832346 9.484490 -0.458989 100
-0.230806 9.554474 0.530987 101
-0.833476 9.515546 -0.020006 95
-0.831124 9.506900 0.126593 58
-0.225394 9.594997 -0.944440 8
-0.522960 9.497537 -0.038184 101
-0.223737 9.592463 -0.795603 3
-0.523323 9.533032 0.108316 62
-0.219700 9.487079 -0.347969 98
-0.524184 9.577831 0.551401 46
-0.218126 9.487341 -0.202098 50
-0.217716 9.538585 0.236511 88
-0.816931 9.471715 -0.312054 57
-0.216383 9.549848 0.383660 101
-0.815670 9.475509 -0.166007 100
-0.510872 9.449895 -0.620283 58
-0.820728 9.552879 0.274518 49
-0.511257 9.486302 -0.476266 93
-0.821754 9.583522 0.423325 52
-0.505099 9.488832 -0.330166 91
-0.206193 9.591714 -1.093090 18
-0.505637 9.528803 -0.184886 100
-0.206985 9.703725 -0.654877 10
-0.504599 9.539256 0.255149 100
-0.199896 9.445092 -0.491800 75
-0.503167 9.542284 0.402167 101
-0.199344 9.493740 -0.056350 56
-0.799790 9.475083 -0.604907 100
-0.198509 9.529510 0.089836 101
-0.799905 9.495300 -0.459374 100
-0.197289 9.547235 0.530544 101
-0.799585 9.510426 -0.019989 100
-0.798603 9.517715 0.126699 64
-0.192059 9.603685 -0.945223 6
-0.489186 9.487320 -0.038135 101
-0.190805 9.621084 -0.797917 3
-0.490454 9.542789 0.108407 60
-0.186504 9.483791 -0.347822 98
-0.491360 9.591567 0.552090 55
-0.184696 9.472052 -0.201757 62
-0.184496 9.543284 0.236610 88
-0.784523 9.482477 -0.312316 51
-0.182740 9.534560 0.383018 101
-0.784235 9.498227 -0.166356 100
-0.478085 9.455607 -0.620545 61
-0.786721 9.547716 0.274289 48
-0.478342 9.492019 -0.476466 88
-0.787969 9.582350 0.423149 60
-0.471845 9.486541 -0.330027 78
-0.172754 9.592375 -1.093090 17
-0.471029 9.502547 -0.184343 88
-0.173556 9.728330 -0.656493 8
-0.471512 9.544952 0.255255 101
-0.167127 9.457715 -0.492424 74
-0.470238 9.551966 0.402503 101
-0.166027 9.486381 -0.056303 54
-0.763456 9.438031 -0.602367 100
-0.165249 9.534144 0.089873 101
-0.764763 9.474145 -0.458219 101
-0.163939 9.551861 0.530765 101
-0.766935 9.521140 -0.020006 101
-0.765258 9.520453 0.126699 69
-0.158335 9.604300 -0.945223 7
-0.455293 9.476994 -0.038087 101
-0.157383 9.645610 -0.799900 4
-0.456532 9.536464 0.108316 68
-0.153018 9.476396 -0.347529 99
-0.457052 9.581269 0.551401 56
-0.151482 9.480640 -0.201928 64
-0.150624 9.527883 0.236214 94
-0.752692 9.505110 -0.312972 60
-0.149249 9.543138 0.383339 101
-0.749168 9.480999 -0.166007 101
-0.444156 9.445274 -0.619760 50
-0.750199 9.514559 0.273259 53
-0.444634 9.489658 -0.476266 95
-0.753500 9.577105 0.422797 54
-0.437990 9.472157 -0.329471 92
-0.139500 9.608814 -1.094901 13
-0.438409 9.516119 -0.184576 96
-0.138680 9.665028 -0.652184 6
-0.438558 9.554529 0.255469 101
-0.134112 9.458241 -0.492424 74
-0.437258 9.561534 0.402839 101
-0.132968 9.490902 -0.056326 58
-0.729582 9.428699 -0.601605 100
-0.131912 9.530663 0.089836 101
-0.732610 9.488708 -0.458797 101
-1.049065 9.600671 0.443626 14
-0.130596 9.552375 0.530765 101
-0.733695 9.523760 -0.020006 101
-0.732327 9.527055 0.126752 75
-0.124964 9.616736 -0.946398 7
-0.422387 9.482521 -0.038103 101
-0.123713 9.646101 -0.799900 6
-0.423064 9.534004 0.108271 70
-0.120040 9.484865 -0.347822 100
-0.423252 9.574827 0.550942 50
-0.118387 9.481111 -0.201928 56
-0.117561 9.544344 0.236610 88
-0.718000 9.487746 -0.312316 73
-0.115888 9.539604 0.383178 101
-0.425154 9.729832 -1.090696 2
-0.718176 9.511472 -0.166496 101
-0.411530 9.454742 -0.620283 49
-0.720888 9.568952 0.274747 40
-0.411160 9.483171 -0.475865 95
-0.720664 9.587646 0.423149 58
-0.404923 9.473628 -0.329471 100
-0.105739 9.589373 -1.092637 17
-0.404168 9.493617 -0.184111 86
-0.105332 9.701369 -0.654608 7
-0.405373 9.559997 0.255576 100
-0.101010 9.450663 -0.492008 72
-0.404385 9.574981 0.403344 101
-0.099796 9.487309 -0.056303 60
-0.697548 9.443131 -0.602367 100
-1.015243 9.585890 0.294513 34
-0.098519 9.519068 0.089723 101
-0.699778 9.495192 -0.458989 101
-1.013866 9.588380 0.442892 19
-0.097251 9.552773 0.530765 101
-0.406660 9.746239 -0.940991 14
-0.700153 9.522273 -0.019997 101
-0.405232 9.751630 -0.790418 53
-0.698189 9.517586 0.126593 71
-0.091735 9.652939 -0.949924 7
-0.389449 9.487934 -0.038119 101
-0.090078 9.650459 -0.800230 4
-0.389128 9.519437 0.108089 75
-0.086930 9.485227 -0.347822 100
-0.389827 9.576246 0.550942 49
-0.085219 9.473469 -0.201757 64
-1.000577 9.586815 0.146372 9
-0.084174 9.536698 0.236412 99
-0.683150 9.466270 -0.311529 84
-0.082588 9.539950 0.383178 101
-0.389911 9.699481 -1.087134 9
-0.684684 9.509932 -0.166426 101
-0.378365 9.452133 -0.620022 42
-0.685763 9.547482 0.274060 47
-0.378532 9.496523 -0.476466 88
-0.687478 9.594090 0.423325 58
-0.373750 9.482910 -0.329749 86
-0.074171 9.625439 -1.096713 11
-0.372797 9.498903 -0.184188 100
-0.073264 9.717628 -0.655685 11
-0.372871 9.541311 0.255042 101
-0.069680 9.450945 -0.492008 72
-0.371864 9.556301 0.402503 101
-0.068285 9.475587 -0.056231 58
-0.667670 9.465300 -0.603637 101
-0.979815 9.553404 0.293414 40
-0.067072 9.527341 0.089798 101
-0.666667 9.473542 -0.457834 101
-0.980907 9.579758 0.442341 23
-0.065691 9.557035 0.530987 101
-0.370458 9.644087 -0.931005 16
-0.668663 9.524536 -0.019997 101
-0.370727 9.693155 -0.785575 28
-0.667300 9.527821 0.126699 77
-0.059950 9.657169 -0.950316 7
-0.357577 9.473177 -0.038055 101
-0.058496 9.682594 -0.802875 5
-0.357032 9.500682 0.107863 72
-0.055727 9.485461 -0.347822 98
-0.358471 9.581468 0.551171 51
-0.966741 9.551199 -0.001676 17
-0.054149 9.485695 -0.202013 56
-0.964236 9.542300 0.145643 33
-0.052832 9.532925 0.236313 100
-0.652609 9.476439 -0.311791 97
-0.051285 9.540171 0.383178 101
-0.354710 9.609342 -1.076895 7
-0.653202 9.508138 -0.166356 101
-0.348255 9.477255 -0.621591 22
-0.654185 9.545689 0.273946 44
-0.346986 9.485735 -0.475865 90
-0.654686 9.576356 0.422446 60
-0.340216 9.472173 -0.329333 87
-0.040621 9.637562 -1.098071 13
-0.339923 9.508140 -0.184343 79
-0.039294 9.705853 -0.654877 11
-0.339563 9.542555 0.255042 101
-0.036674 9.447137 -0.491800 79
-0.337655 9.533577 0.401494 101
-0.943247 9.508175 -0.148431 3
-0.035283 9.495768 -0.056350 65
-0.634092 9.459607 -0.603129 101
-0.945280 9.544830 0.293048 31
-0.033801 9.523517 0.089760 101
-0.634128 9.483785 -0.458219 101
-0.946282 9.571194 0.441791 25
-0.032330 9.557206 0.530987 101
-0.337208 9.657258 -0.932157 22
-0.635412 9.526813 -0.019997 101
-0.030787 9.571869 0.679407 7
-0.335920 9.666498 -0.783315 27
-0.632976 9.514129 0.126487 72
-0.026315 9.685185 -0.953058 5
-0.324645 9.478366 -0.038071 101
-0.024891 9.758479 -0.809155 3
-0.324548 9.521857 0.108089 67
-0.022587 9.473606 -0.347382 100
-0.324753 9.574678 0.550712 49
-0.931839 9.538591 -0.001673 30
-0.021011 9.473828 -0.201757 60
-0.930533 9.541628 0.145582 36
-0.019589 9.549047 0.236709 100
-0.619526 9.478660 -0.311791 100
-0.017960 9.528301 0.382697 101
-0.321961 9.634359 -1.079566 6
-0.619748 9.506369 -0.166287 101
-0.315436 9.486391 -0.622115 8
-0.620861 9.547915 0.273946 44
-0.314004 9.490881 -0.476066 97
-0.620219 9.562632 0.421742 64
-0.307020 9.469307 -0.329194 93
-0.007011 9.681361 -1.103052 5
-0.306345 9.497277 -0.184111 86
-0.005414 9.705931 -0.654877 7
-0.305995 9.535689 0.254828 101
-0.912073 9.515826 -0.295407 20
-0.003690 9.427234 -0.490761 80
-0.305012 9.554670 0.402335 101
-0.908909 9.499465 -0.148245 33
-0.002133 9.483832 -0.056279 70
-0.601321 9.465747 -0.603383 101
-0.910436 9.532152 0.292559 30
-0.000558 9.531577 0.089836 101
-0.600009 9.469991 -0.457448 101
-0.911729 9.562506 0.441240 25
0.001031 9.553267 0.530765 101
-0.303121 9.646438 -0.931005 18
-0.600388 9.501028 -0.019939 101
0.002614 9.528028 0.676292 16
-0.302300 9.671597 -0.783638 25
-0.600264 9.524263 0.126593 80
-0.291311 9.471445 -0.038039 101
-0.291064 9.514936 0.107999 75
-0.895786 9.495630 -0.441449 4
0.010495 9.485620 -0.347822 100
-0.291086 9.567771 0.550253 47
-0.898163 9.537804 -0.001672 30
0.012059 9.473845 -0.201757 58
-0.898718 9.560745 0.145825 35
0.013738 9.545058 0.236610 84
-0.586929 9.488745 -0.312054 101
0.015351 9.560280 0.383981 101
-0.288210 9.631451 -1.079121 7
-0.587299 9.520450 -0.166496 101
-0.289681 9.734794 -0.638335 7
-0.585564 9.518097 0.273030 47
-0.280282 9.471953 -0.475064 100
-0.587325 9.572716 0.422094 62
-0.274331 9.482308 -0.329610 92
-0.273088 9.494290 -0.184033 100
0.028649 9.769745 -0.659185 2
-0.272712 9.536699 0.254828 101
-0.876283 9.491084 -0.294542 30
0.029258 9.439173 -0.491385 80
-0.270974 9.531708 0.401326 101
-0.873539 9.478684 -0.147872 42
0.030956 9.475782 -0.056231 64
-0.568266 9.467789 -0.603383 101
-0.877879 9.543235 0.292803 34
0.032704 9.523520 0.089760 101
-0.567169 9.476017 -0.457641 101
-0.880153 9.585526 0.442158 25
0.034418 9.557199 0.530987 101
-0.268309 9.607638 -0.927164 20
-0.568385 9.523032 -0.019981 101
0.035921 9.531951 0.676575 27
-0.268283 9.664623 -0.782992 40
-0.566982 9.526302 0.126593 80
-0.257756 9.456411 -0.037975 101
-0.863082 9.486712 -0.587635 5
-0.258218 9.531889 0.108180 66
-0.861126 9.482788 -0.440710 64
0.043695 9.489522 -0.347969 98
-0.258153 9.588690 0.551401 50
-0.863349 9.524953 -0.001669 30
0.045207 9.473744 -0.201757 58
-0.864900 9.559849 0.145764 35
0.047064 9.528956 0.236214 96
-0.553485 9.486750 -0.311922 101
0.048796 9.556170 0.383820 101
-0.254284 9.624454 -1.078231 9
-0.554202 9.526440 -0.166566 101
-0.255281 9.723779 -0.637550 9
-0.552235 9.520089 0.273030 47
-0.246692 9.456903 -0.474263 100
-0.554490 9.586682 0.422622 68
-0.240823 9.467222 -0.329055 93
-0.546019 9.547537 0.568155 9
-0.239541 9.479194 -0.183724 100
-0.239221 9.529598 0.254615 101
-0.843147 9.494084 -0.294542 32
0.062259 9.447002 -0.491800 75
-0.238298 9.556566 0.402335 101
-0.840800 9.485660 -0.147934 41
0.064032 9.475616 -0.056231 58
-0.535439 9.473700 -0.603637 101
-0.845971 9.562172 0.293292 36
0.065919 9.519349 0.089723 101
-0.534088 9.477940 -0.457641 101
-0.846688 9.588541 0.442158 22
0.067665 9.541045 0.530100 101
-0.235257 9.628418 -0.929084 23
-0.534243 9.508984 -0.019947 101
0.069020 9.507829 0.674876 50
-0.234546 9.665501 -0.782992 31
-0.533054 9.516244 0.126434 78
-0.225221 9.477248 -0.038055 101
-0.825787 9.441940 -0.584680 23
-0.224661 9.520737 0.108044 75
-0.826977 9.473794 -0.440155 67
0.076852 9.493309 -0.348115 100
-0.224680 9.589533 0.551401 50
-0.830095 9.527908 -0.001669 30
0.078243 9.469529 -0.201672 68
-0.831178 9.558825 0.145704 32
0.080292 9.524735 0.236115 98
-0.519929 9.480640 -0.311660 101
0.082050 9.543952 0.383339 101
-0.220869 9.633230 -1.079121 12
-0.521163 9.532310 -0.166636 101
-0.221973 9.752543 -0.639381 8
-0.520306 9.545913 0.273717 48
-0.213860 9.465693 -0.474664 101
-0.519071 9.552648 0.421039 65
-0.208038 9.479996 -0.329471 100
-0.512688 9.549385 0.568155 19
-0.206887 9.499964 -0.184111 98
-0.206214 9.542368 0.254935 101
-0.808982 9.485019 -0.294172 32
0.095194 9.442733 -0.491593 79
-0.204681 9.545354 0.401830 101
-0.808702 9.500492 -0.148121 41
0.097149 9.479335 -0.056255 57
-0.502789 9.483484 -0.604145 101
-0.813603 9.577018 0.293658 39
0.099148 9.519061 0.089723 101
-0.501423 9.487725 -0.458026 101
-0.813212 9.591437 0.442158 22
0.100927 9.536757 0.529878 101
-0.201313 9.613258 -0.927548 34
-0.501678 9.522774 -0.019972 101
0.102808 9.563386 0.678841 37
-0.200557 9.654303 -0.782023 13
-0.499833 9.518046 0.126434 77
-0.192138 9.477976 -0.038055 101
-0.792156 9.436809 -0.584187 28
-0.191426 9.521463 0.108044 69
-0.791567 9.448750 -0.438860 73
0.109758 9.472998 -0.347382 101
-0.190409 9.550332 0.549105 61
-0.795499 9.514803 -0.001666 34
0.111438 9.481195 -0.201928 67
-0.798139 9.565654 0.145764 37
0.113682 9.536393 0.236412 99
-0.486217 9.470420 -0.311266 101
0.115219 9.531618 0.382857 101
-0.187087 9.625994 -1.078231 10
-0.486456 9.506111 -0.166147 101
-0.187698 9.741286 -0.638596 7
-0.486778 9.543678 0.273602 42
-0.180513 9.450405 -0.473863 101
-0.485926 9.558392 0.421215 70
-0.174774 9.468672 -0.329055 98
-0.478602 9.535162 0.567206 27
-0.173683 9.496629 -0.184033 100
-0.172915 9.543030 0.254935 100
-0.776858 9.499739 -0.294542 32
0.128162 9.442344 -0.491593 85
-0.171138 9.534022 0.401326 101
-0.775852 9.507244 -0.148183 44
0.130319 9.482938 -0.056279 65
-0.469261 9.477208 -0.603637 101
-0.779492 9.571832 0.293414 38
0.132309 9.510657 0.089647 101
-0.467862 9.481439 -0.457641 101
-0.778710 9.582273 0.441607 20
0.134562 9.556314 0.530987 101
-0.167620 9.609922 -0.927164 19
-0.467780 9.512485 -0.019947 101
-0.166633 9.646973 -0.781378 28
-0.466913 9.527727 0.126540 78
-0.158776 9.470592 -0.038023 101
-0.762269 9.479323 -0.586650 25
-0.158027 9.522076 0.108044 65
-0.757141 9.435537 -0.438120 64
0.143185 9.484545 -0.347822 100
-0.157349 9.578892 0.550712 49
-0.763696 9.537473 -0.001670 31
0.144671 9.476747 -0.201843 65
-0.765180 9.576371 0.145886 35
0.147189 9.535934 0.236412 92
-0.453319 9.480057 -0.311529 101
0.148791 9.535151 0.383018 101
-0.153433 9.638516 -1.079566 10
-0.453222 9.511758 -0.166217 101
-0.152927 9.709959 -0.636503 5
-0.452823 9.537344 0.273373 51
-0.147559 9.470955 -0.474864 100
-0.451335 9.540085 0.420335 63
-0.141781 9.473222 -0.329194 93
-0.444756 9.524809 0.566494 34
-0.140236 9.477183 -0.183646 97
-0.139486 9.535579 0.254721 101
-0.744005 9.506378 -0.294666 34
-1.057891 9.586769 0.461593 14
0.161462 9.461808 -0.492632 73
-0.138031 9.546550 0.401830 101
-0.742661 9.509894 -0.148183 53
0.163488 9.486424 -0.056303 65
-0.436176 9.478788 -0.603637 101
-0.745454 9.566523 0.293170 36
0.165577 9.514136 0.089685 101
-0.434580 9.479023 -0.457448 101
-0.744327 9.572982 0.441057 26
-0.134685 9.654242 -0.931389 23
-0.434025 9.502072 -0.019922 101
-0.133287 9.671415 -0.783315 27
-0.432925 9.513317 0.126327 78
-0.125504 9.455091 -0.037959 101
-0.727033 9.454062 -0.584926 27
-0.124683 9.514571 0.107953 62
-0.725729 9.458043 -0.439045 73
-1.042202 9.578388 0.312890 4
0.176217 9.479990 -0.347676 100
-0.123963 9.583376 0.550942 48
-0.728873 9.520139 -0.001666 34
0.177526 9.464189 -0.201587 66
-0.730224 9.559044 0.145582 38
0.180399 9.531364 0.236313 100
-0.420402 9.485575 -0.311660 101
0.181922 9.526581 0.382697 101
-0.119639 9.627069 -1.078231 10
-0.419488 9.501295 -0.166007 101
-0.118934 9.702452 -0.635980 6
-0.419353 9.534872 0.273259 56
-0.114354 9.459428 -0.474263 101
-0.418556 9.553579 0.420863 65
-0.108667 9.469662 -0.329055 88
-0.411161 9.518325 0.566020 37
-0.107380 9.497610 -0.184033 100
-0.105933 9.512017 0.254081 101
-0.708731 9.481009 -0.293801 33
-1.023148 9.578485 0.461020 47
0.194079 9.441218 -0.491593 75
-0.104794 9.554966 0.402167 101
-0.413759 9.692605 -1.067621 3
-0.709460 9.512429 -0.148183 51
0.196601 9.485796 -0.056303 61
-0.402578 9.468288 -0.602875 101
-0.711166 9.557105 0.292803 41
0.198703 9.509501 0.089647 101
-0.400982 9.468507 -0.456871 101
-0.710611 9.571537 0.440873 22
-0.100984 9.654653 -0.931389 21
-0.400685 9.499533 -0.019913 101
-0.099609 9.679795 -0.783961 31
-0.399547 9.510774 0.126274 73
-0.092499 9.455471 -0.037959 101
-0.693735 9.452560 -0.584680 25
-1.006153 9.541695 0.164124 4
-0.091355 9.502950 0.107817 80
-0.693293 9.468489 -0.439415 92
-1.008760 9.581967 0.312890 100
0.209307 9.479318 -0.347676 101
-0.090397 9.571771 0.550253 51
-0.400768 9.736316 -0.921132 12
-0.696803 9.538583 -0.001669 34
0.210472 9.459514 -0.201502 63
-0.399490 9.745386 -0.771048 14
-0.697434 9.569512 0.145704 44
0.213041 9.502692 0.235619 47
-0.386800 9.475001 -0.311266 101
-0.086140 9.639353 -1.079566 9
-0.386157 9.498706 -0.165937 101
-0.085240 9.722764 -0.637288 8
-0.386553 9.548263 0.273602 52
-0.081368 9.463764 -0.474463 101
-0.385527 9.562967 0.421215 74
-0.075522 9.461988 -0.328777 100
-0.377908 9.519703 0.566020 33
-0.074148 9.489929 -0.183878 93
-0.072784 9.520327 0.254294 100
-0.675625 9.483425 -0.293801 33
-0.987648 9.562127 0.460064 38
0.226934 9.436490 -0.491385 68
-0.071324 9.539289 0.401494 101
-0.379771 9.690017 -1.067183 33
-0.675972 9.510858 -0.148121 56
0.229698 9.485052 -0.056303 60
-0.369694 9.473624 -0.603129 101
-0.678097 9.563517 0.292925 40
0.232068 9.516748 0.089723 101
-0.368416 9.481825 -0.457448 101
-0.677501 9.577944 0.441057 23
-0.067288 9.650965 -0.931005 24
-0.368174 9.516860 -0.019947 101
-0.066026 9.704004 -0.785898 29
-0.365926 9.500119 0.126115 83
-0.059564 9.455736 -0.037959 101
-0.660528 9.450936 -0.584433 29
-0.970073 9.517289 0.163645 64
-0.058338 9.515209 0.107953 67
-0.661708 9.490775 -0.440340 81
-0.971342 9.545649 0.311591 95
0.241794 9.458551 -0.346943 101
-0.056957 9.552061 0.549105 57
-0.364624 9.677960 -0.915486 10
-0.662206 9.520999 -0.001666 35
0.243699 9.470717 -0.201757 73
-0.364227 9.710855 -0.768211 13
-0.664127 9.571882 0.145704 42
-0.353833 9.476290 -0.311266 101
-0.052571 9.631643 -1.078676 8
-0.353266 9.503988 -0.166007 101
-0.051518 9.738967 -0.638335 10
-0.352021 9.513588 0.272572 63
-0.048492 9.467985 -0.474664 101
-0.352137 9.560256 0.421039 70
-0.042547 9.474187 -0.329194 95
-0.344531 9.516973 0.565783 39
-0.952115 9.511580 -0.130142 10
-0.041022 9.490130 -0.183878 93
-0.951795 9.524547 0.016706 44
-0.039502 9.508527 0.253974 101
-0.642518 9.485726 -0.293801 32
-0.953867 9.561541 0.459873 46
0.259762 9.431647 -0.491177 74
-0.038025 9.539479 0.401494 101
-0.343816 9.631681 -1.060620 18
-0.641690 9.497198 -0.147872 60
0.262695 9.480194 -0.056279 42
-0.336197 9.462889 -0.602367 101
-0.642559 9.533913 0.291948 49
-0.334752 9.467082 -0.456678 101
-0.644332 9.584237 0.441240 23
-0.033683 9.675030 -0.933309 18
-0.334952 9.518087 -0.019947 101
-0.032284 9.744045 -0.789127 29
-0.333322 9.517327 0.126327 76
-0.026535 9.447886 -0.037927 101
-0.627006 9.445217 -0.583941 26
-0.936846 9.520617 0.163645 70
-0.025049 9.487356 0.107636 77
-0.626199 9.457145 -0.438675 94
-0.937624 9.545002 0.311461 100
0.275389 9.477628 -0.347676 101
-0.023653 9.568175 0.550024 47
-0.330431 9.667234 -0.914356 10
-0.629495 9.531235 -0.001667 34
0.276523 9.461814 -0.201587 57
-0.328973 9.672215 -0.765059 15
-0.629134 9.550197 0.145339 42
-0.320753 9.477467 -0.311266 101
-0.019051 9.683445 -1.084463 8
-0.319955 9.501166 -0.165937 101
-0.017458 9.703164 -0.635980 9
-0.318408 9.502770 0.272229 58
-0.015429 9.460107 -0.474263 101
-0.319030 9.569415 0.421390 79
-0.926155 9.527070 -0.277402 4
-0.009459 9.458287 -0.328638 100
-0.311178 9.514128 0.565546 52
-0.916985 9.494939 -0.129869 80
-0.007885 9.478218 -0.183646 98
-0.918926 9.531793 0.016713 44
-0.006321 9.524601 0.254401 101
-0.609403 9.487911 -0.293801 35
-0.923164 9.592651 0.461211 49
0.292807 9.434676 -0.491385 57
-0.004728 9.543550 0.401662 101
-0.309298 9.605005 -1.057557 19
-0.608790 9.503371 -0.147934 60
-0.303164 9.464005 -0.602367 101
-0.610041 9.548067 0.292315 44
-0.301831 9.472186 -0.456871 101
-0.610364 9.578452 0.440873 19
-0.301219 9.503206 -0.019913 101
-0.300225 9.522430 0.126380 83
0.006442 9.443922 -0.037911 101
-0.594533 9.455317 -0.584433 31
-0.903229 9.519849 0.163577 75
0.008088 9.511384 0.107908 66
-0.594184 9.475224 -0.439415 95
-0.905431 9.560157 0.311851 97
0.308601 9.480604 -0.347822 26
0.009758 9.580179 0.550712 53
-0.295952 9.644446 -0.912098 15
-0.596221 9.533374 -0.001667 31
-0.295330 9.677289 -0.765374 13
-0.595793 9.552335 0.145339 36
-0.287183 9.462544 -0.310741 101
-0.286908 9.506223 -0.166007 101
0.016406 9.699175 -0.635718 10
-0.286195 9.535797 0.273144 61
-0.893620 9.520750 -0.424201 5
0.017608 9.468093 -0.474664 101
-0.285505 9.566476 0.421215 81
-0.889910 9.498398 -0.276475 59
0.023586 9.470256 -0.329055 100
-0.278548 9.535112 0.566732 60
-0.883095 9.490117 -0.129761 74
0.025201 9.478188 -0.183646 100
-0.884538 9.522994 0.016692 48
0.026892 9.512569 0.254081 101
-0.575553 9.478008 -0.293430 36
-0.887461 9.571945 0.460064 49
0.326703 9.461542 -0.492840 27
0.028585 9.543509 0.401662 101
-0.275996 9.613976 -1.058432 25
-0.574888 9.493462 -0.147748 61
-0.270809 9.488947 -0.603891 65
-0.576708 9.550138 0.292315 42
-0.268765 9.473182 -0.456871 101
-0.576685 9.576536 0.440690 24
-0.268045 9.504200 -0.019913 101
-0.266535 9.507428 0.126168 76
-0.874465 9.518863 -0.571255 10
0.039541 9.475842 -0.038039 101
-0.561761 9.461321 -0.584680 32
-0.869266 9.514977 0.163440 64
0.041254 9.503299 0.107817 70
-0.560634 9.469263 -0.439045 100
-0.868787 9.527428 0.310682 95
0.043127 9.564114 0.549794 47
-0.262501 9.653382 -0.912851 14
-0.563175 9.539391 -0.001668 37
-0.261225 9.666303 -0.764429 14
-0.562446 9.554356 0.145339 43
-0.254580 9.479475 -0.311266 101
-0.253083 9.483178 -0.165588 101
0.050014 9.651162 -0.632579 3
-0.252483 9.520750 0.272687 62
-0.858583 9.503912 -0.423314 73
0.050658 9.467974 -0.474664 101
-0.251689 9.551435 0.420511 80
-0.855671 9.489500 -0.276127 71
0.056596 9.462121 -0.328777 91
-0.245058 9.528043 0.566257 81
-0.849249 9.485175 -0.129652 78
0.058335 9.486040 -0.183801 100
-0.850935 9.522039 0.016685 46
0.060148 9.520414 0.254294 101
-0.542922 9.487943 -0.293678 37
-0.854753 9.582944 0.460446 48
0.061820 9.531362 0.401157 101
-0.242636 9.622829 -1.059307 27
-0.542202 9.503397 -0.147872 53
-0.238685 9.529741 -0.606430 46
-0.543368 9.552094 0.292315 44
-0.235596 9.470068 -0.456678 101
-0.543932 9.590459 0.441240 29
-0.234768 9.501079 -0.019905 101
-0.838444 9.472121 -0.714997 31
-0.233052 9.496305 0.126009 79
-0.839124 9.497993 -0.569823 71
0.072311 9.435647 -0.037878 101
-0.529399 9.475183 -0.585419 29
-0.835697 9.513970 0.163372 73
0.074521 9.515096 0.107953 75
-0.527576 9.471163 -0.439045 91
-0.837270 9.550315 0.311332 100
0.076416 9.551925 0.549105 57
-0.228520 9.642297 -0.911721 17
-0.528986 9.525323 -0.001665 38
0.078336 9.590223 0.699237 2
-0.228138 9.695061 -0.766635 19
-0.529092 9.556261 0.145339 46
-0.221396 9.476309 -0.311135 101
-0.220165 9.492001 -0.165728 101
-0.219432 9.529568 0.272915 52
-0.824366 9.494908 -0.422783 82
0.083671 9.463744 -0.474463 101
-0.218438 9.556251 0.420687 70
-0.822197 9.488445 -0.276011 67
0.089700 9.469860 -0.329055 100
-0.212241 9.548800 0.567443 96
-0.817849 9.508006 -0.129924 77
0.091370 9.477780 -0.183646 100
-0.816324 9.509010 0.016657 44
0.093301 9.512150 0.254081 101
-0.510014 9.493773 -0.293801 39
-0.821638 9.589849 0.460637 46
0.095051 9.527091 0.400989 101
-0.208872 9.615668 -1.058432 40
-0.508384 9.493250 -0.147686 59
-0.210407 9.761995 -0.621159 46
-0.509596 9.545947 0.292070 43
-0.202538 9.470833 -0.456678 101
-0.509390 9.572349 0.440322 27
-0.201856 9.513838 -0.019930 101
-0.802673 9.443195 -0.712598 23
-0.200070 9.505058 0.126115 81
-0.805627 9.496886 -0.569584 73
0.105515 9.459335 -0.037975 101
-0.495069 9.453052 -0.583941 33
-0.803490 9.528785 0.163577 82
0.107463 9.490781 0.107681 73
-0.494096 9.464966 -0.438675 91
-0.803258 9.545212 0.311072 101
0.109942 9.567573 0.550024 57
-0.194699 9.635073 -0.910968 15
-0.495317 9.519122 -0.001664 42
0.111393 9.553989 0.696619 3
-0.193576 9.659918 -0.763798 5
-0.495109 9.546067 0.145157 41
-0.188236 9.473027 -0.311004 101
-0.187030 9.492711 -0.165728 101
-0.186244 9.534273 0.273030 50
-0.790222 9.485781 -0.422251 80
0.116804 9.471384 -0.474864 101
-0.185234 9.564946 0.421039 72
-0.789402 9.495242 -0.276127 68
0.122262 9.429517 -0.327666 100
-0.178957 9.553475 0.567681 79
-0.783643 9.498847 -0.129761 93
0.124363 9.469406 -0.183491 101
-0.783110 9.511803 0.016657 55
0.126191 9.487777 0.253440 101
-0.476264 9.483516 -0.293430 38
-0.786844 9.576732 0.459873 48
0.128625 9.550678 0.401998 101
-0.175527 9.628264 -1.059745 34
-0.475447 9.498961 -0.147748 66
-0.175767 9.730740 -0.619128 19
-0.476882 9.559647 0.292437 44
-0.169214 9.455503 -0.455907 101
-0.475203 9.558104 0.439588 22
-0.168465 9.502486 -0.019905 101
-0.167073 9.513696 0.126221 79
-0.772838 9.503616 -0.569823 67
0.138171 9.438912 -0.037894 101
-0.461359 9.438767 -0.582956 30
-0.771261 9.543485 0.163782 86
0.140511 9.490349 0.107681 77
-0.461523 9.474611 -0.439045 100
-0.770657 9.555921 0.311332 101
0.143308 9.571125 0.550253 34
-0.161356 9.647637 -0.912098 14
-0.462370 9.524784 -0.001664 40
-0.159890 9.656546 -0.763483 12
-0.461498 9.539742 0.145035 41
-0.155080 9.461633 -0.310610 101
-0.461207 9.566889 0.587493 15
-0.154271 9.509300 -0.166007 101
-0.152834 9.518872 0.272572 56
-0.755326 9.464571 -0.421187 85
0.149538 9.458938 -0.474263 101
-0.151602 9.541558 0.419983 75
-0.757025 9.505900 -0.276359 80
0.155506 9.449018 -0.328360 100
-0.145365 9.538073 0.566732 78
-0.750481 9.501524 -0.129761 100
0.157683 9.484909 -0.183801 100
-0.751789 9.538404 0.016699 53
0.159712 9.511267 0.254081 101
-0.443530 9.493108 -0.293678 36
-0.753723 9.583404 0.460064 58
0.161420 9.518204 0.400653 101
-0.141800 9.620868 -1.058869 48
-0.442287 9.500563 -0.147748 57
-0.141974 9.743268 -0.619890 21
-0.442769 9.545278 0.291948 51
-0.136207 9.456037 -0.455907 101
-0.442389 9.571679 0.440139 28
-0.135237 9.499017 -0.019897 101
-0.133750 9.506223 0.126115 81
-0.740898 9.522180 -0.570777 81
0.171118 9.438373 -0.037894 101
-0.429314 9.460262 -0.584187 32
-0.737018 9.534157 0.163577 100
0.173564 9.485802 0.107636 85
-0.428086 9.468181 -0.438675 100
-0.738219 9.570511 0.311721 101
-0.127995 9.672033 -0.914356 14
-0.429300 9.530335 -0.001665 43
-0.126390 9.672994 -0.764744 13
-0.428912 9.557278 0.145278 45
-0.122155 9.470112 -0.310873 101
-0.427810 9.568440 0.587493 23
-0.120924 9.497784 -0.165798 101
-0.119506 9.511352 0.272343 59
-0.723804 9.487072 -0.422074 80
0.182709 9.466347 -0.474664 101
-0.118444 9.554017 0.420511 72
-0.431010 9.749618 -1.055012 0
-0.723232 9.500511 -0.276127 94
0.188647 9.456410 -0.328638 100
-0.112211 9.550500 0.567443 77
-0.423094 9.713202 -0.900210 8
-0.717611 9.508075 -0.129815 100
0.190469 9.468307 -0.183491 100
-0.422711 9.741879 -0.752014 6
-0.717888 9.532993 0.016685 49
0.193074 9.518646 0.254294 101
-0.409873 9.482615 -0.293307 39
-0.719368 9.574023 0.459490 48
-0.108216 9.621304 -1.058869 36
-0.408777 9.494058 -0.147624 61
-0.107786 9.727737 -0.618874 11
-0.409789 9.554754 0.292192 54
-0.103242 9.460449 -0.456100 101
-0.408805 9.569173 0.439955 24
-0.102079 9.499431 -0.019897 101
-1.022070 9.595977 0.183609 22
-0.100355 9.486634 0.125850 91
-0.706176 9.504799 -0.569584 73
-1.018778 9.580286 0.331387 29
0.204322 9.449716 -0.037943 101
-0.396121 9.457714 -0.583941 29
-0.704322 9.544648 0.163714 100
0.206588 9.481139 0.107590 68
-0.395367 9.477602 -0.439045 99
-0.703339 9.553094 0.311072 101
-0.094388 9.688350 -0.915862 14
-0.396196 9.535772 -0.001666 44
-0.092853 9.697300 -0.766635 11
-0.395383 9.554720 0.145218 43
-0.089022 9.462485 -0.310610 101
-0.394407 9.569875 0.587493 40
-0.087696 9.490149 -0.165658 101
-0.086377 9.519707 0.272572 60
-0.395867 9.684019 -1.422910 6
-0.690974 9.493526 -0.422251 100
-1.001211 9.551777 0.478121 24
0.215479 9.453669 -0.474063 101
-0.085129 9.558368 0.420687 75
-0.395519 9.715301 -1.051143 43
-0.689195 9.491014 -0.275779 100
0.221724 9.459692 -0.328777 101
-0.078799 9.538855 0.566732 89
-0.387298 9.666862 -0.895784 15
-0.684729 9.514509 -0.129869 100
0.223408 9.463587 -0.183414 100
-0.387288 9.707429 -0.749246 16
-0.684910 9.539430 0.016692 57
-0.376458 9.475998 -0.293060 39
-0.685950 9.576475 0.459490 56
-0.074781 9.641502 -1.061057 26
-0.375630 9.495426 -0.147624 59
-0.073967 9.748013 -0.620144 22
-0.375792 9.540147 0.291704 46
-0.070225 9.464747 -0.456293 101
-0.375690 9.578527 0.440322 28
-0.068916 9.503729 -0.019905 101
-0.982389 9.539816 0.182468 100
-0.067311 9.502926 0.126062 78
-0.671260 9.483311 -0.568153 84
-0.984471 9.575834 0.331112 36
0.237377 9.448942 -0.037943 101
-0.362882 9.455052 -0.583695 33
-0.670369 9.539075 0.163577 96
0.239863 9.484357 0.107636 26
-0.362049 9.474935 -0.438860 97
-0.670187 9.559484 0.311202 101
-0.060527 9.696585 -0.916615 15
-0.362513 9.529107 -0.001664 43
-0.059144 9.737441 -0.769788 13
-0.361777 9.552050 0.145157 45
-0.055907 9.466737 -0.310741 101
-0.360739 9.567208 0.587249 36
-0.963998 9.486494 -0.111509 6
-0.054450 9.490398 -0.165658 101
-0.968517 9.546934 0.035171 35
-0.052973 9.511954 0.272343 59
-0.360896 9.657663 -1.418843 78
-0.658255 9.503862 -0.422605 100
-0.970955 9.587024 0.479712 23
0.248404 9.444868 -0.473662 101
-0.051560 9.546619 0.420159 75
-0.358358 9.633171 -1.042114 20
-0.656200 9.497360 -0.275895 100
0.254743 9.458860 -0.328777 101
-0.045559 9.551050 0.567443 73
-0.352533 9.640293 -0.893203 14
-0.650421 9.500880 -0.129652 100
0.256766 9.474743 -0.183646 100
-0.351804 9.664881 -0.745863 12
-0.652424 9.553734 0.016713 54
-0.343668 9.485246 -0.293307 39
-0.652518 9.578812 0.459490 51
-0.041210 9.661584 -1.063245 24
-0.342627 9.500677 -0.147686 55
-0.039940 9.748213 -0.620144 22
-0.342201 9.533409 0.291460 50
-0.037171 9.460939 -0.456100 101
-0.341539 9.559814 0.439405 28
-0.035741 9.503912 -0.019905 101
-0.944334 9.495431 0.181555 92
-0.034125 9.499103 0.126009 82
-0.638957 9.497548 -0.568868 94
-0.949854 9.567279 0.330699 29
0.270473 9.452055 -0.037959 101
-0.329736 9.452271 -0.583448 39
-0.635735 9.521404 0.163235 100
-0.328557 9.464161 -0.438305 100
-0.636549 9.557776 0.311072 101
-0.026723 9.712666 -0.918121 11
-0.328834 9.518321 -0.001662 47
-0.025236 9.769488 -0.772309 14
-0.328295 9.549257 0.145096 52
-0.022852 9.462876 -0.310610 101
-0.326932 9.556438 0.586514 39
-0.934392 9.525627 -0.111930 100
-0.021313 9.486531 -0.165588 101
-0.932847 9.526371 0.035083 44
-0.019787 9.520079 0.272572 50
-0.326781 9.646998 -1.417100 46
-0.625601 9.514077 -0.422960 100
-0.937484 9.590355 0.479712 31
0.281609 9.451930 -0.474063 101
-0.018290 9.574714 0.421390 62
-0.324730 9.634364 -1.042114 21
-0.621997 9.483634 -0.275432 100
0.287759 9.457913 -0.328777 101
-0.012194 9.531186 0.566257 78
-0.317695 9.605638 -0.889884 13
-0.616993 9.499102 -0.129597 100
0.289715 9.469791 -0.183569 52
-0.319508 9.709896 -0.749246 15
-0.618037 9.539987 0.016685 52
-0.310556 9.486387 -0.293307 41
-0.618047 9.565083 0.458725 51
-0.007509 9.693478 -1.066745 26
-0.309331 9.497818 -0.147624 59
-0.005895 9.720349 -0.618366 19
-0.309180 9.542538 0.291704 57
-0.914105 9.495517 -0.404824 5
-0.004144 9.457016 -0.455907 101
-0.307909 9.552961 0.439038 27
-0.912612 9.496758 -0.258159 36
-0.002562 9.487979 -0.019872 101
-0.913092 9.518575 0.181935 100
-0.000966 9.487165 0.125850 72
-0.605038 9.487766 -0.568153 100
-0.915309 9.558598 0.330287 34
-0.296740 9.453365 -0.583448 37
-0.602495 9.523565 0.163235 99
-0.295145 9.453269 -0.437750 99
-0.601923 9.539990 0.310423 101
-0.295235 9.507417 -0.001660 50
-0.294589 9.538352 0.144914 41
0.010171 9.454903 -0.310348 101
-0.293449 9.553531 0.586269 46
-0.899253 9.508921 -0.111696 78
0.011791 9.478549 -0.165449 101
-0.898837 9.521605 0.035054 41
0.013422 9.504096 0.272114 59
-0.293224 9.652036 -1.417681 46
-0.591890 9.508226 -0.422605 101
-0.901378 9.565726 0.478320 36
0.314733 9.454883 -0.474263 101
0.015082 9.542750 0.419983 75
-0.290858 9.627488 -1.041255 20
-0.590128 9.505701 -0.276011 90
0.320365 9.444865 -0.328360 30
0.021006 9.499227 0.564359 93
-0.283692 9.590763 -0.888408 13
-0.584322 9.509181 -0.129706 100
-0.284557 9.675075 -0.746478 10
-0.583754 9.526116 0.016657 50
-0.277090 9.475425 -0.292936 42
-0.584411 9.563193 0.458534 50
-0.276059 9.494842 -0.147562 68
0.028035 9.720310 -0.618366 17
-0.275407 9.527573 0.291215 53
-0.880954 9.498650 -0.404824 100
0.028867 9.456973 -0.455907 101
-0.274447 9.549983 0.438854 24
-0.876508 9.468035 -0.257293 33
0.030596 9.499929 -0.019897 101
-0.880229 9.525686 0.182012 101
0.032178 9.495111 0.125956 72
-0.572637 9.501778 -0.568868 100
-0.881938 9.561734 0.330287 35
-0.263517 9.446362 -0.582956 28
-0.569248 9.525610 0.163235 97
-0.262588 9.470218 -0.438490 98
-0.569808 9.561988 0.311072 101
-0.262156 9.512388 -0.001661 39
-0.261402 9.543320 0.144975 41
-0.868081 9.516521 -0.552671 24
0.043175 9.454809 -0.310348 101
-0.260534 9.570461 0.587249 45
-0.863517 9.484119 -0.111368 78
0.044878 9.478450 -0.165449 101
-0.865232 9.520700 0.035039 53
0.046637 9.511988 0.272343 53
-0.259424 9.649045 -1.417100 36
-0.558697 9.510235 -0.422605 101
-0.868343 9.572794 0.478519 36
0.347882 9.457719 -0.474463 24
0.048453 9.554628 0.420511 72
-0.256825 9.612543 -1.039535 24
-0.556242 9.495728 -0.275663 100
0.054278 9.519060 0.565546 87
-0.250005 9.583733 -0.887671 14
-0.550663 9.503177 -0.129597 100
-0.251093 9.687969 -0.747400 9
-0.550498 9.528096 0.016657 55
-0.244425 9.492321 -0.293430 38
-0.551486 9.573153 0.458916 56
-0.243017 9.499745 -0.147624 65
0.061711 9.680235 -0.615826 15
-0.242655 9.548460 0.291826 56
-0.845661 9.477783 -0.403806 101
0.061878 9.456815 -0.455907 101
-0.240908 9.542894 0.438487 26
-0.842743 9.463071 -0.257077 36
0.063676 9.487765 -0.019872 101
-0.847327 9.532684 0.182088 101
0.065349 9.498940 0.126009 80
-0.539692 9.507705 -0.569107 100
-0.849615 9.576700 0.330699 33
-0.230054 9.427268 -0.581724 29
-0.536668 9.539518 0.163440 100
-0.229626 9.475072 -0.438675 100
-0.536875 9.571901 0.311332 101
-0.228950 9.513246 -0.001661 46
-0.832474 9.474009 -0.696740 82
-0.228279 9.552171 0.145096 43
-0.831717 9.483691 -0.550592 33
0.076243 9.462597 -0.310610 101
-0.227504 9.587277 0.588228 44
-0.830754 9.491060 -0.111415 68
0.077963 9.478235 -0.165449 101
-0.833038 9.535618 0.035083 50
0.079940 9.523762 0.272687 60
-0.227500 9.725065 -1.428139 46
-0.525276 9.508137 -0.422428 101
-0.835616 9.583726 0.478916 40
0.081668 9.538417 0.419808 70
-0.223177 9.609406 -1.039105 36
-0.522652 9.489628 -0.275432 100
0.087579 9.526798 0.566020 82
-0.216370 9.576583 -0.886933 16
-0.517487 9.505041 -0.129597 100
-0.217364 9.692774 -0.747708 11
-0.516802 9.521971 0.016643 49
-0.211111 9.485122 -0.293183 33
-0.517634 9.567040 0.458534 56
-0.209590 9.488541 -0.147437 67
0.095186 9.648026 -0.613795 3
-0.208886 9.529263 0.291215 41
-0.810524 9.456786 -0.402788 101
0.094808 9.448551 -0.455522 101
-0.207682 9.547671 0.438671 25
-0.807661 9.442051 -0.256427 36
0.096835 9.491486 -0.019880 101
-0.816087 9.559492 0.182544 101
0.098506 9.498653 0.126009 74
-0.505014 9.481620 -0.567437 100
-0.814484 9.559691 0.330012 36
-0.198064 9.471920 -0.584433 23
-0.503155 9.537340 0.163372 100
-0.196550 9.475816 -0.438675 100
-0.502829 9.561740 0.310942 101
-0.196070 9.529984 -0.001664 44
-0.798728 9.468906 -0.696155 101
-0.194526 9.532916 0.144793 43
-0.797268 9.470619 -0.549668 57
0.109134 9.450280 -0.310216 101
-0.193552 9.564063 0.586759 55
-0.798289 9.501873 -0.111509 100
0.111095 9.481905 -0.165519 101
-0.798745 9.526509 0.035039 54
0.112804 9.491440 0.271771 59
-0.193316 9.713929 -1.426396 10
-0.491877 9.505921 -0.422251 101
-0.801825 9.582603 0.478717 38
0.115155 9.554057 0.420511 72
-0.189476 9.602174 -1.038245 32
-0.489112 9.483408 -0.275200 100
0.120833 9.526435 0.566020 80
-0.183092 9.585244 -0.887671 15
-0.484305 9.506790 -0.129597 101
-0.183377 9.685498 -0.747093 9
-0.483967 9.531707 0.016657 48
-0.177775 9.473809 -0.292813 43
-0.483832 9.560808 0.458152 59
-0.176616 9.497211 -0.147562 68
-0.175547 9.525937 0.291093 48
-0.775545 9.435660 -0.401771 101
0.128005 9.464142 -0.456293 101
-0.174426 9.552334 0.438854 27
-0.778947 9.496620 -0.257834 37
0.130240 9.511087 -0.019922 101
-0.782061 9.554311 0.182392 101
0.131551 9.490253 0.125903 84
-0.472906 9.503265 -0.568630 101
-0.782412 9.578414 0.330562 31
-0.164791 9.460579 -0.583695 15
-0.468483 9.511076 0.162893 100
-0.163335 9.468453 -0.438305 100
-0.469450 9.563437 0.310942 101
-0.162530 9.514612 -0.001661 48
-0.764706 9.459707 -0.695278 101
-0.161452 9.545534 0.144975 43
-0.762599 9.453443 -0.548514 54
0.142182 9.453839 -0.310348 101
-0.160434 9.580648 0.587738 51
-0.765437 9.508589 -0.111555 100
0.144314 9.489457 -0.165658 101
-0.765166 9.525252 0.035024 54
0.146180 9.506980 0.272229 52
-0.158822 9.678931 -1.421167 51
-0.458307 9.499598 -0.421896 101
-0.767093 9.569415 0.477922 41
0.148318 9.541610 0.419983 73
-0.156215 9.618682 -1.039965 27
-0.456390 9.493046 -0.275432 100
-0.150130 9.617684 -0.890621 13
-0.451117 9.508423 -0.129597 101
-0.148890 9.642215 -0.743710 11
-0.450314 9.525347 0.016643 54
-0.144643 9.470374 -0.292689 43
-0.450831 9.570421 0.458534 56
-0.143464 9.497770 -0.147562 56
-0.142414 9.534487 0.291337 49
-0.744798 9.466199 -0.402958 101
0.160904 9.455648 -0.455907 101
-0.140845 9.536903 0.438120 25
-0.745480 9.495295 -0.257726 41
0.162958 9.482579 -0.019863 101
-0.748081 9.549008 0.182240 101
0.164747 9.493735 0.125956 79
-0.439177 9.492892 -0.567914 100
-0.747414 9.561159 0.329874 35
-0.133156 9.560897 -0.589852 6
-0.435646 9.520644 0.163030 100
-0.130338 9.472961 -0.438490 100
-0.435700 9.557030 0.310682 101
-0.129262 9.511122 -0.001660 48
-0.733218 9.482206 -0.696740 81
-0.128131 9.546040 0.144975 51
-0.730517 9.467992 -0.549206 49
-1.044674 9.572818 0.349737 5
0.174959 9.441294 -0.309954 101
-0.127096 9.589134 0.588228 43
-0.733163 9.523167 -0.111696 101
0.177213 9.476899 -0.165449 101
-0.734363 9.559771 0.035142 50
0.179214 9.498416 0.272000 52
-0.124626 9.647769 -1.416519 76
-0.424965 9.497148 -0.421719 101
-0.734907 9.587968 0.478717 35
-0.123044 9.650981 -1.043404 26
-0.423962 9.510558 -0.275895 100
-0.116557 9.618150 -0.890621 14
-0.418099 9.513935 -0.129652 100
-0.115661 9.678567 -0.746478 11
-0.417062 9.526861 0.016643 56
-0.111538 9.466824 -0.292566 40
-0.417248 9.567945 0.458343 52
-0.110124 9.482217 -0.147313 67
-0.109086 9.530928 0.291215 52
-0.712349 9.476711 -0.403297 101
0.193664 9.443046 -0.455330 101
-0.107600 9.541332 0.438303 26
-0.417240 9.680003 -1.301394 16
-0.712031 9.493852 -0.257618 39
0.196057 9.481953 -0.019863 101
-0.417650 9.727554 -0.732092 10
-0.713849 9.539598 0.182012 101
0.198052 9.501100 0.126062 76
-0.406209 9.498356 -0.568153 97
-0.714928 9.575670 0.330287 29
-0.101865 9.760913 -0.602166 4
-0.401904 9.510118 0.162824 100
-0.096942 9.441395 -0.437011 97
-0.401665 9.542516 0.310163 101
-0.096021 9.507515 -0.001659 46
-0.700115 9.484708 -0.696740 40
-1.009944 9.548632 0.201131 18
-0.094490 9.514434 0.144489 45
-0.696877 9.462519 -0.548744 60
-1.007895 9.544603 0.348576 43
0.208002 9.444622 -0.310085 101
-0.093467 9.573550 0.587249 50
-0.404260 9.720923 -1.032896 22
-0.699623 9.521679 -0.111649 101
0.210204 9.472224 -0.165379 101
-0.403893 9.751616 -0.884792 4
-0.698942 9.534351 0.035039 51
-0.090986 9.652102 -1.417100 64
-0.392141 9.506558 -0.422074 101
-0.699103 9.558599 0.477126 44
-0.089134 9.627492 -1.040825 24
-0.389941 9.492005 -0.275316 100
-0.084801 9.642381 -0.892834 13
-0.385017 9.479305 -0.129162 101
-0.083727 9.702826 -0.748323 10
-0.385909 9.540183 0.016664 54
-0.080263 9.483133 -0.293060 39
-0.385661 9.573269 0.458534 56
-0.078722 9.486528 -0.147375 62
-0.384230 9.577133 0.606386 5
-0.990466 9.528511 0.053505 4
-0.077419 9.519243 0.290849 50
-0.681242 9.483005 -0.403467 101
0.225199 9.454335 -0.455907 101
-0.076086 9.549627 0.438671 26
-0.384099 9.653602 -1.297667 19
-0.680894 9.500144 -0.257726 41
0.227698 9.493249 -0.019888 101
-0.383903 9.689026 -0.729093 13
-0.682300 9.541905 0.182012 101
0.229248 9.492396 0.125956 33
-0.373723 9.471718 -0.566482 100
-0.683003 9.573992 0.330149 30
-0.069641 9.753211 -0.601673 5
-0.370406 9.507396 0.162756 100
-0.065910 9.449654 -0.437381 90
-0.370552 9.551776 0.310423 101
-0.064633 9.491779 -0.001657 51
-0.667225 9.463083 -0.694986 13
-0.974042 9.508142 0.200210 53
-0.063295 9.526691 0.144671 46
-0.666890 9.480692 -0.549668 68
-0.978956 9.571725 0.349447 40
0.239019 9.443888 -0.310085 101
-0.061947 9.561829 0.586514 51
-0.370201 9.666553 -1.026984 20
-0.666108 9.492005 -0.111275 101
0.241591 9.483479 -0.165588 101
-0.370981 9.729004 -0.882626 4
-0.668210 9.544574 0.035068 49
-0.059315 9.648392 -1.416519 62
-0.360971 9.507793 -0.422074 101
-0.668038 9.564825 0.477325 37
-0.057929 9.683407 -1.046844 21
-0.358996 9.497227 -0.275432 100
-0.051332 9.678465 -0.896153 12
-0.353112 9.512567 -0.129597 100
-0.049898 9.711035 -0.748938 10
-0.351423 9.509494 0.016609 52
-0.047140 9.479358 -0.292936 40
-0.351948 9.566571 0.458152 60
-0.955543 9.499607 -0.093319 10
-0.045646 9.494744 -0.147500 66
-0.351089 9.586394 0.606891 26
-0.959197 9.551809 0.053616 42
-0.044338 9.551440 0.291826 46
-0.648136 9.485325 -0.403467 101
0.258091 9.449498 -0.455715 101
-0.042715 9.541843 0.438303 25
-0.349393 9.627151 -1.293939 21
-0.646912 9.490496 -0.257401 41
0.260834 9.492396 -0.019888 101
-0.349072 9.662404 -0.726994 17
-0.645733 9.496348 0.181098 101
-0.341376 9.492916 -0.567675 100
-0.648768 9.564352 0.329737 33
-0.035522 9.733433 -0.600442 3
-0.337783 9.524618 0.163030 101
-0.032924 9.449826 -0.437381 95
-0.336644 9.537029 0.309903 101
-0.031540 9.503947 -0.001659 46
-0.942421 9.527403 0.200545 55
-0.030040 9.526855 0.144671 47
-0.634857 9.498900 -0.550592 52
-0.943967 9.559172 0.348866 38
0.271868 9.439000 -0.309954 101
-0.028593 9.569971 0.587004 50
-0.336456 9.667786 -1.026984 18
-0.634035 9.510237 -0.111462 101
0.274693 9.482577 -0.165588 101
-0.335639 9.690427 -0.879014 5
-0.633828 9.530884 0.035010 51
-0.025899 9.747478 -1.431044 23
-0.327092 9.489027 -0.421187 101
-0.634911 9.571085 0.477524 40
-0.024147 9.691504 -1.047703 23
-0.325568 9.490431 -0.275200 100
-0.317844 9.501804 -0.129434 101
-0.014382 9.762999 -0.752937 10
-0.316434 9.506721 0.016602 52
-0.012391 9.475469 -0.292813 40
-0.317015 9.571790 0.458343 62
-0.921490 9.511008 -0.093397 52
-0.010827 9.478850 -0.147251 76
-0.315294 9.567668 0.605628 32
-0.923027 9.543317 0.053549 55
-0.009279 9.499562 0.290238 53
-0.611819 9.463708 -0.402449 101
-0.926375 9.594504 0.498417 4
0.292723 9.448488 -0.455715 101
-0.007742 9.541936 0.438303 28
-0.313976 9.624405 -1.293407 23
-0.612123 9.492803 -0.257401 40
-0.313655 9.663618 -0.726994 14
-0.614260 9.550534 0.182088 101
-0.306452 9.490113 -0.567437 100
-0.613708 9.566666 0.329737 35
0.000152 9.681596 -0.597240 5
-0.302872 9.525792 0.163030 100
-0.904399 9.465090 -0.385213 7
0.001711 9.445888 -0.437196 100
-0.301940 9.546191 0.310163 101
-0.906326 9.501858 -0.239942 50
0.003296 9.511999 -0.001660 37
-0.908253 9.538755 0.200712 63
0.004869 9.510902 0.144428 45
-0.599534 9.493193 -0.550130 53
-0.908546 9.558588 0.348721 44
0.306721 9.445931 -0.310216 101
0.006477 9.562027 0.586514 47
-0.300277 9.645100 -1.024450 16
-0.598922 9.508505 -0.111415 101
-0.299010 9.655756 -0.875764 5
-0.598891 9.533143 0.035010 51
-0.292679 9.502145 -0.421719 101
-0.599827 9.573348 0.477524 33
-0.290904 9.495557 -0.275316 100
-0.285921 9.486813 -0.129216 101
-0.285309 9.519711 0.016623 57
-0.887979 9.475621 -0.532091 12
0.018990 9.463464 -0.292442 41
-0.284693 9.552820 0.457387 59
-0.888472 9.498080 -0.093241 48
0.020598 9.470835 -0.147127 63
-0.283199 9.556690 0.604871 70
-0.889505 9.526413 0.053438 40
0.022306 9.519532 0.290849 48
-0.582109 9.493609 -0.403636 101
-0.892663 9.577640 0.497385 13
0.324117 9.447464 -0.455715 101
0.024024 9.565884 0.439405 23
-0.281762 9.617470 -1.292342 23
-0.581310 9.506758 -0.257726 42
-0.281167 9.652647 -0.726094 13
-0.580548 9.520590 0.181479 101
-0.274863 9.491080 -0.567437 100
-0.581621 9.564666 0.329599 32
0.032350 9.649603 -0.595270 5
-0.270743 9.514756 0.162824 101
-0.872444 9.464075 -0.385051 48
0.033299 9.457816 -0.437750 90
-0.269944 9.543150 0.310033 101
-0.874222 9.500850 -0.239842 44
0.035089 9.511935 -0.001660 49
-0.878195 9.561649 0.201131 59
0.036809 9.542829 0.144914 41
-0.567774 9.495145 -0.550130 57
-0.877296 9.569535 0.349012 50
0.339203 9.468823 -0.311004 11
0.038459 9.553967 0.586024 49
-0.267873 9.642075 -1.024028 24
-0.568037 9.526427 -0.111602 101
-0.266324 9.644757 -0.874681 5
-0.566469 9.527110 0.034981 52
-0.260702 9.499078 -0.421542 101
-0.567482 9.571318 0.477325 44
-0.258705 9.484488 -0.274968 100
-0.253337 9.507744 -0.129488 101
-0.251972 9.516650 0.016616 47
-0.853104 9.458775 -0.530974 35
0.052024 9.463340 -0.292442 40
-0.251661 9.565738 0.457960 60
-0.855312 9.501123 -0.093241 50
0.053748 9.486703 -0.147375 63
-0.249526 9.545649 0.604113 65
-0.856247 9.529460 0.053438 40
0.055605 9.531390 0.291215 53
-0.548044 9.479625 -0.402958 101
-0.858512 9.572740 0.496972 23
0.057295 9.545763 0.438487 22
-0.247678 9.598579 -1.289680 22
-0.547661 9.500745 -0.257509 36
-0.247778 9.665532 -0.726994 12
-0.548000 9.534536 0.181707 101
-0.241630 9.487990 -0.567198 100
-0.547544 9.554665 0.329187 32
0.065870 9.625477 -0.593792 4
-0.237429 9.511645 0.162756 100
-0.838697 9.459101 -0.384727 52
