# This PCD file was generated using the MATLAB® pcwrite function
# from Computer Vision Toolbox®.
# .PCD v.7 - Point Cloud Data file format
VERSION .7
FIELDS x y z intensity
SIZE 4 4 4 1
TYPE F F F U
COUNT 1 1 1 1
WIDTH 1478
HEIGHT 1
VIEWPOINT 0 0 0 1 0 0 0
POINTS 1478
DATA ascii
-0.079042 6.108910 -1.269871 72
-0.259930 5.842691 -0.203211 101
-0.626446 5.781285 -0.538429 101
-0.074349 5.821856 -0.663371 101
-0.258878 5.841169 -0.113287 101
-0.625860 5.784965 -0.448748 101
-0.073526 5.834270 -0.393680 101
-0.256970 5.820252 0.155610 101
-0.072611 5.839641 -0.304022 101
-0.256031 5.821214 0.245236 101
-0.442929 5.843858 -0.644948 75
-0.072215 5.887454 -0.034940 101
-0.444319 5.875313 -0.374829 101
-0.071029 5.871310 0.055341 101
-0.441006 5.844579 -0.282559 101
-0.069603 5.834586 0.324184 101
-0.254395 5.851285 -0.564979 101
-0.440833 5.855416 -0.012298 101
-0.069071 5.872818 0.416877 101
-0.253584 5.855323 -0.474638 78
-0.436814 5.815104 0.077356 101
-0.065955 5.859327 -0.576614 101
-0.248711 5.810633 -0.023347 101
-0.622840 5.839715 -0.362285 101
-0.064794 5.843585 -0.484567 101
-0.248571 5.830328 0.066206 101
-0.618989 5.812878 -0.270566 101
-0.064075 5.867706 -0.215172 101
-0.247706 5.833105 0.335615 101
-0.436828 5.881509 -0.557498 101
-0.063030 5.862332 -0.124853 101
-0.246647 5.831294 0.425534 101
-0.434062 5.857615 -0.464331 101
-0.062377 5.893859 0.146110 101
-0.255232 6.058407 -1.107005 67
-0.432426 5.848878 -0.192507 100
-0.060980 5.854961 0.235172 101
-0.245477 5.850247 -0.655753 101
-0.431903 5.855198 -0.102481 101
-0.244494 5.850329 -0.383786 101
-0.430220 5.845788 0.167825 101
-0.243726 5.855570 -0.293811 101
-0.428997 5.842601 0.257829 2
-0.613142 5.813696 -0.631975 80
-0.058014 6.140478 -1.276384 81
-0.239370 5.839569 -0.203072 101
-0.609999 5.819088 -0.541748 101
-0.053952 5.814132 -0.662465 101
-0.239139 5.858020 -0.113597 101
-0.609399 5.822813 -0.451516 101
-0.053123 5.830501 -0.393411 101
-0.236814 5.825109 0.155717 101
-0.610350 5.841396 -0.181494 23
-0.052333 5.851842 -0.304646 101
-0.235872 5.826066 0.245404 101
-0.421954 5.837437 -0.644073 75
-0.051523 5.871671 -0.034845 101
-0.423233 5.868865 -0.374321 101
-0.050568 5.875522 0.055379 101
-0.420889 5.850068 -0.282751 101
-0.049135 5.822813 0.323518 101
-0.233810 5.848159 -0.564595 101
-0.421537 5.872878 -0.012332 101
-0.048670 5.884993 0.417726 101
-0.233143 5.856173 -0.474638 78
-0.416799 5.820583 0.077409 101
-0.045532 5.863502 -0.577005 101
-0.228583 5.815463 -0.023363 101
-0.600404 5.821997 -0.361053 101
-0.044457 5.851748 -0.485228 101
-0.229313 5.859137 0.066524 101
-0.602786 5.854751 -0.272415 101
-0.043741 5.887880 -0.215905 101
-0.227343 5.833934 0.335615 101
-0.414608 5.859165 -0.555239 101
-0.042566 5.862516 -0.124853 101
-0.227528 5.864011 0.427861 101
-0.414455 5.871027 -0.465277 101
-0.041803 5.894041 0.146110 101
-0.234234 6.063193 -1.107724 69
-0.413692 5.874279 -0.193295 100
-0.040708 5.879119 0.236135 101
-0.225054 5.851068 -0.655753 101
-0.410901 5.848691 -0.102341 101
-0.223766 5.843170 -0.383262 101
-0.408414 5.827312 0.167252 101
-0.223590 5.864369 -0.294211 101
-0.411666 5.887913 0.259764 72
-0.595667 5.843495 -0.634985 100
-0.218835 5.836374 -0.202933 101
-0.588077 5.805331 -0.540273 101
-0.033680 5.818259 -0.662918 101
-0.218690 5.858819 -0.113597 101
-0.589070 5.824904 -0.451516 101
-0.032748 5.826660 -0.393142 101
-0.216628 5.829896 0.155823 101
-0.592768 5.871336 -0.182359 101
-0.031972 5.863972 -0.305270 101
-0.215977 5.838834 0.245909 101
-0.402939 5.858707 -0.646260 75
-0.031069 5.879815 -0.034892 101
-0.402471 5.866324 -0.374067 101
-0.030140 5.891661 0.055530 101
-0.400466 5.851501 -0.282751 101
-0.028888 5.838924 0.324406 101
-0.213249 5.844961 -0.564210 101
-0.400217 5.862342 -0.012307 101
-0.028108 5.881136 0.417443 101
-0.212845 5.860936 -0.474961 78
-0.398109 5.845944 0.077728 101
-0.025031 5.855664 -0.576222 101
-0.208139 5.812228 -0.023347 101
-0.577308 5.796248 -0.359329 101
-0.024046 5.855855 -0.485559 101
-0.208432 5.847910 0.066387 101
-0.579578 5.828986 -0.271120 101
-0.023156 5.880002 -0.215612 101
-0.208110 5.866619 0.337452 101
-0.395490 5.880443 -0.557121 101
-0.022117 5.866628 -0.124938 101
-0.207761 5.884704 0.429315 101
-0.394493 5.880395 -0.465907 101
-0.021215 5.890152 0.146010 101
-0.213069 6.063973 -1.107724 79
-0.391316 5.847765 -0.192376 100
-0.763928 5.825107 -0.623707 0
-0.020145 5.867235 0.235654 101
-0.204767 5.855791 -0.656198 101
-0.392081 5.874032 -0.102760 101
-0.203507 5.847905 -0.383524 101
-0.389930 5.856628 0.168054 101
-0.203256 5.869106 -0.294412 101
-0.390316 5.877352 0.259236 101
-0.576435 5.857412 -0.636275 101
-0.198868 5.849089 -0.203350 101
-0.383157 5.825119 0.346824 7
-0.569747 5.827169 -0.542117 101
-0.013361 5.814367 -0.662465 101
-0.197696 5.843559 -0.113287 101
-0.570671 5.846772 -0.453054 101
-0.012452 5.846694 -0.394488 101
-0.196277 5.830616 0.155823 101
-0.401401 6.133998 -1.000461 15
-0.569555 5.845515 -0.181494 101
-0.011510 5.868043 -0.305478 101
-0.195995 5.851535 0.246413 101
-0.382486 5.860078 -0.646260 75
-0.566839 5.827792 -0.090960 7
-0.010544 5.879887 -0.034892 101
-0.381214 5.855742 -0.373305 101
-0.009581 5.895730 0.055568 101
-0.379779 5.848876 -0.282559 101
-0.008506 5.838989 0.324406 101
-0.192845 5.845670 -0.564210 101
-0.380268 5.871686 -0.012323 101
-0.192124 5.853673 -0.474316 78
-0.377185 5.839316 0.077622 101
-0.004600 5.867658 -0.577397 101
-0.188366 5.828910 -0.023411 101
-0.559744 5.826047 -0.361053 101
-0.003586 5.824012 -0.482915 101
-0.187632 5.836609 0.066251 101
-0.557320 5.811086 -0.270196 101
-0.002637 5.892040 -0.216051 101
-0.187631 5.867310 0.337452 101
-0.374961 5.881787 -0.557121 101
-0.001637 5.862670 -0.124853 101
-0.187599 5.897356 0.430188 101
-0.372952 5.865819 -0.464647 101
-0.000654 5.894189 0.146110 101
-0.192024 6.068613 -1.108442 79
-0.371913 5.865055 -0.192901 100
-0.745604 5.843521 -0.625396 1
0.000335 5.863273 0.235493 101
-0.184201 5.852497 -0.655753 101
-0.370060 5.851417 -0.102341 101
-0.746754 5.860388 -0.535570 101
-0.183592 5.864537 -0.384570 101
-0.369735 5.861944 0.168168 101
-0.182519 5.861794 -0.294011 101
-0.369296 5.870702 0.258884 101
-0.555234 5.851470 -0.635415 101
-0.178450 5.849747 -0.203350 101
-0.365054 5.862288 0.348959 101
-0.550524 5.841018 -0.543224 101
0.006944 5.822327 -0.663371 101
-0.177661 5.856206 -0.113520 101
-0.364187 5.864271 0.439724 0
-0.551005 5.856669 -0.453669 101
0.007946 5.838719 -0.393949 101
-0.175681 5.823273 0.155610 101
-0.379011 6.119600 -0.997891 11
-0.546530 5.819603 -0.180630 101
0.008973 5.868047 -0.305478 101
-0.175329 5.844194 0.246077 101
-0.361783 5.857409 -0.645823 75
-0.549852 5.865573 -0.091519 101
0.010001 5.891888 -0.034964 101
-0.361262 5.865006 -0.373813 101
0.010969 5.879729 0.055417 101
-0.360340 5.866117 -0.283329 101
0.011859 5.830996 0.323962 101
-0.172439 5.846307 -0.564210 101
-0.358791 5.857008 -0.012290 101
-0.171806 5.858294 -0.474638 78
-0.357775 5.856566 0.077834 101
0.015882 5.867638 -0.577397 101
-0.167672 5.817537 -0.023363 101
-0.541612 5.851818 -0.362531 101
0.016801 5.843921 -0.484567 101
-0.167028 5.829232 0.066161 101
-0.535195 5.793102 -0.269271 101
0.017918 5.888016 -0.215905 101
-0.167717 5.887887 0.338600 101
-0.353709 5.871135 -0.555992 101
-0.545444 5.914904 -0.001037 5
0.018840 5.866640 -0.124938 101
-0.166899 5.893987 0.429897 101
-0.351757 5.855144 -0.463701 101
0.019920 5.894156 0.146110 101
-0.170397 6.053513 -1.105569 62
-0.350481 5.850355 -0.192376 100
-0.726671 5.857930 -0.626663 31
0.020816 5.867233 0.235654 101
-0.163770 5.853105 -0.655753 101
-0.350348 5.864650 -0.102550 101
-0.725803 5.859005 -0.535209 101
-0.162787 5.853173 -0.383786 101
-0.348320 5.847234 0.167710 101
-0.161725 5.850415 -0.293410 101
-0.348565 5.867966 0.258708 101
-0.534081 5.845452 -0.634555 101
-0.157906 5.846339 -0.203211 101
-0.341060 5.803736 0.345400 101
-0.528677 5.827039 -0.541748 101
0.027315 5.830215 -0.664276 101
-0.157208 5.856791 -0.113520 101
-0.343706 5.865507 0.439724 29
-0.529829 5.850614 -0.453054 101
0.028311 5.834665 -0.393680 101
-0.155563 5.831845 0.155823 101
-0.356492 6.101180 -0.994678 11
-0.525489 5.813512 -0.180383 101
0.029534 5.883958 -0.306310 101
-0.154718 5.836781 0.245740 101
-0.340874 5.850698 -0.644948 75
-0.527220 5.843557 -0.091147 101
0.030518 5.883817 -0.034916 101
-0.341490 5.878187 -0.374575 101
0.031522 5.887654 0.055492 101
-0.339182 5.855373 -0.282751 101
0.032215 5.834912 0.324184 101
-0.152257 5.854833 -0.564979 101
-0.339287 5.874197 -0.012323 101
-0.708395 5.812462 -0.440275 20
-0.151382 5.858857 -0.474638 78
-0.337126 5.853785 0.077781 101
0.036320 5.867547 -0.577397 101
-0.147306 5.814087 -0.023347 101
-0.521225 5.853669 -0.362531 101
0.037151 5.843827 -0.484567 101
-0.147030 5.841774 0.066297 101
-0.518556 5.834731 -0.271120 101
0.038390 5.883920 -0.215758 101
-0.146920 5.876460 0.337911 101
-0.332591 5.860403 -0.554863 101
-0.521669 5.880908 -0.001030 101
0.039177 5.854541 -0.124682 101
-0.146485 5.898520 0.430188 101
-0.333180 5.888182 -0.466223 101
0.040482 5.902048 0.146308 101
-0.149723 6.069804 -1.108442 78
-0.330575 5.859522 -0.192639 100
-0.702478 5.828830 -0.623285 41
0.041364 5.887108 0.236457 101
-0.143411 5.853639 -0.655753 101
-0.329049 5.849861 -0.102271 101
-0.702088 5.833808 -0.532681 101
-0.142336 5.849713 -0.383524 101
-0.327538 5.840425 0.167481 101
-0.141580 5.858930 -0.293811 101
-0.327495 5.857173 0.258181 101
-0.515499 5.867082 -0.636704 101
-0.137592 5.850851 -0.203350 101
-0.321019 5.808878 0.345638 101
-0.508679 5.832817 -0.542117 101
0.047601 5.822136 -0.663371 101
-0.136670 5.853306 -0.113442 101
-0.322351 5.850740 0.438530 100
-0.509750 5.856401 -0.453361 101
0.048678 5.834531 -0.393680 101
-0.135483 5.844345 0.156144 101
-0.334759 6.094502 -0.993393 11
-0.508653 5.855142 -0.181618 101
0.049869 5.859853 -0.305062 101
-0.134619 5.849271 0.246245 101
-0.320450 5.851852 -0.644948 75
-0.504055 5.813485 -0.090649 101
0.050917 5.867676 -0.034821 101
-0.320316 5.867385 -0.373813 101
0.052074 5.887508 0.055492 101
-0.319609 5.872479 -0.283522 101
0.052511 5.826777 0.323740 101
-0.131909 5.859310 -0.565363 101
-0.317696 5.855375 -0.012282 101
-0.690914 5.838666 -0.442075 101
-0.130929 5.859349 -0.474638 78
-0.316474 5.850932 0.077728 101
0.056725 5.859424 -0.576614 101
-0.127185 5.822564 -0.023379 101
-0.500449 5.851475 -0.362285 101
0.057549 5.843661 -0.484567 101
-0.126465 5.834254 0.066206 101
-0.497506 5.828543 -0.270751 101
0.058968 5.887748 -0.215905 101
-0.126492 5.880929 0.338141 101
-0.313615 5.889365 -0.557498 113
-0.498082 5.846823 -0.001024 101
0.059816 5.874363 -0.125108 101
-0.125724 5.891018 0.429606 101
-0.311356 5.865417 -0.464331 101
-0.499418 5.874128 0.089524 8
0.060835 5.877880 0.145713 101
-0.128951 6.089960 -1.112034 42
-0.309486 5.848663 -0.192245 100
-0.680741 5.819394 -0.622018 56
0.061955 5.890924 0.236617 101
-0.122977 5.854104 -0.655753 101
-0.309259 5.862955 -0.102481 101
-0.680333 5.824354 -0.531598 101
-0.121833 5.846184 -0.383262 101
-0.306520 5.829555 0.167138 101
-0.121376 5.871370 -0.294412 101
-0.306629 5.850299 0.257829 101
-0.493678 5.852994 -0.634985 101
-0.117088 5.847299 -0.203211 101
-0.301566 5.825914 0.346586 101
-0.487652 5.826619 -0.541380 101
0.067877 5.817961 -0.662918 101
-0.116158 5.849749 -0.113365 101
-0.299666 5.808011 0.435246 100
-0.489636 5.862119 -0.453669 101
0.069280 5.854279 -0.395026 101
-0.115003 5.840785 0.156037 101
-0.313281 6.091691 -0.992750 15
-0.488876 5.864851 -0.181865 101
0.070324 5.859643 -0.305062 101
-0.114044 5.841714 0.245909 101
-0.299207 5.837052 -0.643198 75
-0.483759 5.815209 -0.090649 101
0.071496 5.875462 -0.034869 101
-0.300444 5.880427 -0.374575 101
0.072526 5.879292 0.055417 101
-0.298093 5.853608 -0.282559 101
0.072800 5.822565 0.323518 101
-0.111455 5.859735 -0.565363 101
-0.298472 5.880417 -0.012332 101
-0.665070 5.793490 -0.438476 101
-0.110401 5.855784 -0.474316 78
-0.295846 5.848006 0.077675 101
-0.677522 5.910681 -0.355543 64
0.077387 5.875112 -0.578180 101
-0.106786 5.818974 -0.023363 101
-0.480347 5.857165 -0.362531 101
0.078053 5.851397 -0.485228 101
-0.106244 5.842658 0.066297 101
-0.479113 5.854139 -0.271860 101
0.079520 5.887506 -0.215905 101
-0.105891 5.877342 0.337911 101
-0.292461 5.878492 -0.556368 101
-0.478646 5.860486 -0.001026 101
0.080212 5.866121 -0.124938 101
-0.105160 5.891421 0.429606 101
-0.291472 5.878416 -0.465277 101
-0.479885 5.887795 0.089706 101
0.081740 5.905620 0.146407 101
-0.107692 6.090373 -1.112034 44
-0.290449 5.877659 -0.193164 100
-0.660871 5.825687 -0.622440 55
0.082406 5.882679 0.236296 101
-0.102472 5.850523 -0.655308 101
-0.289185 5.871988 -0.102620 101
-0.660447 5.830651 -0.531959 101
-0.101425 5.846574 -0.383262 101
-0.287541 5.858544 0.167939 101
-0.100811 5.867764 -0.294211 101
-0.286597 5.859316 0.258181 101
-0.473886 5.862609 -0.635845 101
-0.096824 5.855665 -0.203489 101
-0.282013 5.842884 0.347535 101
-0.467644 5.832254 -0.541748 101
0.088296 5.825636 -0.663824 101
-0.095813 5.854117 -0.113442 101
-0.280933 5.840895 0.437634 89
-0.469816 5.871743 -0.454284 101
0.089589 5.846020 -0.394488 101
-0.094618 5.841150 0.156037 101
-0.292775 6.108521 -0.995320 20
-0.466814 5.846594 -0.181247 101
0.091027 5.875338 -0.305894 101
-0.093650 5.842077 0.245909 101
-0.279017 5.842032 -0.643635 75
-0.465361 5.840784 -0.091022 101
0.092013 5.875176 -0.034869 101
-0.280287 5.889416 -0.375083 101
-0.465802 5.858770 0.179566 2
0.093252 5.891000 0.055530 101
-0.277833 5.858604 -0.282751 101
0.092952 5.810295 0.322853 101
-0.090919 5.856107 -0.564979 101
-0.277924 5.881424 -0.012332 101
-0.648352 5.827493 -0.440875 101
-0.089995 5.860121 -0.474638 78
-0.275782 5.856995 0.077781 101
-0.651569 5.865392 -0.352679 101
0.097673 5.858884 -0.576614 101
-0.086431 5.819311 -0.023363 101
-0.460167 5.862790 -0.362777 101
0.098595 5.855073 -0.485559 101
-0.086034 5.858991 0.066478 101
-0.459562 5.867730 -0.272415 101
0.100262 5.895185 -0.216198 101
-0.085493 5.889656 0.338600 101
-0.272068 5.883457 -0.556745 101
-0.460001 5.886053 -0.001030 101
0.100681 5.861806 -0.124853 101
-0.084532 5.891753 0.429606 101
-0.270523 5.871434 -0.464647 101
-0.456781 5.857539 0.089220 101
0.102283 5.897301 0.146209 101
-0.086641 6.110386 -1.115626 44
-0.269497 5.870653 -0.192901 100
-0.642638 5.847735 -0.624551 66
0.102943 5.878358 0.236135 101
-0.082032 5.854820 -0.655753 101
-0.267334 5.844998 -0.102131 101
-0.642190 5.852728 -0.533765 101
-0.081103 5.858866 -0.384047 101
-0.266828 5.855522 0.167825 101
-0.642767 5.867092 -0.261824 5
-0.080243 5.868081 -0.294211 101
-0.265876 5.856293 0.258005 101
-0.453027 5.860270 -0.635415 101
-0.076279 5.847973 -0.203211 101
-0.261080 5.831865 0.346824 101
-0.446978 5.829880 -0.541380 101
0.108557 5.821319 -0.663371 101
-0.075429 5.858415 -0.113520 101
-0.261431 5.861764 0.439127 91
-0.449013 5.869370 -0.453977 101
0.110070 5.849662 -0.394757 101
-0.074075 5.829450 0.155717 101
-0.269698 6.070065 -0.988895 15
-0.445185 5.832242 -0.180753 101
0.111535 5.874985 -0.305894 101
-0.073257 5.842368 0.245909 101
-0.258975 5.850914 -0.644510 75
-0.445578 5.850348 -0.091147 101
0.112367 5.866821 -0.034821 101
-0.258673 5.866430 -0.373559 101
-0.446863 5.880293 0.180177 101
0.113815 5.890639 0.055530 101
-0.257030 5.851555 -0.282366 101
0.113389 5.817921 0.323297 101
-0.070524 5.860370 -0.565363 101
-0.257567 5.886354 -0.012340 101
-0.627151 5.821789 -0.440275 101
-0.069539 5.860400 -0.474638 78
-0.255510 5.861918 0.077834 101
-0.631091 5.867630 -0.352679 100
0.118445 5.874427 -0.578180 101
-0.066162 5.823577 -0.023379 101
-0.439103 5.856398 -0.362285 101
0.118951 5.850708 -0.485228 101
-0.065537 5.855257 0.066433 101
-0.438481 5.861330 -0.272045 101
0.120594 5.882810 -0.215758 101
-0.064714 5.869952 0.337452 101
-0.250509 5.860499 -0.554486 101
-0.437963 5.867678 -0.001027 101
0.121390 5.873414 -0.125108 101
-0.064009 5.896002 0.429897 44
-0.250365 5.880311 -0.465277 101
-0.434550 5.835167 0.088855 101
0.123034 5.904904 0.146407 101
-0.065480 6.126390 -1.118499 39
-0.249172 5.875552 -0.193032 100
-0.624746 5.873675 -0.627085 84
0.123462 5.877964 0.236135 101
-0.061511 5.847121 -0.654863 101
-0.248111 5.873867 -0.102620 101
-0.621336 5.850973 -0.533403 101
-0.060610 5.855123 -0.383786 101
-0.246555 5.860412 0.167939 101
-0.619334 5.841483 -0.260583 77
-0.059678 5.860336 -0.293811 101
-0.245265 5.853193 0.257829 101
-0.431983 5.853883 -0.634555 101
-0.619541 5.852830 -0.170566 1
-0.055903 5.852201 -0.203350 101
-0.240228 5.820773 0.346112 101
-0.427497 5.843322 -0.542486 101
0.128788 5.816931 -0.662918 101
-0.054904 5.850644 -0.113365 101
-0.240477 5.850685 0.438231 101
-0.427941 5.862947 -0.453361 101
0.130488 5.849242 -0.394757 101
-0.053800 5.837670 0.155930 101
-0.248831 6.078859 -0.990180 23
-0.426276 5.853698 -0.181371 101
0.132311 5.886540 -0.306518 101
-0.052899 5.846585 0.246077 101
-0.238064 5.839865 -0.643198 75
-0.425443 5.855857 -0.091209 101
0.133480 5.894385 -0.034987 101
-0.238679 5.879263 -0.374321 101
-0.422866 5.833965 0.178711 101
0.134376 5.890206 0.055530 101
-0.237249 5.868385 -0.283136 101
-0.424519 5.870464 0.270361 19
0.133880 5.825476 0.323740 101
-0.050135 5.868543 -0.566131 101
-0.236535 5.875227 -0.012315 101
-0.606412 5.819975 -0.439975 101
-0.049048 5.856620 -0.474316 78
-0.235367 5.870767 0.077940 101
-0.612671 5.889655 -0.353872 100
0.138949 5.873978 -0.578180 101
-0.045802 5.819773 -0.023363 101
-0.418373 5.853912 -0.362038 101
0.139183 5.842287 -0.484567 101
-0.045036 5.847450 0.066342 101
-0.416029 5.834925 -0.270751 101
0.141320 5.890345 -0.216051 101
-0.044344 5.886116 0.338370 101
-0.231144 5.889193 -0.557121 101
-0.418046 5.877151 -0.001028 101
0.142084 5.880950 -0.125279 101
-0.229993 5.885133 -0.465592 101
-0.414745 5.844627 0.088977 101
0.143451 5.896443 0.146209 101
-0.044123 6.130516 -1.119218 44
-0.227884 5.856411 -0.192376 100
-0.600984 5.844166 -0.623707 91
0.144469 5.897474 0.236938 101
-0.041073 5.843325 -0.654417 101
-0.226522 5.846722 -0.102131 101
-0.600094 5.845181 -0.532681 101
-0.040172 5.855299 -0.383786 101
-0.226405 5.869228 0.168168 101
-0.601384 5.867461 -0.261647 101
-0.039221 5.860508 -0.293811 101
-0.224678 5.850020 0.257653 101
-0.411267 5.851388 -0.634125 101
-0.600735 5.870867 -0.171030 19
-0.035523 5.860356 -0.203628 101
-0.220511 5.837536 0.347061 101
-0.406544 5.836832 -0.541748 101
0.149093 5.816446 -0.662918 101
-0.034599 5.870796 -0.113752 101
-0.219603 5.839530 0.437336 101
-0.407197 5.860426 -0.453054 101
0.150493 5.832793 -0.393680 101
-0.033400 5.833824 0.155823 101
-0.226871 6.059964 -0.986967 20
-0.405564 5.851161 -0.181247 101
-0.782191 5.855991 -0.615744 0
0.152858 5.886043 -0.306518 101
-0.032468 5.842737 0.245909 101
-0.218122 5.852580 -0.644510 75
-0.403896 5.841347 -0.090960 101
0.153427 5.869892 -0.034845 101
-0.218007 5.876071 -0.374067 101
-0.402499 5.835406 0.178711 101
0.155041 5.893699 0.055568 101
-0.216468 5.861193 -0.282751 101
-0.402379 5.847992 0.269259 101
0.154742 5.844935 0.324850 101
-0.029610 5.860719 -0.565363 101
-0.216026 5.876018 -0.012315 101
-0.584495 5.806181 -0.438776 101
-0.028682 5.872703 -0.475607 80
-0.214726 5.867556 0.077887 101
-0.592907 5.899703 -0.354350 100
0.159129 5.861519 -0.577005 101
-0.025522 5.827897 -0.023395 101
-0.398748 5.867287 -0.362777 101
0.160011 5.857705 -0.485890 101
-0.024743 5.875570 0.066660 101
-0.397821 5.868234 -0.272230 101
0.161550 5.877829 -0.215612 101
-0.023636 5.846301 0.336075 101
-0.210443 5.885984 -0.556745 101
-0.395639 5.850638 -0.001023 101
0.162280 5.868425 -0.125023 101
-0.209874 5.897855 -0.466538 101
-0.395956 5.869982 0.089341 101
0.164144 5.899904 0.146308 101
-0.208006 5.873153 -0.192901 100
-0.580187 5.842270 -0.623285 92
0.164942 5.892939 0.236778 101
-0.020717 5.855359 -0.655753 101
-0.206957 5.871459 -0.102550 101
-0.580080 5.851204 -0.533042 101
-0.019733 5.855403 -0.383786 101
-0.205215 5.850003 0.167596 101
-0.413984 6.183724 -0.909872 1
-0.576964 5.829758 -0.259874 101
-0.018803 5.872595 -0.294412 101
-0.204396 5.854763 0.257829 101
-0.391105 5.856756 -0.634555 101
-0.580632 5.876907 -0.171145 100
-0.015056 5.856446 -0.203489 101
-0.199723 5.826298 0.346349 101
-0.386430 5.842190 -0.542117 101
-0.574378 5.851332 -0.080045 2
0.169511 5.819863 -0.663371 101
-0.014087 5.862883 -0.113597 101
-0.198674 5.824315 0.436141 101
-0.386212 5.853853 -0.452439 101
0.171554 5.856167 -0.395296 101
-0.013062 5.845901 0.156144 101
-0.206119 6.072556 -0.988895 31
-0.384875 5.848552 -0.181124 101
-0.764310 5.878412 -0.617817 4
0.173286 5.881480 -0.306310 101
-0.012106 5.858801 0.246581 101
-0.199033 5.893043 -0.648886 75
-0.383504 5.842721 -0.090960 101
-0.760348 5.855648 -0.523874 3
0.174153 5.877317 -0.034892 101
-0.197629 5.880786 -0.374321 101
-0.383695 5.860713 0.179444 101
0.175613 5.893122 0.055568 101
-0.196141 5.865906 -0.282944 101
-0.381182 5.837399 0.268709 101
0.176460 5.888272 0.327291 101
-0.009139 5.852824 -0.564595 101
-0.195912 5.888729 -0.012340 101
-0.564996 5.816127 -0.439375 101
-0.008155 5.852832 -0.473993 78
-0.194375 5.872267 0.077940 101
-0.571154 5.889814 -0.353634 101
0.180076 5.876843 -0.578572 101
-0.005179 5.827951 -0.023395 101
-0.378522 5.872627 -0.363024 101
0.180212 5.849142 -0.485228 101
-0.004219 5.855622 0.066433 101
-0.377335 5.869587 -0.272230 101
0.182314 5.885220 -0.215905 101
-0.003233 5.854334 0.336534 101
-0.190024 5.890663 -0.557121 101
-0.376750 5.875934 -0.001028 101
0.182888 5.871820 -0.125108 101
-0.188902 5.886595 -0.465592 101
-0.375718 5.875320 0.089402 101
0.184862 5.903292 0.146407 101
-0.187121 5.861856 -0.192507 100
-0.374324 5.869022 0.360724 74
-0.558652 5.832381 -0.622018 92
0.185385 5.888332 0.236617 101
-0.000278 5.847445 -0.654863 101
-0.186587 5.876143 -0.102620 101
-0.558515 5.841297 -0.531959 101
0.000705 5.843462 -0.383001 101
-0.185172 5.862673 0.167939 101
-0.389640 6.141685 -0.903481 27
-0.555092 5.815824 -0.259165 101
0.001697 5.872624 -0.294412 101
-0.183832 5.851446 0.257653 101
-0.370156 5.850148 -0.633695 101
-0.554046 5.815214 -0.169291 101
0.005372 5.840473 -0.202933 101
-0.179507 5.830951 0.346586 101
-0.364541 5.819652 -0.539904 101
-0.549427 5.805519 -0.079392 91
0.189695 5.815264 -0.662918 101
0.006379 5.862896 -0.113597 101
-0.178098 5.816999 0.435544 101
-0.365528 5.851185 -0.452131 101
0.191210 5.831600 -0.393680 101
0.007339 5.841912 0.156037 101
-0.184560 6.061400 -0.986967 18
-0.364954 5.857841 -0.181371 101
-0.741290 5.861310 -0.615744 55
0.193683 5.876847 -0.306102 101
0.008317 5.838825 0.245740 101
-0.177138 5.849986 -0.644073 75
-0.362858 5.840032 -0.090898 101
-0.740902 5.866172 -0.524581 101
0.194535 5.872675 -0.034869 101
-0.176859 5.873460 -0.373813 101
-0.362740 5.854035 0.179200 101
0.196050 5.888475 0.055530 101
-0.175544 5.862561 -0.282751 101
-0.361543 5.850659 0.269259 101
0.011306 5.860783 -0.565363 101
-0.174998 5.877382 -0.012315 101
-0.544690 5.818063 -0.439375 101
0.012292 5.860799 -0.474638 78
-0.173876 5.872910 0.077940 101
-0.549848 5.883821 -0.353157 101
0.200453 5.872201 -0.578180 101
0.015154 5.823933 -0.023379 101
-0.357292 5.861958 -0.362285 101
0.201038 5.860429 -0.486220 101
0.016288 5.879599 0.066705 101
-0.356844 5.870869 -0.272230 101
0.202581 5.876557 -0.215612 101
0.017191 5.850317 0.336304 101
-0.169461 5.891290 -0.557121 101
-0.355753 5.869228 -0.001026 101
0.203522 5.875143 -0.125193 101
-0.168353 5.887219 -0.465592 101
-0.355207 5.876596 0.089402 101
0.205189 5.894618 0.146209 101
-0.166885 5.870465 -0.192770 100
-0.352634 5.850367 0.359500 101
-0.538656 5.838256 -0.622440 92
0.206218 5.895638 0.236938 101
0.020161 5.855361 -0.655753 101
-0.165623 5.860767 -0.102341 101
-0.351995 5.856168 0.450391 2
-0.537391 5.835277 -0.531237 101
0.021117 5.847415 -0.383262 101
-0.164707 5.863283 0.167939 101
-0.367725 6.135108 -0.902319 39
-0.534787 5.817726 -0.259165 101
0.022211 5.876578 -0.294612 101
-0.163406 5.852052 0.257653 101
-0.350682 5.867283 -0.635415 101
-0.537032 5.852946 -0.170334 101
0.025761 5.844416 -0.203072 101
-0.159385 5.839525 0.347061 101
-0.345180 5.836792 -0.541380 101
-0.534982 5.871130 -0.080263 101
0.210557 5.830453 -0.664729 101
0.026816 5.858839 -0.113520 101
-0.157909 5.821572 0.435843 101
-0.345111 5.852425 -0.452131 101
-0.531863 5.847855 0.010249 4
0.212140 5.846850 -0.394757 101
0.027708 5.837852 0.155930 101
-0.163404 6.062007 -0.986967 13
-0.344273 5.855087 -0.181247 101
-0.719858 5.855964 -0.614914 85
0.214198 5.876135 -0.306102 101
0.028818 5.862739 0.246750 101
-0.157246 5.870441 -0.646260 75
-0.342937 5.849248 -0.091022 101
-0.717506 5.844995 -0.522460 101
0.215627 5.887949 -0.034964 101
-0.156454 5.878032 -0.374067 101
-0.342528 5.859258 0.179322 101
0.217206 5.903743 0.055681 101
-0.155170 5.867132 -0.282944 101
-0.342034 5.867842 0.269993 101
0.031741 5.852745 -0.564595 101
-0.153831 5.853966 -0.012265 101
-0.523642 5.811986 -0.438776 101
0.032798 5.864707 -0.474961 78
-0.153036 5.861487 0.077781 101
-0.528207 5.873776 -0.352441 101
0.221293 5.879419 -0.578964 101
0.035527 5.823845 -0.023379 101
-0.337012 5.867157 -0.362531 101
0.221845 5.867657 -0.486881 101
0.036837 5.875506 0.066660 101
-0.335613 5.860114 -0.271675 101
0.223301 5.879807 -0.215758 101
0.037642 5.846227 0.336075 101
-0.148739 5.887866 -0.556745 101
-0.334979 5.866444 -0.001026 101
-0.709964 5.857317 -0.432247 18
0.224091 5.874394 -0.125193 101
-0.147539 5.879799 -0.464962 101
-0.334175 5.869817 0.089281 101
0.226598 5.913842 0.146704 101
-0.146125 5.863021 -0.192507 100
-0.333726 5.879468 0.361214 101
-0.516799 5.824258 -0.620751 92
0.227332 5.906861 0.237420 101
0.040674 5.855254 -0.655753 101
-0.145288 5.869308 -0.102481 101
-0.331703 5.861347 0.450697 101
-0.517296 5.841092 -0.531598 101
0.041693 5.859279 -0.384047 101
-0.143963 5.855830 0.167710 101
-0.343995 6.096845 -0.896509 25
-0.514397 5.819565 -0.259165 101
0.042752 5.868474 -0.294211 101
-0.142892 5.852589 0.257653 101
-0.329890 5.864506 -0.634985 101
-0.516864 5.858776 -0.170450 101
0.046256 5.856283 -0.203489 101
-0.138905 5.836054 0.346824 101
-0.325025 5.841938 -0.541748 101
-0.509598 5.817181 -0.079501 101
0.230279 5.813798 -0.662918 101
0.047267 5.858710 -0.113520 101
-0.137304 5.810125 0.434947 101
-0.325122 5.861558 -0.452746 101
-0.510053 5.833736 0.010221 101
0.233658 5.873989 -0.396642 101
0.048185 5.849715 0.156251 101
-0.142891 6.090169 -0.991465 17
-0.323833 5.856254 -0.181247 101
-0.698941 5.854490 -0.614500 101
0.235028 5.883335 -0.306518 101
0.049182 5.850614 0.246245 101
-0.136383 5.855055 -0.644510 75
-0.322297 5.846416 -0.090960 101
-0.694740 5.827682 -0.520692 101
0.235858 5.879167 -0.034916 101
-0.135935 5.878542 -0.374067 101
-0.320319 5.828481 0.178345 101
0.237329 5.890959 0.055568 101
-0.134506 5.859650 -0.282559 101
-0.321549 5.869000 0.269993 101
0.052206 5.856580 -0.564979 101
-0.134033 5.882460 -0.012323 101
-0.503351 5.813778 -0.438776 101
0.053306 5.868544 -0.475284 80
-0.132936 5.877980 0.077993 101
-0.505982 5.855694 -0.351248 101
0.241651 5.874634 -0.578572 101
0.055817 5.819685 -0.023363 101
-0.316315 5.864312 -0.362285 101
-0.502121 5.845616 0.100363 1
0.241996 5.858881 -0.486220 101
0.057307 5.871343 0.066614 101
-0.314082 5.841300 -0.270751 101
0.244155 5.886980 -0.216051 101
0.057891 5.830087 0.335156 101
-0.128098 5.884368 -0.556368 101
-0.314499 5.867578 -0.001026 101
-0.689980 5.863722 -0.432540 100
0.244595 5.873577 -0.125193 101
-0.127358 5.896225 -0.466223 101
-0.313043 5.858966 0.089098 101
0.246739 5.901030 0.146407 101
-0.125830 5.871489 -0.192770 100
-0.313201 5.880598 0.361214 101
-0.496465 5.826027 -0.620751 92
0.248117 5.910025 0.237580 101
0.061112 5.855076 -0.655753 101
-0.124969 5.877776 -0.102620 101
-0.310818 5.854504 0.450085 101
-0.497241 5.846831 -0.531959 101
0.062103 5.855107 -0.383786 101
-0.123521 5.856297 0.167710 101
-0.322920 6.101961 -0.897090 35
-0.497121 5.857161 -0.260760 101
0.063323 5.876278 -0.294612 101
-0.122545 5.857047 0.257829 101
-0.309417 5.865622 -0.634985 101
-0.496072 5.856560 -0.170334 101
0.066789 5.864081 -0.203767 101
-0.118695 5.844487 0.347298 101
-0.304216 5.835082 -0.541011 101
-0.487613 5.798996 -0.079229 101
0.251085 5.824871 -0.664276 101
0.067717 5.858509 -0.113520 101
-0.117183 5.818545 0.435544 101
-0.304866 5.866640 -0.453054 101
-0.491693 5.859397 0.010263 101
0.253126 5.849214 -0.395026 101
0.068744 5.861506 0.156571 101
-0.121868 6.102473 -0.993393 13
-0.303389 5.857348 -0.181247 101
-0.676669 5.841086 -0.612841 100
0.255563 5.882478 -0.306518 101
0.069557 5.846410 0.246077 101
-0.115944 5.855495 -0.644510 75
-0.302093 5.851500 -0.091022 101
-0.675767 5.841946 -0.521753 101
0.256204 5.874312 -0.034892 101
-0.115414 5.878981 -0.374067 101
-0.300382 5.837549 0.178589 101
0.258066 5.894091 0.055605 101
-0.114206 5.868073 -0.282944 101
-0.300651 5.862106 0.269626 101
0.072748 5.864325 -0.565747 101
-0.113345 5.874894 -0.012307 101
-0.482724 5.811525 -0.438476 101
0.073691 5.860349 -0.474638 78
-0.112111 5.862412 0.077781 101
-0.485209 5.853445 -0.351009 101
0.262511 5.881708 -0.579356 101
0.076236 5.827455 -0.023395 101
-0.295843 5.865380 -0.362285 101
-0.482698 5.859291 0.100568 31
0.262268 5.854018 -0.485890 101
0.077748 5.867107 0.066569 101
-0.294894 5.866304 -0.271860 101
-0.477265 5.805344 0.189162 0
0.265062 5.894078 -0.216344 101
0.078402 5.841829 0.335845 101
-0.107630 5.888761 -0.556745 101
-0.293816 5.864645 -0.001025 101
-0.671769 5.885913 -0.434001 101
0.265276 5.876682 -0.125279 101
-0.106559 5.884673 -0.465277 101
-0.291992 5.848040 0.088916 101
-0.666023 5.844343 -0.340194 76
0.267517 5.904127 0.146506 101
-0.105190 5.863898 -0.192507 100
-0.291680 5.861717 0.359990 101
-0.476450 5.831689 -0.621173 92
0.268927 5.913116 0.237741 101
0.081660 5.862777 -0.656643 101
-0.104025 5.854184 -0.102201 101
-0.291367 5.875470 0.451616 101
-0.476829 5.848531 -0.531959 101
0.082654 5.862836 -0.384309 101
-0.103148 5.860690 0.167825 101
-0.301813 6.107004 -0.897671 29
-0.478293 5.878775 -0.261647 101
0.083720 5.868032 -0.294211 101
-0.102099 5.857440 0.257829 101
-0.288940 5.866666 -0.634985 101
-0.475950 5.862241 -0.170450 101
0.086176 5.855832 -0.203489 101
-0.099051 5.832872 0.346586 101
-0.285194 5.844018 -0.541748 101
-0.468966 5.808559 -0.079337 101
0.270620 5.827974 -0.664729 101
0.087479 5.878246 -0.113907 101
-0.098656 5.866762 0.439127 100
-0.285180 5.863637 -0.452746 101
-0.471903 5.857011 0.010256 101
0.272907 5.856315 -0.395565 101
0.088195 5.861246 0.156571 101
-0.101813 6.114686 -0.995320 19
-0.283756 5.854330 -0.181124 101
-0.657282 5.843299 -0.612841 101
0.275433 5.889579 -0.306933 101
0.089057 5.854139 0.246413 101
-0.096338 5.843921 -0.643198 75
-0.282696 5.852469 -0.091022 101
-0.657733 5.856032 -0.522813 101
0.276589 5.893409 -0.035011 101
-0.096014 5.883322 -0.374321 101
-0.281053 5.838511 0.178589 101
-0.660088 5.885771 -0.251340 1
0.277933 5.901196 0.055681 101
-0.094864 5.872413 -0.283136 101
-0.280497 5.847104 0.268892 101
0.092181 5.868033 -0.566131 101
-0.094066 5.883235 -0.012323 101
-0.465110 5.832968 -0.439975 101
0.093026 5.860074 -0.474638 78
-0.092515 5.846754 0.077569 101
-0.465576 5.851034 -0.350770 101
0.281848 5.880813 -0.579356 101
0.095396 5.827172 -0.023395 101
-0.276556 5.866321 -0.362285 101
-0.460908 5.828950 0.100021 101
0.281683 5.857107 -0.486220 101
0.097214 5.878818 0.066705 101
-0.275440 5.863250 -0.271675 101
-0.461341 5.846735 0.190460 1
0.284202 5.889184 -0.216198 101
0.097831 5.857512 0.336763 101
-0.088134 5.877137 -0.555615 101
-0.274763 5.869572 -0.001026 101
-0.647186 5.840504 -0.430494 100
0.284143 5.867792 -0.125108 101
-0.087219 5.881003 -0.464962 101
-0.273202 5.856956 0.089038 101
-0.651262 5.886185 -0.342503 101
0.286643 5.899226 0.146407 101
-0.085999 5.864211 -0.192507 100
-0.271383 5.838711 0.358520 101
-0.457362 5.833217 -0.621173 92
0.287670 5.900229 0.237259 101
0.100961 5.870428 -0.657534 101
-0.085236 5.878487 -0.102620 101
-0.271791 5.868423 0.451003 101
-0.457398 5.846087 -0.531598 101
0.101865 5.866526 -0.384570 101
-0.084070 5.864994 0.167939 101
-0.280230 6.072376 -0.892442 31
-0.458164 5.868353 -0.261115 101
0.102996 5.875717 -0.294612 101
-0.083053 5.861737 0.258005 101
-0.269441 5.859632 -0.634125 101
-0.456208 5.855790 -0.170218 101
0.106543 5.851499 -0.203350 101
-0.078690 5.833183 0.346586 101
-0.264433 5.837020 -0.541011 101
-0.449611 5.822124 -0.079501 101
0.290367 5.815086 -0.663371 101
0.107777 5.865909 -0.113675 101
-0.264350 5.856628 -0.452131 101
-0.449611 5.834693 0.010214 101
0.294146 5.871271 -0.396642 101
0.108432 5.848908 0.156251 101
-0.080832 6.142638 -0.999818 19
-0.263319 5.855284 -0.181124 101
-0.637743 5.853468 -0.613670 101
0.295789 5.884593 -0.306725 101
0.109491 5.853793 0.246413 101
-0.076042 5.852173 -0.644073 75
-0.262444 5.857416 -0.091084 101
-0.637288 5.858292 -0.522813 101
0.296757 5.884418 -0.034964 101
-0.075426 5.879630 -0.374067 101
-0.260315 5.831469 0.178345 101
-0.639970 5.892012 -0.251510 9
0.298935 5.908180 0.055756 101
-0.074264 5.864718 -0.282751 101
-0.261506 5.879982 0.270361 101
0.112664 5.867676 -0.566131 101
-0.073629 5.891527 -0.012340 101
-0.444443 5.830579 -0.439675 101
0.113635 5.867686 -0.475284 80
-0.072401 5.871037 0.077887 101
-0.444847 5.848642 -0.350532 101
0.302783 5.887744 -0.580139 101
0.115816 5.830803 -0.023411 101
-0.256774 5.883205 -0.363270 101
-0.442065 5.850464 0.100363 101
0.302332 5.860069 -0.486551 101
0.117895 5.886441 0.066796 101
-0.255318 5.872160 -0.272045 101
-0.442433 5.868243 0.191109 49
0.304344 5.880172 -0.215905 101
0.118438 5.865120 0.337222 101
-0.067847 5.897319 -0.557498 101
-0.253927 5.862503 -0.001024 101
-0.622965 5.807029 -0.427864 101
0.304831 5.870759 -0.125193 101
-0.066644 5.877285 -0.464647 101
-0.253273 5.869861 0.089220 101
-0.626884 5.852687 -0.340425 101
0.307649 5.906176 0.146605 101
-0.065574 5.868473 -0.192639 100
-0.251686 5.855578 0.359500 101
-0.437592 5.842711 -0.622018 92
0.308473 5.903180 0.237420 101
0.121699 5.881962 -0.658869 101
-0.064496 5.858753 -0.102271 101
-0.249940 5.837459 0.448554 101
-0.437879 5.859566 -0.532681 101
0.122176 5.858154 -0.384047 101
-0.063467 5.853257 0.167596 101
-0.259538 6.085179 -0.894185 30
-0.437676 5.869917 -0.261115 101
-0.810121 5.837306 -0.602772 0
0.123590 5.879316 -0.294812 101
-0.062592 5.861991 0.258005 101
-0.249323 5.868483 -0.634985 101
-0.435765 5.857347 -0.170218 101
0.127142 5.859084 -0.203628 101
-0.058448 5.845400 0.347298 101
-0.244056 5.837908 -0.541011 101
-0.430168 5.835625 -0.079664 101
0.311300 5.825943 -0.664729 101
0.128164 5.861498 -0.113597 101
-0.244569 5.873454 -0.453361 101
-0.427774 5.816281 0.010179 101
0.313784 5.854267 -0.395565 101
0.129288 5.868483 0.156785 101
-0.059581 6.162622 -1.003031 19
-0.242879 5.856168 -0.181124 101
-0.433343 5.905344 0.283381 2
-0.616890 5.851702 -0.613256 101
0.316114 5.879535 -0.306518 101
0.130102 5.861366 0.246750 101
-0.055613 5.852403 -0.644073 75
-0.241666 5.850304 -0.090960 101
-0.615584 5.848594 -0.521753 101
0.317511 5.887341 -0.034987 101
-0.054939 5.883849 -0.374321 101
-0.240451 5.844326 0.178711 101
-0.617311 5.874337 -0.250662 87
0.319124 5.899112 0.055681 101
-0.053829 5.868937 -0.282944 101
-0.239671 5.848919 0.268892 101
-0.617920 5.889505 -0.160240 10
0.133055 5.863266 -0.565747 101
-0.053099 5.895748 -0.012349 101
-0.423220 5.820160 -0.438776 101
0.134025 5.863267 -0.474961 78
-0.051943 5.875254 0.077940 101
-0.424429 5.850159 -0.350532 101
0.322678 5.874728 -0.578964 101
0.136168 5.830363 -0.023411 101
-0.235755 5.872098 -0.362531 101
-0.422216 5.859950 0.100500 101
0.323005 5.862958 -0.486881 101
0.138347 5.881995 0.066750 101
-0.234021 5.853053 -0.271120 101
-0.420513 5.849813 0.190460 101
0.325530 5.891047 -0.216344 101
0.139194 5.876647 0.337911 101
-0.047102 5.877609 -0.555615 101
-0.233780 5.871347 -0.001026 101
-0.605573 5.836944 -0.429909 101
0.325764 5.877645 -0.125364 101
-0.046222 5.889444 -0.465592 101
-0.232465 5.862717 0.089098 101
-0.604393 5.834979 -0.339270 101
0.327820 5.897081 0.146407 101
-0.045027 5.860671 -0.192376 100
-0.231717 5.868390 0.360235 101
-0.416061 5.828332 -0.620329 92
0.329299 5.906058 0.237580 101
0.141749 5.861632 -0.656643 101
-0.044195 5.878938 -0.102620 101
-0.229719 5.842281 0.448860 101
-0.416291 5.845164 -0.531237 101
0.143109 5.877643 -0.385355 101
-0.043182 5.873435 0.168168 101
-0.238605 6.093957 -0.895347 34
-0.416334 5.859451 -0.260583 101
-0.793473 5.867702 -0.605621 0
0.143916 5.870861 -0.294412 101
-0.042129 5.862174 0.258005 101
-0.228527 5.861370 -0.634125 101
-0.415316 5.858832 -0.170218 101
0.147736 5.866599 -0.203906 101
-0.037920 5.817618 0.345638 101
-0.223430 5.830762 -0.540273 101
-0.411534 5.861025 -0.079991 101
0.331824 5.828791 -0.665182 101
0.148790 5.869012 -0.113752 101
-0.224102 5.874271 -0.453361 101
-0.407226 5.813746 0.010172 101
0.335114 5.869075 -0.396642 101
0.149860 5.871993 0.156891 101
-0.222449 5.856979 -0.181124 101
-0.407728 5.835077 0.279939 76
-0.596474 5.853818 -0.613256 101
0.337558 5.894348 -0.307349 101
0.150672 5.864871 0.246918 101
-0.035200 5.856537 -0.644510 75
-0.221235 5.851112 -0.090960 101
-0.594350 5.842780 -0.521046 101
0.338549 5.894181 -0.035035 101
-0.034416 5.891989 -0.374829 101
-0.220018 5.845131 0.178711 101
-0.593944 5.848628 -0.249474 101
0.339998 5.901952 0.055718 101
-0.033289 5.869090 -0.282944 101
-0.219499 5.857708 0.269259 101
-0.594481 5.863785 -0.159483 41
0.153492 5.858784 -0.565363 101
-0.032289 5.867898 -0.012290 101
-0.402826 5.821607 -0.438776 101
0.154694 5.866747 -0.475284 80
-0.031272 5.863401 0.077781 101
-0.404182 5.855595 -0.350770 101
0.343581 5.877530 -0.579356 101
0.157113 5.845842 -0.023475 101
-0.215091 5.872891 -0.362531 101
-0.400226 5.841449 0.100157 101
0.343423 5.857804 -0.486551 101
0.159067 5.881471 0.066750 101
-0.213547 5.857834 -0.271305 101
-0.398540 5.831316 0.189811 101
0.345833 5.881882 -0.216051 101
0.159374 5.856160 0.336763 100
-0.026410 5.885703 -0.556368 101
-0.212493 5.856146 -0.001023 101
-0.584587 5.835074 -0.429617 101
0.346983 5.884442 -0.125534 101
-0.025430 5.889571 -0.465592 101
-0.211910 5.867497 0.089159 101
-0.582598 5.825156 -0.338577 101
0.348895 5.899877 0.146506 101
-0.024397 5.880782 -0.193032 100
-0.211263 5.877151 0.360724 101
-0.395730 5.833735 -0.620751 92
-0.582544 5.834589 -0.068570 1
0.350429 5.908845 0.237741 101
0.162817 5.873014 -0.657979 101
-0.023379 5.875059 -0.102550 101
-0.209047 5.843058 0.448860 101
-0.394802 5.834677 -0.530153 101
0.163926 5.877099 -0.385355 101
-0.022333 5.861556 0.167825 101
-0.216879 6.090809 -0.894766 36
-0.396117 5.868863 -0.260938 101
-0.768532 5.838914 -0.602365 36
0.164843 5.874307 -0.294612 101
-0.021315 5.854294 0.257653 101
-0.207743 5.862144 -0.634125 101
-0.394272 5.856278 -0.170103 101
0.168213 5.866047 -0.203906 101
-0.017624 5.821708 0.345875 101
-0.203907 5.855390 -0.542486 101
-0.390807 5.858435 -0.079936 101
0.351209 5.811729 -0.663371 101
0.168930 5.856464 -0.113520 101
-0.203043 5.859074 -0.452131 101
-0.387992 5.831097 0.010200 101
0.355840 5.871853 -0.396911 101
0.170820 5.887422 0.157319 101
-0.202003 5.857720 -0.181124 101
-0.387621 5.840452 0.280130 101
-0.576036 5.855865 -0.613256 101
0.356919 5.873198 -0.306310 101
0.171260 5.868304 0.247086 101
-0.014797 5.872529 -0.646260 75
-0.200672 5.847852 -0.090898 101
-0.387885 5.859435 0.371509 1
-0.573172 5.836888 -0.520339 101
0.359121 5.892963 -0.035035 101
-0.013839 5.888082 -0.374575 101
-0.199613 5.845863 0.178711 101
-0.570796 5.822824 -0.248287 101
0.360109 5.892745 0.055643 101
-0.012810 5.873165 -0.283136 101
-0.199321 5.866426 0.269626 101
-0.406940 6.179006 -0.831742 21
-0.572062 5.845927 -0.158942 101
0.174178 5.866172 -0.566131 101
-0.011838 5.883975 -0.012323 101
-0.382241 5.818998 -0.438476 101
0.175291 5.870156 -0.475607 80
-0.010790 5.855475 0.077675 101
-0.383740 5.856970 -0.350770 101
0.364095 5.876295 -0.579356 101
0.176790 5.821269 -0.023379 101
-0.193929 5.853655 -0.361300 101
-0.378017 5.814873 0.099679 101
0.363621 5.852592 -0.486220 101
0.179474 5.876882 0.066705 101
-0.193229 5.862537 -0.271490 101
-0.378183 5.832671 0.189811 101
0.366114 5.876649 -0.215905 101
-0.005861 5.881777 -0.555992 101
-0.192574 5.872843 -0.001026 101
-0.566518 5.860904 -0.431371 101
0.367272 5.879204 -0.125449 101
-0.004872 5.889624 -0.465592 101
-0.191689 5.876196 0.089281 101
-0.565713 5.862928 -0.340656 101
0.369988 5.906605 0.146704 101
-0.003859 5.864840 -0.192507 100
-0.190747 5.877853 0.360724 101
-0.375619 5.839050 -0.621173 92
-0.562174 5.836587 -0.068570 2
0.370301 5.895619 0.237259 101
0.183193 5.868437 -0.657534 101
-0.002873 5.879104 -0.102620 101
-0.189551 5.871655 0.451003 101
-0.375708 5.855897 -0.531959 101
0.184189 5.868512 -0.384832 101
-0.001874 5.865596 0.167939 101
-0.195617 6.091529 -0.894766 56
-0.375373 5.866221 -0.260760 101
-0.748145 5.841561 -0.602365 101
0.185347 5.873696 -0.294612 101
-0.000881 5.866322 0.258181 101
-0.187026 5.854884 -0.633265 101
-0.373827 5.857619 -0.170103 101
-0.750265 5.865986 -0.513228 87
0.188688 5.865424 -0.203906 101
0.002694 5.813748 0.345400 101
-0.182843 5.836161 -0.540642 101
-0.369598 5.847789 -0.079773 101
0.372001 5.818400 -0.664276 101
0.189113 5.847845 -0.113365 101
-0.182714 5.863733 -0.452439 101
-0.368893 5.852376 0.010235 101
0.375824 5.862609 -0.396373 101
0.190591 5.862811 0.156678 101
-0.181431 5.854393 -0.181000 101
-0.369237 5.873670 0.281660 101
-0.554841 5.849919 -0.612426 101
0.378187 5.883875 -0.306933 101
0.191612 5.863677 0.246918 101
0.005699 5.868568 -0.645823 75
-0.180628 5.860510 -0.091084 101
-0.368179 5.872706 0.372267 61
-0.553170 5.842820 -0.520692 101
0.380461 5.903649 -0.035106 101
0.006723 5.896078 -0.375083 101
-0.178839 5.834536 0.178345 101
-0.551595 5.836717 -0.248796 101
0.381708 5.907418 0.055794 101
0.007686 5.869179 -0.282944 101
-0.178356 5.851110 0.268892 101
-0.384135 6.160605 -0.829080 22
-0.552028 5.851869 -0.159050 101
0.194654 5.865528 -0.566131 101
0.008683 5.871981 -0.012298 101
-0.361184 5.808353 -0.437576 101
0.196047 5.877478 -0.476253 80
0.009670 5.867476 0.077834 101
-0.363540 5.862259 -0.351009 101
0.384345 5.871016 -0.578964 101
0.197515 5.832610 -0.023427 101
-0.173967 5.870259 -0.362285 101
-0.357226 5.808174 0.099542 101
0.384570 5.859242 -0.486881 101
0.199987 5.876219 0.066705 101
-0.172529 5.855188 -0.271120 101
-0.357331 5.825975 0.189551 101
0.387413 5.887302 -0.216344 101
0.014651 5.873797 -0.555239 101
-0.171956 5.869482 -0.001025 101
-0.360303 5.890742 0.464478 1
-0.546796 5.870790 -0.431955 101
0.388319 5.885867 -0.125619 101
0.015708 5.897580 -0.466223 101
-0.170943 5.868834 0.089159 101
-0.547092 5.884748 -0.341811 101
0.390603 5.905278 0.146704 101
0.016670 5.884807 -0.193164 100
-0.169881 5.866511 0.359990 101
-0.354752 5.832386 -0.620329 92
-0.542906 5.850462 -0.068711 69
0.391407 5.902267 0.237580 100
0.204366 5.887626 -0.659760 101
0.017625 5.871079 -0.102481 101
-0.169628 5.892214 0.452534 101
-0.355506 5.861149 -0.532320 101
0.204534 5.863844 -0.384570 101
0.018639 5.877562 0.168283 101
-0.170729 5.965584 -0.876173 33
-0.354411 5.859519 -0.260406 101
-0.725291 5.824393 -0.600330 74
0.205989 5.877006 -0.294812 101
0.019569 5.858296 0.257829 101
-0.166813 5.863451 -0.634125 101
-0.353137 5.854897 -0.169987 101
-0.725850 5.836933 -0.510461 100
0.208039 5.860770 -0.203767 101
0.022031 5.817700 0.345638 101
-0.163669 5.844699 -0.541380 101
-0.350160 5.848985 -0.079773 101
0.392120 5.829029 -0.665635 101
0.209387 5.871165 -0.113830 101
-0.163574 5.876268 -0.453361 101
-0.350888 5.877526 0.010276 101
0.395005 5.857348 -0.396104 101
0.210471 5.874134 0.156998 101
-0.161785 5.846970 -0.180753 101
-0.350222 5.882839 0.282042 101
-0.534341 5.839842 -0.611183 101
0.397690 5.882589 -0.306933 101
0.211481 5.874990 0.247422 101
0.025187 5.876469 -0.646698 75
-0.161309 5.865074 -0.091147 101
-0.347762 5.857955 0.371257 101
-0.534522 5.852558 -0.521399 101
0.398661 5.882403 -0.034987 101
0.026164 5.876064 -0.373813 101
-0.159840 5.847086 0.178711 101
-0.532985 5.846472 -0.249135 101
0.401256 5.906122 0.055794 101
0.027128 5.873116 -0.283136 101
-0.159208 5.859657 0.269259 101
-0.355334 6.019372 -0.809910 83
-0.530122 5.825789 -0.158293 101
0.214048 5.864852 -0.566131 101
0.028100 5.871920 -0.012298 101
-0.342914 5.825443 -0.438776 101
0.215463 5.876798 -0.476253 80
0.029015 5.859413 0.077728 101
-0.344404 5.867414 -0.351248 101
0.404509 5.881631 -0.580139 101
0.216882 5.835924 -0.023443 101
-0.155042 5.886765 -0.363270 101
-0.338549 5.817305 0.099679 101
0.404134 5.861921 -0.487212 101
0.219632 5.883523 0.066796 101
-0.153459 5.863713 -0.271490 101
-0.338842 5.839094 0.189941 101
0.406227 5.878020 -0.216051 101
0.033973 5.873717 -0.555239 101
-0.152438 5.862018 -0.001023 101
-0.340231 5.879952 0.463536 11
-0.527124 5.868584 -0.431663 101
0.408215 5.892538 -0.125790 101
0.035164 5.909459 -0.467168 101
-0.151858 5.877361 0.089281 101
-0.527390 5.882537 -0.341580 101
0.409717 5.899974 0.146605 101
0.035898 5.868730 -0.192639 100
-0.151024 5.883002 0.360969 101
-0.336053 5.841461 -0.621173 92
-0.523690 5.852213 -0.068711 101
0.223985 5.894868 -0.660650 101
0.036964 5.882987 -0.102690 101
-0.150191 5.888752 0.452228 101
-0.336500 5.866261 -0.532681 101
-0.522392 5.848677 0.021522 9
0.223605 5.859154 -0.384309 101
0.037805 5.861476 0.167825 101
-0.148364 5.855335 -0.859905 80
-0.335200 5.860649 -0.260406 101
-0.708108 5.842541 -0.601958 100
0.225238 5.876300 -0.294812 101
0.038785 5.862197 0.258005 101
-0.147706 5.867942 -0.634555 101
-0.333502 5.848039 -0.169755 101
-0.708163 5.851148 -0.511499 101
0.228496 5.860008 -0.203767 101
0.042309 5.813595 0.345400 101
-0.143168 5.841253 -0.541011 101
-0.329742 5.850172 -0.079773 101
-0.700380 5.819111 -0.418073 22
0.411904 5.819695 -0.664729 101
0.229410 5.858409 -0.113597 101
-0.142867 5.868829 -0.452746 101
-0.329247 5.858747 0.010242 101
0.416013 5.863895 -0.396642 101
0.231289 5.881355 0.157212 101
-0.141567 5.855493 -0.181000 101
-0.329238 5.876048 0.281660 101
-0.514999 5.853561 -0.612426 101
0.417939 5.877180 -0.306725 101
0.232303 5.882203 0.247759 101
0.045607 5.864418 -0.645385 75
-0.140547 5.853607 -0.090960 101
-0.328871 5.887033 0.373025 100
-0.513741 5.850419 -0.521046 101
0.419192 5.880975 -0.034987 101
0.046770 5.887912 -0.374575 101
-0.139238 5.839614 0.178467 101
-0.513621 5.860240 -0.249644 101
0.421300 5.896707 0.055718 101
0.047596 5.868991 -0.282944 101
-0.138753 5.860177 0.269259 101
-0.326628 5.882035 -0.791273 100
-0.507344 5.799721 -0.157535 101
0.234360 5.860091 -0.565747 101
0.048629 5.875786 -0.012307 101
-0.322577 5.826605 -0.438776 101
-0.509951 5.840719 0.111551 1
0.235816 5.872027 -0.475930 80
0.049502 5.863275 0.077781 101
-0.323481 5.860608 -0.350770 101
0.424177 5.868272 -0.578964 101
0.236927 5.827138 -0.023411 101
-0.133763 5.855339 -0.361300 101
-0.318459 5.822444 0.099747 101
0.425169 5.868426 -0.487873 101
0.240005 5.878724 0.066750 101
-0.133171 5.872202 -0.271860 101
-0.318457 5.840240 0.189941 101
0.427611 5.888526 -0.216491 101
0.054513 5.877545 -0.555615 101
-0.131885 5.858516 -0.001023 101
-0.318405 5.857213 0.461653 82
-0.504920 5.850515 -0.430202 101
0.429653 5.903042 -0.126045 101
0.055641 5.893350 -0.465907 101
-0.131074 5.865860 0.089098 101
-0.506168 5.876385 -0.341118 101
0.430600 5.902496 0.146704 101
0.056384 5.868568 -0.192639 100
-0.130399 5.879501 0.360724 101
-0.315875 5.846570 -0.621595 92
-0.503944 5.861976 -0.068804 101
0.243737 5.874192 -0.658424 101
0.057343 5.866826 -0.102411 101
-0.129459 5.881266 0.451616 101
-0.314950 5.847510 -0.530876 101
-0.503341 5.866406 0.021581 101
0.245218 5.886253 -0.386140 101
0.058344 5.869305 0.168054 101
-0.127838 5.851861 -0.859324 100
-0.315169 5.869764 -0.260760 101
-0.688639 5.852881 -0.602772 101
0.246083 5.883461 -0.295213 101
0.059167 5.854034 0.257653 101
-0.127309 5.872397 -0.634985 101
-0.313300 5.853160 -0.169871 101
-0.687734 5.853584 -0.511499 101
0.249119 5.863169 -0.203906 101
0.063247 5.873302 0.348959 163
-0.122945 5.849681 -0.541748 101
