# This PCD file was generated using the MATLAB® pcwrite function
# from Computer Vision Toolbox®.
# .PCD v.7 - Point Cloud Data file format
VERSION .7
FIELDS x y z intensity
SIZE 4 4 4 1
TYPE F F F U
COUNT 1 1 1 1
WIDTH 1476
HEIGHT 1
VIEWPOINT 0 0 0 1 0 0 0
POINTS 1476
DATA ascii
-0.536322 6.328347 -1.159446 45
-0.717765 6.146903 -0.203137 46
-0.340626 6.437797 0.258930 101
-0.540741 6.393064 -0.718524 26
-0.723973 6.208982 -0.109112 63
-0.519735 6.156845 -0.404976 101
-0.521861 6.194249 -0.311636 101
-0.326181 6.285028 -1.308131 92
-0.520326 6.226526 -0.217101 101
-0.332010 6.417840 -0.732198 100
-0.521838 6.257099 -0.121656 101
-0.318974 6.185699 -0.417915 101
-0.531329 6.383642 0.171096 101
-0.320909 6.243293 -0.325441 101
-0.529993 6.380358 0.269457 73
-0.720898 6.264588 -0.693953 1
-0.325215 6.347562 -0.037717 101
-0.701785 6.107385 -0.391082 84
-0.324769 6.359430 0.060016 101
-0.704564 6.140533 -0.297967 101
-0.329933 6.481599 0.360574 101
-0.501922 6.079000 -0.588407 101
-0.715747 6.247118 -0.013170 47
-0.330765 6.519192 0.463322 101
-0.505529 6.135054 -0.498532 100
-0.307401 6.118693 -0.602859 101
-0.512288 6.255006 -0.025193 101
-0.310005 6.190970 -0.513985 101
-0.515786 6.310549 0.071833 101
-0.313221 6.275966 -0.230416 101
-0.523991 6.424025 0.370508 101
-0.699658 6.160758 -0.586107 15
-0.313712 6.306771 -0.134477 101
-0.523700 6.433587 0.470618 64
-0.690585 6.089848 -0.484506 101
-0.317594 6.406162 0.158996 101
-0.512635 6.310571 -1.155855 45
-0.695855 6.145398 -0.203005 43
-0.318940 6.454915 0.259572 101
-0.519385 6.406798 -0.719859 36
-0.702296 6.211472 -0.109112 67
-0.496953 6.142707 -0.403930 101
-0.502165 6.219925 -0.312837 101
-0.302726 6.254835 -1.301618 86
-0.496674 6.204396 -0.216268 101
-0.299840 6.216507 -0.709105 101
-0.500312 6.262869 -0.121733 101
-0.872476 6.051272 -0.471508 6
-0.298147 6.202720 -0.418992 101
-0.506500 6.353570 0.170242 101
-0.298540 6.232405 -0.324817 101
-0.507084 6.374201 0.269120 81
-0.696382 6.243358 -0.691328 5
-0.303056 6.348659 -0.037717 101
-0.681787 6.121700 -0.391843 97
-0.303899 6.388492 0.060280 101
-0.684892 6.158839 -0.298738 101
-0.307306 6.482712 0.360574 101
-0.480700 6.080715 -0.588407 101
-0.695702 6.265480 -0.013203 79
-0.308948 6.540235 0.464738 101
-0.482856 6.120883 -0.497240 100
-0.694165 6.261082 0.083564 5
-0.285483 6.107799 -0.601684 101
-0.490763 6.260744 -0.025209 101
-0.286909 6.160159 -0.511341 101
-0.494691 6.324274 0.071969 101
-0.291867 6.289000 -0.230855 101
-0.501253 6.421834 0.370279 101
-0.667696 6.068162 -0.577072 35
-0.291511 6.303833 -0.134391 101
-0.501859 6.443331 0.471200 73
-0.668452 6.084294 -0.483875 101
-0.295782 6.419215 0.159293 101
-0.491214 6.320168 -1.157291 46
-0.677450 6.175608 -0.203924 44
-0.296407 6.455988 0.259572 101
-0.497633 6.416499 -0.720750 41
-0.677126 6.182080 -0.108554 53
-0.477664 6.172261 -0.405761 101
-0.480143 6.217657 -0.312637 101
-0.280937 6.255852 -1.301618 78
-0.477195 6.233990 -0.217240 101
-0.273193 6.106346 -0.696426 101
-0.479085 6.272550 -0.121888 101
-0.849154 6.038479 -0.470278 72
-0.276327 6.199735 -0.418723 101
-0.484330 6.355299 0.170242 101
-0.277131 6.241391 -0.325233 101
-0.484824 6.375933 0.269120 100
-0.671162 6.214128 -0.687828 16
-0.281046 6.353675 -0.037741 101
-0.659963 6.120076 -0.391589 100
-0.281026 6.377528 0.060167 101
-0.662493 6.153252 -0.298353 101
-0.284439 6.479757 0.360352 101
-0.459713 6.086330 -0.588791 101
-0.666927 6.204244 -0.013069 75
-0.286037 6.541276 0.464738 101
-0.462910 6.142415 -0.498855 100
-0.673936 6.279383 0.083776 99
-0.264379 6.116718 -0.602467 101
-0.470270 6.282372 -0.025290 101
-0.265946 6.177060 -0.512663 101
-0.472463 6.325973 0.071969 101
-0.269748 6.289988 -0.230855 101
-0.480445 6.447451 0.371656 101
-0.646772 6.074433 -0.577449 55
-0.269321 6.304820 -0.134391 101
-0.480656 6.464949 0.472654 100
-0.649140 6.106435 -0.485452 101
-0.272659 6.408232 0.158996 101
-0.468657 6.317935 -1.156573 50
-0.654427 6.166029 -0.203530 62
-0.273645 6.456994 0.259572 101
-0.474716 6.414249 -0.720304 40
-0.654063 6.172498 -0.108345 53
-0.455591 6.169928 -0.405499 101
-0.670524 6.338018 0.182478 12
-0.458772 6.227282 -0.313038 101
-0.261691 6.319401 -1.314643 64
-0.455140 6.231630 -0.217101 101
-0.251058 6.087408 -0.694162 101
-0.456606 6.266207 -0.121733 101
-0.828071 6.041407 -0.470278 77
-0.254192 6.188699 -0.417915 101
-0.462723 6.364926 0.170455 101
-0.254853 6.230346 -0.324609 101
-0.464010 6.397516 0.269961 101
-0.645749 6.180842 -0.683890 13
-0.258540 6.346624 -0.037693 101
-0.639010 6.126313 -0.391843 101
-0.259087 6.386463 0.060242 101
-0.640596 6.151553 -0.298160 101
-0.262786 6.504654 0.361684 101
-0.439323 6.099811 -0.589944 101
-0.646094 6.214491 -0.013086 62
-0.263522 6.550209 0.465305 101
-0.441467 6.143993 -0.498855 100
-0.649535 6.257827 0.083458 93
-0.243816 6.137492 -0.604426 101
-0.446914 6.264027 -0.025209 101
-0.821941 6.064923 -0.377554 35
-0.244540 6.181933 -0.512994 101
-0.451231 6.339553 0.072105 101
-0.248262 6.302873 -0.231295 101
-0.458502 6.457055 0.372115 101
-0.626788 6.088538 -0.578578 86
-0.247625 6.313713 -0.134562 101
-0.461187 6.510362 0.475853 100
-0.627821 6.108664 -0.485452 101
-0.251536 6.441110 0.159789 101
-0.444381 6.288131 -1.150826 54
-0.636572 6.204069 -0.204711 78
-0.251415 6.465897 0.259893 101
-0.454001 6.439659 -0.722975 45
-0.634958 6.198615 -0.108763 66
-0.434331 6.175462 -0.405761 101
-0.645956 6.316454 0.181791 101
-0.436753 6.224860 -0.312837 101
-0.653057 6.396525 0.282979 2
-0.238888 6.300709 -1.310573 74
-0.434771 6.253121 -0.217796 101
-0.818025 6.119157 -0.571620 8
-0.230707 6.112076 -0.696879 101
-0.435283 6.275742 -0.121888 101
-0.804338 6.024495 -0.468740 73
-0.233338 6.209489 -0.419261 101
-0.441330 6.378470 0.170776 101
-0.233402 6.239182 -0.325025 101
-0.441126 6.391123 0.269625 101
-0.626965 6.210750 -0.686953 15
-0.237724 6.383462 -0.037907 101
-0.618822 6.140421 -0.392605 101
-0.236941 6.391325 0.060280 101
-0.620719 6.169652 -0.298930 101
-0.240226 6.509523 0.361906 101
-0.418301 6.105280 -0.590328 101
-0.625996 6.232628 -0.013119 69
-0.240949 6.559063 0.465871 101
-0.420017 6.145497 -0.498855 100
-0.627687 6.260056 0.083458 69
-0.222535 6.142284 -0.604818 101
-0.426399 6.285503 -0.025290 101
-0.802855 6.083588 -0.378539 101
-0.223678 6.202668 -0.514646 101
-0.429639 6.349071 0.072196 101
-0.809284 6.140268 -0.286655 2
-0.226403 6.307696 -0.231442 101
-0.435153 6.446663 0.371427 101
-0.604743 6.082763 -0.577825 100
-0.226013 6.326529 -0.134817 101
-0.439531 6.527853 0.477017 100
-0.607676 6.122723 -0.486397 101
-0.228199 6.417972 0.159194 101
-0.421110 6.270013 -1.147234 48
-0.613335 6.190340 -0.204186 86
-0.228702 6.462741 0.259733 101
-0.431519 6.441205 -0.722975 13
-0.616073 6.228653 -0.109252 91
-0.412772 6.176940 -0.405761 101
-0.625868 6.338566 0.182363 101
-0.414755 6.222361 -0.312637 101
-0.629941 6.390812 0.282627 70
-0.217028 6.305418 -1.311387 93
-0.412151 6.242634 -0.217379 101
-0.793576 6.098278 -0.569407 101
-0.209506 6.116816 -0.697332 101
-0.412849 6.269242 -0.121733 101
-0.784332 6.035176 -0.469355 101
-0.211661 6.210266 -0.419261 101
-0.419063 6.379972 0.170776 101
-0.212164 6.255928 -0.325857 101
-0.419075 6.396612 0.269793 101
-0.611835 6.280174 -0.694391 14
-0.214631 6.360268 -0.037765 101
-0.596611 6.134598 -0.392097 101
-0.214763 6.396111 0.060318 101
-0.599565 6.175758 -0.299123 101
-0.217502 6.510322 0.361906 101
-0.396987 6.106703 -0.590328 101
-0.608481 6.278570 -0.013211 89
-0.217787 6.551888 0.465305 101
-0.398821 6.150904 -0.499178 100
-0.606602 6.270172 0.083564 94
-0.201353 6.150980 -0.605601 101
-0.404970 6.294936 -0.025322 101
-0.782123 6.090313 -0.378786 101
-0.201376 6.183490 -0.512994 101
-0.407730 6.354523 0.072241 101
-0.786829 6.135129 -0.286285 92
-0.204642 6.316439 -0.231735 101
-0.413923 6.468069 0.372574 101
-0.582746 6.076909 -0.577072 101
-0.203799 6.323282 -0.134732 101
-0.415979 6.517404 0.476144 100
-0.586680 6.128776 -0.486713 101
-0.206691 6.446706 0.159888 101
-0.398971 6.267518 -1.146516 42
-0.593244 6.208362 -0.204711 99
-0.206651 6.479479 0.260375 101
-0.408781 6.438704 -0.722530 19
-0.594327 6.230765 -0.109252 93
-0.391460 6.182327 -0.406023 101
-0.601843 6.320810 0.181791 101
-0.393536 6.231745 -0.313038 101
-0.606116 6.377059 0.281924 67
-0.196726 6.325675 -1.315457 82
-0.392948 6.267905 -0.218212 101
-0.607240 6.419975 0.383119 62
-0.769342 6.069265 -0.566457 100
-0.189467 6.125422 -0.698237 101
-0.392556 6.278559 -0.121888 101
-0.608535 6.445231 0.484502 0
-0.762812 6.025874 -0.468432 101
-0.191311 6.218912 -0.419800 101
-0.398899 6.397289 0.171203 101
-0.777736 6.152075 -0.191626 26
-0.190928 6.240626 -0.325025 101
-0.397613 6.393978 0.269625 101
-0.590261 6.274251 -0.693516 21
-0.193903 6.372939 -0.037836 101
-0.577011 6.144492 -0.392605 101
-0.193552 6.396788 0.060318 101
-0.578710 6.173735 -0.298930 101
-0.195912 6.511007 0.361906 101
-0.376979 6.111959 -0.590712 101
-0.585421 6.256658 -0.013161 100
-0.196417 6.564539 0.466154 100
-0.378911 6.160151 -0.499823 100
-0.589154 6.307990 0.084041 72
-0.180721 6.143656 -0.604818 101
-0.384093 6.296245 -0.025322 101
-0.760931 6.084950 -0.378293 101
-0.181686 6.212016 -0.515307 101
-0.386169 6.347856 0.072150 101
-0.763509 6.113914 -0.285176 101
-0.183463 6.309091 -0.231442 101
-0.392472 6.469406 0.372574 101
-0.563325 6.086738 -0.577825 101
-0.183060 6.331918 -0.134902 101
-0.394846 6.526711 0.476726 101
-0.566353 6.130688 -0.486713 101
-0.184967 6.435365 0.159591 101
-0.378185 6.268806 -1.146516 69
-0.573020 6.214276 -0.204843 99
-0.184935 6.472138 0.260054 101
-0.386472 6.424152 -0.720750 45
-0.574762 6.244650 -0.109461 100
-0.370717 6.179607 -0.405761 101
-0.580879 6.322771 0.181791 101
-0.373108 6.237003 -0.313238 101
-0.583871 6.367096 0.281396 62
-0.175076 6.341983 -1.318713 75
-0.369886 6.249285 -0.217518 101
-0.582291 6.394220 0.381459 81
-0.742794 6.028430 -0.562400 62
-0.167975 6.122073 -0.697785 101
-0.370637 6.279891 -0.121888 101
-0.587477 6.463206 0.485696 5
-0.741286 6.024541 -0.468125 101
-0.169493 6.215552 -0.419531 101
-0.376096 6.390660 0.170989 101
-0.761620 6.198403 -0.192985 101
-0.169468 6.253233 -0.325649 101
-0.376228 6.411285 0.270298 100
-0.572660 6.323791 -0.698766 26
-0.171657 6.373577 -0.037836 101
-0.555560 6.146468 -0.392605 101
-0.171650 6.413418 0.060468 101
-0.557874 6.183675 -0.299316 101
-0.173289 6.515644 0.362128 101
-0.355873 6.117213 -0.591096 101
-0.565371 6.278583 -0.013203 100
-0.357406 6.161437 -0.499823 100
-0.566415 6.302041 0.083935 87
-0.159893 6.168126 -0.607168 101
-0.363031 6.313520 -0.025386 101
-0.740168 6.091532 -0.378539 101
-0.159795 6.204642 -0.514646 101
-0.365154 6.369131 0.072377 101
-0.746494 6.152242 -0.286840 101
-0.161541 6.313689 -0.231588 101
-0.368519 6.446815 0.371197 101
-0.542781 6.096601 -0.578578 101
-0.160753 6.324523 -0.134732 101
-0.371834 6.524067 0.476435 100
-0.544596 6.128655 -0.486397 101
-0.163209 6.463953 0.160284 101
-0.356077 6.266160 -1.145797 66
-0.551325 6.216238 -0.204843 93
-0.162542 6.480735 0.260375 101
-0.365170 6.445306 -0.722975 78
-0.553313 6.250602 -0.109531 100
-0.350045 6.196804 -0.406807 101
-0.558453 6.320777 0.181677 101
-0.352008 6.250234 -0.313839 101
-0.562695 6.381037 0.281924 51
-0.153380 6.362132 -1.322783 79
-0.348707 6.262514 -0.217935 101
-0.557152 6.364394 0.379561 73
-0.724557 6.054718 -0.564613 66
-0.146966 6.138515 -0.699596 101
-0.349361 6.293127 -0.122121 101
-0.562811 6.441377 0.483905 53
-0.726386 6.078574 -0.472123 101
-0.148168 6.232065 -0.420608 101
-0.354442 6.403911 0.171310 101
-0.733813 6.149415 -0.191378 101
-0.147738 6.257781 -0.325857 101
-0.354511 6.424530 0.270802 100
-0.551965 6.341595 -0.700517 11
-0.742043 6.227188 -0.097422 40
-0.149611 6.382134 -0.037883 101
-0.535498 6.164277 -0.393621 101
-0.149289 6.413978 0.060468 101
-0.537002 6.193544 -0.299701 101
-0.150768 6.524194 0.362571 101
-0.334990 6.126367 -0.591864 101
-0.545904 6.308410 -0.013262 101
-0.336162 6.166625 -0.500146 100
-0.544807 6.307960 0.083988 100
-0.138533 6.172625 -0.607560 101
-0.341290 6.318739 -0.025402 101
-0.718981 6.094069 -0.378539 101
-0.138585 6.221102 -0.515968 101
-0.343230 6.374355 0.072423 101
-0.723237 6.138927 -0.286101 101
-0.139784 6.322205 -0.231881 101
-0.347835 6.479958 0.373034 101
-0.521261 6.094481 -0.578201 101
-0.139408 6.353030 -0.135328 101
-0.349607 6.533286 0.477017 100
-0.523653 6.134482 -0.486713 101
-0.141038 6.476474 0.160582 101
-0.334540 6.271287 -1.146516 68
-0.530429 6.226081 -0.205105 92
-0.140323 6.493248 0.260857 101
-0.334791 6.295691 -0.706059 73
-0.532647 6.264439 -0.109741 100
-0.328772 6.201966 -0.407069 101
-0.539919 6.362516 0.182821 101
-0.329296 6.231469 -0.312837 101
-0.539909 6.374985 0.281572 54
-0.734016 6.284415 -0.683995 6
-0.327053 6.267685 -0.218073 101
-0.536270 6.382216 0.380510 58
-0.700202 6.029515 -0.562032 100
-0.125538 6.138990 -0.699596 101
-0.327392 6.294308 -0.122121 101
-0.537656 6.411503 0.481517 52
-0.704704 6.077111 -0.471816 101
-0.126252 6.224565 -0.420069 101
-0.331879 6.401116 0.171203 101
-0.530443 6.338155 -1.035159 16
-0.711424 6.143996 -0.191131 101
-0.125893 6.258258 -0.325857 101
-0.331877 6.421737 0.270634 101
-0.537437 6.434614 -0.710580 4
-0.720301 6.229740 -0.097422 101
-0.127412 6.386617 -0.037907 101
-0.513314 6.158152 -0.393113 101
-0.126741 6.406462 0.060393 101
-0.515711 6.199362 -0.299894 101
-0.128150 6.532667 0.363015 101
-0.313196 6.119546 -0.591096 101
-0.523880 6.310277 -0.013262 97
-0.313619 6.147852 -0.498532 98
-0.523115 6.313809 0.084041 100
-0.116834 6.165111 -0.606776 101
-0.318223 6.299917 -0.025322 101
-0.698612 6.104475 -0.379032 101
-0.116793 6.217562 -0.515638 101
-0.321380 6.383504 0.072513 101
-0.704526 6.165233 -0.287210 101
-0.117789 6.326651 -0.232028 101
-0.325414 6.485121 0.373263 101
-0.500960 6.108171 -0.579331 101
-0.717404 6.287202 -0.001104 100
-0.117157 6.349479 -0.135243 101
-0.326799 6.534467 0.477017 101
-0.501261 6.124350 -0.485767 101
-0.118577 6.484923 0.160780 101
-0.312256 6.264556 -1.145079 74
-0.508367 6.223910 -0.204974 100
-0.118091 6.517674 0.261820 101
-0.305318 6.145952 -0.689142 67
-0.510451 6.262273 -0.109671 100
-0.307911 6.219022 -0.408116 101
-0.518355 6.372332 0.183050 101
-0.307936 6.240561 -0.313238 101
-0.518946 6.392763 0.282275 68
-0.704019 6.215810 -0.676257 8
-0.305561 6.276774 -0.218351 101
-0.515911 6.407930 0.381933 64
-0.677813 6.020049 -0.560925 101
-0.104176 6.143365 -0.700049 101
-0.305418 6.295413 -0.122121 101
-0.517828 6.445149 0.483905 51
-0.683932 6.083497 -0.472123 101
-0.104590 6.228958 -0.420338 101
-0.309340 6.398242 0.171096 101
-0.507053 6.324226 -1.032589 12
-0.692203 6.166308 -0.191749 101
-0.104047 6.258659 -0.325857 101
-0.308881 6.410881 0.270129 101
-0.512436 6.404744 -0.707080 16
-0.696324 6.212343 -0.097111 101
-0.105183 6.391022 -0.037931 101
-0.491180 6.151947 -0.392605 101
-0.104834 6.434860 0.060657 101
-0.495337 6.217055 -0.300664 101
-0.105217 6.525087 0.362571 101
-0.292591 6.136510 -0.592632 101
-0.500582 6.296118 -0.013228 100
-0.866412 6.020809 -0.457370 3
-0.293292 6.172804 -0.500469 100
-0.501389 6.319583 0.084094 100
-0.095375 6.169461 -0.607168 101
-0.296793 6.312976 -0.025370 101
-0.678180 6.114812 -0.379525 101
-0.095028 6.213946 -0.515307 101
-0.299282 6.388582 0.072559 101
-0.682561 6.163683 -0.287025 101
-0.095583 6.319030 -0.231735 101
-0.302402 6.478240 0.372804 101
-0.478389 6.094002 -0.577825 101
-0.691936 6.257862 -0.001099 101
-0.095172 6.361845 -0.135499 101
-0.303988 6.535568 0.477017 100
-0.481126 6.141964 -0.487028 101
-0.698276 6.324837 0.096630 9
-0.095999 6.489296 0.160879 101
-0.290204 6.261677 -1.144361 92
-0.486327 6.221661 -0.204843 100
-0.095339 6.518047 0.261820 101
-0.282763 6.123155 -0.686471 100
-0.488900 6.268004 -0.109741 101
-0.285283 6.200123 -0.406807 101
-0.493936 6.346199 0.182249 101
-0.286883 6.257560 -0.314039 101
-0.499103 6.426408 0.283682 86
-0.680582 6.202417 -0.674537 17
-0.284057 6.285788 -0.218629 101
-0.494814 6.425612 0.382882 76
-0.655976 6.014454 -0.560188 101
-0.082759 6.143691 -0.700049 101
-0.283830 6.304430 -0.122276 101
-0.496884 6.466801 0.485398 60
-0.663584 6.093774 -0.472738 101
-0.082751 6.221303 -0.419800 101
-0.287374 6.407271 0.171310 101
-0.483778 6.310211 -1.030019 18
-0.674142 6.200483 -0.192737 101
-0.082350 6.270967 -0.326481 101
-0.286851 6.419906 0.270466 100
-0.492496 6.438210 -0.710580 16
-0.669880 6.170999 -0.096428 100
-0.082642 6.375352 -0.037836 101
-0.469679 6.153626 -0.392605 101
-0.082175 6.423189 0.060544 101
-0.471467 6.190863 -0.299316 101
-0.082630 6.545383 0.363681 101
-0.271286 6.141475 -0.593016 101
-0.480662 6.325751 -0.013287 100
-0.846996 6.035655 -0.458270 76
-0.272368 6.189726 -0.501761 100
-0.480155 6.333266 0.084254 101
-0.073853 6.181699 -0.608343 101
-0.275493 6.333961 -0.025450 101
-0.654999 6.101278 -0.378539 101
-0.073096 6.206269 -0.514646 101
-0.276137 6.373610 0.072377 101
-0.659193 6.150152 -0.286285 101
-0.073497 6.331318 -0.232175 101
-0.279960 6.487242 0.373263 101
-0.459037 6.123445 -0.580460 101
-0.670774 6.268212 -0.001100 101
-0.072641 6.350144 -0.135243 101
-0.281838 6.556526 0.478471 88
-0.459801 6.147596 -0.487343 101
-0.673885 6.307372 0.096326 101
-0.073138 6.489594 0.160879 101
-0.268649 6.274455 -1.146516 65
-0.464407 6.223335 -0.204843 100
-0.072359 6.518342 0.261820 101
-0.261004 6.120142 -0.686025 101
-0.467096 6.273677 -0.109811 100
-0.264252 6.221030 -0.408116 101
-0.473911 6.379801 0.183165 101
-0.265291 6.270509 -0.314640 101
-0.476112 6.424146 0.283506 100
-0.659516 6.212691 -0.675397 32
-0.262876 6.278707 -0.218351 101
-0.472916 6.419254 0.382407 89
-0.638122 6.036401 -0.562032 101
-0.062385 6.143932 -0.700049 101
-0.262922 6.305336 -0.122276 101
-0.475145 6.464435 0.485099 65
-0.642954 6.091975 -0.472431 101
-0.062319 6.241497 -0.421146 101
-0.265959 6.404194 0.171203 101
-0.461984 6.299968 -1.028091 11
-0.652739 6.194732 -0.192490 101
-0.061515 6.267211 -0.326273 101
-0.266056 6.432801 0.270970 101
-0.471433 6.443772 -0.711018 8
-0.650249 6.181141 -0.096552 101
-0.061500 6.375591 -0.037836 101
-0.449851 6.163113 -0.393113 101
-0.665683 6.338164 0.194714 21
-0.061026 6.439425 0.060695 101
-0.451805 6.204347 -0.299894 101
-0.060924 6.545621 0.363681 101
-0.251082 6.146319 -0.593400 101
-0.458524 6.311352 -0.013253 100
-0.823729 6.014719 -0.456470 60
-0.252327 6.202546 -0.502729 100
-0.458573 6.326845 0.084148 100
-0.053422 6.189872 -0.609126 101
-0.253845 6.318852 -0.025386 101
-0.636828 6.123271 -0.379771 101
-0.052616 6.218436 -0.515638 101
-0.254840 6.370494 0.072332 101
-0.639620 6.160253 -0.286655 101
-0.052468 6.327530 -0.232028 101
-0.258605 6.492126 0.373493 101
-0.438444 6.120961 -0.580084 101
-0.649984 6.270401 -0.001100 101
-0.051583 6.350350 -0.135243 101
-0.259304 6.537493 0.477017 93
-0.439696 6.153064 -0.487658 101
-0.652965 6.309572 0.096326 101
-0.051776 6.509794 0.161375 101
-0.248307 6.287107 -1.148671 59
-0.444904 6.240792 -0.205367 93
-0.050743 6.518547 0.261820 101
-0.241645 6.144807 -0.688696 101
-0.446005 6.271203 -0.109741 100
-0.243621 6.221872 -0.408116 101
-0.451620 6.365384 0.182707 101
-0.244495 6.271354 -0.314640 101
-0.455935 6.441634 0.284210 100
-0.637283 6.199020 -0.673677 30
-0.240805 6.275592 -0.218212 101
-0.451065 6.428832 0.382882 91
-0.619071 6.058403 -0.563876 101
-0.040965 6.148086 -0.700502 101
-0.240911 6.306216 -0.122276 101
-0.451463 6.450138 0.483905 70
-0.622495 6.102117 -0.473046 101
-0.040584 6.249659 -0.421685 101
-0.244210 6.421066 0.171630 101
-0.439715 6.297604 -1.027448 14
-0.631921 6.204927 -0.192737 101
-0.039739 6.283366 -0.327105 101
-0.243751 6.437684 0.271139 101
-0.448385 6.437446 -0.710143 8
-0.631905 6.215206 -0.097049 101
-0.039442 6.407766 -0.038026 101
-0.429165 6.176592 -0.393875 101
-0.641940 6.324539 0.194225 101
-0.038548 6.439599 0.060695 101
-0.430421 6.209872 -0.300086 101
-0.648953 6.404418 0.295690 22
-0.038122 6.553782 0.364125 101
-0.229923 6.155115 -0.594169 101
-0.437594 6.328876 -0.013287 100
-0.805366 6.037327 -0.457970 65
-0.230823 6.207373 -0.503052 100
-0.436760 6.332397 0.084201 101
-0.816779 6.130797 -0.369621 54
-0.031713 6.170117 -0.607168 101
-0.232080 6.327694 -0.025418 101
-0.613853 6.109567 -0.378786 101
-0.030929 6.222569 -0.515968 101
-0.233476 6.395328 0.072604 101
-0.617714 6.158472 -0.286470 101
-0.030381 6.327674 -0.232028 101
-0.236521 6.508952 0.374411 101
-0.417075 6.122454 -0.580084 101
-0.628092 6.272632 -0.001100 101
-0.029490 6.366488 -0.135584 101
-0.417945 6.150583 -0.487343 101
-0.631334 6.315792 0.096387 101
-0.028963 6.489942 0.160879 101
-0.226501 6.291868 -1.149389 47
-0.422846 6.238318 -0.205236 97
-0.028040 6.530674 0.262301 101
-0.220194 6.145613 -0.688696 101
-0.424921 6.284692 -0.109950 100
-0.812340 6.161194 -0.563378 100
-0.222043 6.226673 -0.408377 101
-0.431282 6.394847 0.183508 101
-0.222603 6.272169 -0.314640 101
-0.433446 6.443186 0.284210 100
-0.620748 6.252653 -0.679266 21
-0.219269 6.288381 -0.218629 101
-0.429105 6.438339 0.383356 83
-0.600612 6.088278 -0.566457 101
-0.019513 6.160115 -0.701860 101
-0.219839 6.334997 -0.122818 101
-0.430767 6.479537 0.485995 84
-0.601553 6.108224 -0.473354 101
-0.018697 6.229807 -0.420338 101
-0.221922 6.425876 0.171737 101
-0.417458 6.295162 -1.026806 15
-0.609074 6.195160 -0.192367 101
-0.017813 6.283466 -0.327105 101
-0.221422 6.442489 0.271307 101
-0.424606 6.419135 -0.707955 12
-0.611385 6.229314 -0.097235 101
-0.017056 6.391865 -0.037931 101
-0.408152 6.186018 -0.394383 100
-0.619884 6.326738 0.194225 101
-0.016122 6.443694 0.060732 101
-0.409833 6.227281 -0.300857 101
-0.624691 6.386755 0.294772 101
-0.015335 6.565856 0.364790 101
-0.208899 6.167816 -0.595321 101
-0.415821 6.334352 -0.013295 100
-0.785372 6.048005 -0.458570 101
-0.209230 6.208138 -0.503052 100
-0.415777 6.349843 0.084413 100
-0.795963 6.137560 -0.369860 92
-0.010350 6.198055 -0.609910 101
-0.210520 6.340455 -0.025466 101
-0.594191 6.127555 -0.379771 101
-0.009373 6.234597 -0.516960 101
-0.211170 6.392101 0.072559 101
-0.598669 6.184440 -0.287580 101
-0.008487 6.347728 -0.232761 101
-0.213316 6.489776 0.373263 101
-0.395606 6.119888 -0.579707 101
-0.607513 6.286715 -0.001102 101
-0.007457 6.370551 -0.135669 101
-0.397166 6.159952 -0.487973 101
-0.609853 6.321921 0.096447 101
-0.006541 6.513996 0.161474 101
-0.204866 6.296546 -1.150108 54
-0.401268 6.239743 -0.205236 99
-0.619976 6.438062 0.396723 4
-0.005488 6.550716 0.263104 101
-0.198569 6.134418 -0.687361 101
-0.402944 6.282132 -0.109880 101
-0.786987 6.132354 -0.560489 77
-0.201313 6.251339 -0.409947 101
-0.408943 6.392308 0.183394 101
-0.787398 6.143656 -0.274764 47
-0.201346 6.284879 -0.315241 101
-0.410960 6.440655 0.284034 100
-0.601447 6.278510 -0.681846 25
-0.197693 6.301095 -0.219046 101
-0.406376 6.435812 0.383119 86
-0.579356 6.090337 -0.566457 101
0.001990 6.160145 -0.701860 101
-0.197225 6.319736 -0.122508 101
-0.408398 6.484982 0.486293 93
-0.579851 6.106317 -0.473046 101
0.003064 6.261762 -0.422493 101
-0.199490 6.426611 0.171737 101
-0.394738 6.284760 -1.024878 23
-0.588577 6.209189 -0.192737 101
0.004134 6.303463 -0.328144 101
-0.199919 6.475180 0.272652 101
-0.390265 6.230103 -0.686953 14
-0.592274 6.259283 -0.097670 101
0.005262 6.399885 -0.037978 101
-0.386307 6.183421 -0.394129 100
-0.597044 6.320903 0.193981 101
0.006371 6.443711 0.060732 101
-0.387845 6.224686 -0.300664 101
-0.602018 6.384919 0.294588 101
0.007566 6.549894 0.363903 101
-0.186884 6.152589 -0.593784 101
-0.393708 6.335765 -0.013295 100
-0.763256 6.042795 -0.457970 101
-0.187318 6.200861 -0.502406 100
-0.392867 6.339279 0.084254 100
-0.772535 6.124455 -0.368905 62
0.011336 6.225919 -0.612652 101
-0.189099 6.365140 -0.025563 101
-0.573170 6.133567 -0.380017 101
0.012381 6.230606 -0.516629 101
-0.188974 6.396798 0.072604 101
-0.577448 6.190470 -0.287765 101
0.013653 6.339725 -0.232468 101
-0.191364 6.514431 0.374640 101
-0.375456 6.141106 -0.581589 101
-0.586677 6.300745 -0.001104 101
0.014789 6.374537 -0.135754 101
-0.375904 6.165281 -0.488289 101
-0.587042 6.316046 0.096326 101
0.016167 6.501983 0.161177 101
-0.184828 6.364089 -1.162320 62
-0.380213 6.253078 -0.205630 90
-0.597130 6.436212 0.396479 100
0.017325 6.530712 0.262301 101
-0.177729 6.154941 -0.689587 101
-0.381497 6.291484 -0.110020 101
-0.599105 6.469201 0.498767 2
-0.761137 6.099487 -0.557239 88
-0.179032 6.236044 -0.408900 101
-0.387834 6.413651 0.183966 101
-0.765454 6.142402 -0.274587 100
-0.179064 6.273563 -0.314640 101
-0.388475 6.442050 0.284034 100
-0.581720 6.304331 -0.684425 17
-0.773256 6.213440 -0.181458 12
-0.175363 6.289759 -0.218629 101
-0.384384 6.445163 0.383594 93
-0.557003 6.080423 -0.565351 101
0.023508 6.164075 -0.702313 101
-0.175718 6.340375 -0.122896 101
-0.385285 6.478404 0.485696 100
-0.559259 6.116247 -0.473661 101
0.024874 6.249741 -0.421685 101
-0.177496 6.443257 0.172164 101
-0.372798 6.286099 -1.024878 16
-0.569080 6.235095 -0.193479 101
0.026154 6.307405 -0.328352 101
-0.176987 6.463853 0.272148 100
-0.362412 6.128232 -0.675576 29
-0.570059 6.257329 -0.097608 101
0.027671 6.415827 -0.038073 101
-0.365896 6.204657 -0.395399 101
-0.575338 6.326930 0.194103 101
0.028917 6.455648 0.060845 101
-0.366349 6.229990 -0.300857 101
-0.578644 6.375043 0.294038 100
0.030466 6.557816 0.364347 101
-0.165621 6.161164 -0.594553 101
-0.372058 6.345087 -0.013312 100
-0.742644 6.049381 -0.458270 101
-0.165991 6.213434 -0.503375 100
-0.371437 6.352591 0.084413 95
-0.752124 6.135041 -0.369383 61
0.032963 6.205938 -0.610693 101
-0.166460 6.349767 -0.025498 101
-0.552829 6.147460 -0.380756 101
0.034218 6.246469 -0.517952 101
-0.167165 6.417410 0.072831 101
-0.554764 6.180509 -0.287210 101
0.035806 6.343636 -0.232614 101
-0.168727 6.519051 0.374870 101
-0.354476 6.150331 -0.582342 101
-0.564323 6.298771 -0.001104 101
0.037203 6.402440 -0.136350 101
-0.354839 6.174517 -0.488919 101
-0.567128 6.341959 0.096690 101
0.038935 6.513883 0.161474 101
-0.163818 6.411900 -1.170940 66
-0.358155 6.250375 -0.205499 97
-0.573240 6.422350 0.395499 79
0.040244 6.550595 0.263104 101
-0.156243 6.155524 -0.689587 101
-0.359077 6.284791 -0.109880 101
-0.576165 6.467280 0.498461 84
-0.736964 6.078378 -0.555072 93
-0.157162 6.232641 -0.408639 101
-0.364307 6.395007 0.183394 101
-0.741607 6.125201 -0.273701 100
-0.157664 6.294118 -0.315641 101
-0.367119 6.463315 0.284913 100
-0.563578 6.349897 -0.689154 13
-0.748683 6.192286 -0.180763 65
-0.153517 6.294329 -0.218768 101
-0.362345 6.454438 0.384068 84
-0.536837 6.094233 -0.566457 101
-0.747231 6.214659 -0.085218 3
0.044987 6.159981 -0.701860 101
-0.153690 6.344948 -0.122973 101
-0.362454 6.475727 0.485398 100
-0.537215 6.110215 -0.473046 101
0.046866 6.273561 -0.423300 101
-0.154911 6.439840 0.172057 101
-0.350636 6.283421 -1.024236 21
-0.547315 6.237043 -0.193479 101
0.048172 6.307275 -0.328352 101
-0.154707 6.476418 0.272652 101
-0.339912 6.109611 -0.673388 47
-0.548560 6.263265 -0.097670 101
0.050104 6.419692 -0.038097 101
-0.344007 6.201910 -0.395145 101
-0.551850 6.312969 0.193614 101
0.051464 6.455508 0.060845 101
-0.344589 6.231232 -0.300857 101
-0.557764 6.392948 0.294772 100
0.053505 6.573644 0.365234 101
-0.144562 6.181607 -0.596473 101
-0.349890 6.346348 -0.013312 100
-0.719146 6.032135 -0.456770 101
-0.143724 6.190061 -0.501438 100
-0.349238 6.353849 0.084413 100
-0.730682 6.137632 -0.369383 67
0.054767 6.217726 -0.611869 101
-0.144621 6.366306 -0.025563 101
-0.530988 6.145378 -0.380510 101
0.055956 6.234353 -0.516960 101
-0.144450 6.405959 0.072695 101
-0.533489 6.186392 -0.287395 101
0.058106 6.355463 -0.233054 101
-0.146100 6.527586 0.375329 101
-0.333390 6.159486 -0.583095 101
-0.543658 6.316648 -0.001107 101
0.059604 6.402271 -0.136350 101
-0.332588 6.163776 -0.487973 100
-0.545962 6.355859 0.096873 101
0.061807 6.521704 0.161672 101
-0.336708 6.259574 -0.205761 100
-0.553488 6.456140 0.397458 87
-0.737034 6.253332 -0.668468 1
0.063213 6.554410 0.263265 101
-0.134434 6.144111 -0.688251 101
-0.337718 6.297991 -0.110090 101
-0.554203 6.477205 0.499073 100
-0.715682 6.080921 -0.555072 101
-0.135599 6.245125 -0.409424 101
-0.343194 6.420199 0.184081 101
-0.545834 6.391970 -0.941828 2
-0.721555 6.139666 -0.274233 100
-0.135621 6.294632 -0.315641 101
-0.344482 6.464561 0.284913 100
-0.725595 6.182956 -0.180415 70
-0.131879 6.310813 -0.219324 101
-0.340023 6.459651 0.384305 86
-0.514553 6.084163 -0.565351 101
-0.723679 6.201339 -0.085000 89
0.066489 6.159787 -0.701860 101
-0.131375 6.337449 -0.122818 101
-0.341728 6.512803 0.488084 99
-0.516889 6.123975 -0.473969 101
0.068502 6.249415 -0.421685 101
-0.132348 6.436344 0.171950 101
-0.327876 6.268836 -1.021665 11
-0.524869 6.230948 -0.193232 101
0.070189 6.307069 -0.328352 101
-0.132344 6.488905 0.273157 100
-0.318377 6.106790 -0.672951 71
-0.526024 6.257171 -0.097546 101
0.072649 6.431477 -0.038168 101
-0.322564 6.207060 -0.395399 101
-0.533487 6.358682 0.194958 101
0.074089 6.463288 0.060921 101
-0.324282 6.260326 -0.302205 101
-0.538112 6.426711 0.296240 101
0.076497 6.577411 0.365456 101
-0.122904 6.178093 -0.596089 101
-0.327323 6.339541 -0.013295 100
-0.699919 6.050458 -0.457970 101
-0.122430 6.206469 -0.502729 100
-0.328496 6.382990 0.084784 100
-0.708795 6.136178 -0.369144 75
0.076373 6.209537 -0.611085 101
-0.122090 6.350775 -0.025498 101
-0.509863 6.151172 -0.380756 101
0.077817 6.242092 -0.517621 101
-0.122088 6.406425 0.072695 101
-0.511562 6.184235 -0.287210 101
0.080189 6.347228 -0.232761 101
-0.123389 6.532049 0.375559 101
-0.311686 6.156635 -0.582719 101
-0.520618 6.306547 -0.001104 101
0.082003 6.406023 -0.136435 101
-0.311673 6.176847 -0.488919 101
-0.523444 6.353740 0.096812 101
0.084571 6.521448 0.161672 101
-0.315056 6.264705 -0.205892 88
-0.531603 6.465991 0.397948 100
-0.709780 6.208443 -0.663401 4
0.086092 6.554150 0.263265 101
-0.113278 6.160440 -0.690032 101
-0.315732 6.299131 -0.110090 101
-0.532895 6.495000 0.500298 101
-0.694452 6.083382 -0.555072 101
-0.114090 6.261523 -0.410470 101
-0.320782 6.421358 0.184081 101
-0.521258 6.366226 -0.937761 35
-0.701477 6.154058 -0.274764 101
-0.113576 6.291073 -0.315441 101
-0.322113 6.469716 0.285089 94
-0.525638 6.432955 -0.697752 6
-0.702199 6.169560 -0.179952 68
-0.109710 6.303241 -0.219046 101
-0.317668 6.464787 0.384543 84
-0.493313 6.085922 -0.565351 101
-0.702477 6.207801 -0.085055 98
0.088218 6.175413 -0.703671 101
-0.109459 6.349864 -0.123051 101
-0.319382 6.521924 0.488681 94
-0.495831 6.129717 -0.474276 101
-0.707342 6.260156 0.010996 100
0.090604 6.269090 -0.423031 101
-0.110085 6.448760 0.172271 101
-0.306954 6.289659 -1.024878 21
-0.502472 6.224771 -0.192985 101
0.092145 6.302791 -0.328144 101
-0.109355 6.469348 0.272316 101
-0.297444 6.115806 -0.673826 78
-0.503858 6.254982 -0.097484 101
0.095098 6.431184 -0.038168 101
-0.301668 6.224097 -0.396414 101
-0.510967 6.356520 0.194836 101
0.096829 6.474988 0.061034 101
-0.301078 6.233486 -0.300857 101
-0.514717 6.416601 0.295690 101
0.099577 6.585091 0.365900 101
-0.101468 6.186447 -0.596857 101
-0.305576 6.348636 -0.013312 100
-0.680128 6.064756 -0.458870 101
-0.100959 6.218818 -0.503698 100
-0.305255 6.364123 0.084519 101
-0.687372 6.138615 -0.369144 91
0.098487 6.237094 -0.613827 101
-0.100298 6.375160 -0.025595 101
-0.488388 6.152915 -0.380756 101
-0.697375 6.256332 0.107683 1
0.099796 6.253739 -0.518613 101
-0.099974 6.422809 0.072876 101
-0.490918 6.197932 -0.287765 101
0.102796 6.374887 -0.233787 101
-0.100772 6.544419 0.376247 101
-0.290381 6.161664 -0.583095 101
-0.499231 6.316301 -0.001106 101
-0.875630 6.104996 -0.451829 2
0.104168 6.393702 -0.136180 101
-0.290484 6.185863 -0.489550 101
-0.500633 6.347554 0.096690 101
0.107532 6.533108 0.161970 101
-0.293186 6.265766 -0.205892 100
-0.507463 6.447906 0.396723 87
-0.689856 6.226697 -0.665090 21
0.109235 6.569794 0.263907 101
-0.092129 6.184646 -0.692703 101
-0.293742 6.300195 -0.110090 101
-0.508971 6.480916 0.499073 100
-0.671460 6.069931 -0.553627 101
-0.092056 6.249910 -0.409685 101
-0.298179 6.418445 0.183966 101
-0.497795 6.352224 -0.935437 32
-0.683062 6.184273 -0.276005 101
-0.091790 6.303415 -0.316042 101
-0.299897 6.478785 0.285441 100
-0.501940 6.418892 -0.696033 24
-0.679344 6.160051 -0.179604 62
-0.087796 6.307582 -0.219185 101
-0.294588 6.453888 0.383831 81
-0.472406 6.091575 -0.565720 101
-0.678222 6.186357 -0.084728 81
0.109682 6.171094 -0.703218 101
-0.087204 6.342210 -0.122896 101
-0.296274 6.515028 0.488084 51
-0.474144 6.127433 -0.473969 101
-0.685071 6.258608 0.010989 100
0.112694 6.280707 -0.423839 101
-0.087691 6.457101 0.172484 101
-0.285005 6.290691 -1.024878 20
-0.480441 6.222501 -0.192861 101
0.114368 6.314413 -0.328768 101
-0.087088 6.493667 0.273325 101
-0.276807 6.132695 -0.675576 80
-0.484167 6.284617 -0.097919 101
0.117418 6.422814 -0.038121 101
-0.279743 6.221125 -0.396160 100
-0.489065 6.362253 0.194958 101
0.119609 6.482609 0.061109 101
-0.280003 6.250465 -0.301627 101
-0.492591 6.422345 0.295873 100
-0.079779 6.182783 -0.596473 101
-0.283905 6.361654 -0.013337 90
-0.660635 6.082959 -0.460069 101
-0.079348 6.231093 -0.504667 100
-0.283692 6.381135 0.084731 101
-0.669329 6.172740 -0.371053 100
0.120121 6.224770 -0.612652 101
-0.077802 6.363473 -0.025547 101
-0.467721 6.166532 -0.381495 101
-0.678872 6.290549 0.108230 44
0.121421 6.237409 -0.517291 101
-0.077444 6.423120 0.072876 101
-0.469175 6.199616 -0.287765 101
0.125012 6.366493 -0.233494 101
-0.077660 6.532753 0.375559 101
-0.269100 6.170601 -0.583848 101
-0.477361 6.322003 -0.001107 101
-0.850883 6.084327 -0.450075 42
0.127016 6.413288 -0.136606 101
-0.268933 6.190829 -0.489865 100
-0.478340 6.349273 0.096690 101
0.130407 6.528692 0.161870 101
-0.271514 6.274746 -0.206155 100
-0.484505 6.445668 0.396479 79
-0.663732 6.189533 -0.660867 22
0.132654 6.585353 0.264549 101
-0.070249 6.173007 -0.691368 101
-0.271762 6.305185 -0.110160 100
-0.484691 6.462780 0.497543 100
-0.651388 6.084137 -0.554711 101
-0.070114 6.254187 -0.409947 101
-0.274913 6.403475 0.183508 101
-0.473084 6.322364 -0.930789 29
-0.659604 6.170744 -0.275296 101
-0.069558 6.299704 -0.315842 101
-0.276579 6.467823 0.284913 91
-0.480824 6.440448 -0.698182 9
-0.659355 6.178308 -0.180068 66
-0.066879 6.307839 -0.219185 101
-0.274029 6.474777 0.385017 84
-0.453677 6.112968 -0.567563 101
-0.657280 6.184595 -0.084674 82
0.130313 6.178643 -0.704124 101
-0.066423 6.366458 -0.123361 101
-0.275172 6.527931 0.488980 22
-0.454116 6.132949 -0.474276 101
-0.663046 6.248912 0.010968 100
0.133521 6.280298 -0.423839 101
-0.066360 6.465353 0.172698 101
-0.264309 6.295547 -1.025521 19
-0.460687 6.236022 -0.193232 101
0.135563 6.325980 -0.329392 101
-0.065554 6.493920 0.273325 101
-0.255638 6.113717 -0.673388 80
-0.463030 6.282199 -0.097857 101
0.138889 6.430387 -0.038168 101
-0.259278 6.226007 -0.396414 101
-0.469723 6.387764 0.195691 101
0.141018 6.478178 0.061072 101
-0.259605 6.259343 -0.302012 101
-0.469244 6.396048 0.294588 101
-0.059467 6.202919 -0.598393 101
-0.262477 6.354568 -0.013320 95
-0.639625 6.077183 -0.459470 101
-0.058684 6.231322 -0.504667 100
-0.262694 6.386037 0.084784 100
-0.649273 6.178896 -0.371292 101
0.140762 6.224338 -0.612652 101
-0.056807 6.375696 -0.025595 101
-0.447270 6.168049 -0.381495 101
-0.653849 6.252988 0.107546 66
0.142740 6.264869 -0.519604 101
-0.056179 6.427341 0.072922 101
-0.449191 6.209109 -0.288135 101
-0.667486 6.393865 0.208766 16
0.146215 6.370040 -0.233640 101
-0.056133 6.548947 0.376477 101
-0.249278 6.187376 -0.585354 101
-0.456970 6.331531 -0.001108 101
-0.830163 6.083162 -0.449783 34
0.148190 6.408834 -0.136521 101
-0.248881 6.203640 -0.490811 100
-0.458144 6.362792 0.096873 101
0.152243 6.536219 0.162069 101
-0.250705 6.275612 -0.206155 99
-0.463700 6.455204 0.396968 92
-0.643614 6.195656 -0.661290 15
0.154116 6.568895 0.263907 101
-0.049778 6.173206 -0.691368 101
-0.250852 6.306051 -0.110160 100
-0.463827 6.472308 0.498155 100
-0.630387 6.078339 -0.553988 101
-0.049500 6.270350 -0.410993 101
-0.254151 6.416337 0.183852 101
-0.450140 6.296266 -0.926722 41
-0.640784 6.188797 -0.276005 101
-0.048760 6.311884 -0.316442 101
-0.255287 6.472697 0.285089 100
-0.455786 6.390439 -0.692593 15
-0.640919 6.200346 -0.180647 88
-0.045002 6.328021 -0.219879 101
-0.250806 6.459734 0.384068 77
-0.432336 6.114515 -0.567563 101
-0.636915 6.198788 -0.084837 76
0.151978 6.182124 -0.704577 101
-0.044282 6.378649 -0.123593 101
-0.433267 6.142453 -0.474891 101
-0.644495 6.283021 0.011023 100
0.155442 6.279794 -0.423839 101
-0.043764 6.461547 0.172591 101
-0.242787 6.308266 -1.027448 18
-0.439197 6.241580 -0.193355 101
0.158042 6.341442 -0.330224 101
-0.043018 6.514091 0.274166 101
-0.235209 6.138411 -0.676014 80
-0.441098 6.283777 -0.097857 101
-0.828857 6.164093 -0.551800 3
0.161535 6.437860 -0.038216 101
-0.237544 6.226874 -0.396414 101
-0.446585 6.377399 0.195324 101
0.164338 6.505636 0.061336 101
-0.237754 6.260211 -0.302012 101
-0.449699 6.437508 0.296424 101
-0.037766 6.195127 -0.597625 101
-0.240294 6.355445 -0.013320 100
-0.618408 6.079379 -0.459470 101
-0.036909 6.227502 -0.504344 100
-0.239950 6.374925 0.084625 100
-0.627701 6.181125 -0.371292 101
0.163112 6.247685 -0.615002 101
-0.034616 6.387855 -0.025643 101
-0.424637 6.153641 -0.380510 101
-0.632420 6.259212 0.107615 81
0.164293 6.252378 -0.518613 101
-0.033827 6.443497 0.073103 101
-0.428063 6.218611 -0.288505 101
-0.640348 6.348423 0.207208 46
0.169189 6.397462 -0.234666 101
-0.033314 6.557090 0.376936 101
-0.227678 6.188209 -0.585354 101
-0.435688 6.345059 -0.001110 101
-0.808924 6.086023 -0.449783 70
0.170667 6.412275 -0.136606 101
-0.226641 6.188531 -0.489550 101
-0.435657 6.360362 0.096812 101
-0.813437 6.127917 -0.357515 87
0.175379 6.547639 0.162366 101
-0.229234 6.288434 -0.206548 90
-0.440892 6.452800 0.396723 99
-0.625955 6.237442 -0.665512 14
0.176722 6.556331 0.263425 101
-0.028248 6.177318 -0.691813 101
-0.229128 6.314882 -0.110299 101
-0.443401 6.505720 0.500604 101
-0.609960 6.088430 -0.554711 101
-0.027577 6.262502 -0.410470 101
-0.232186 6.429173 0.184195 101
-0.427354 6.285953 -0.924979 29
-0.617189 6.171114 -0.275119 101
-0.026727 6.312016 -0.316442 101
-0.233122 6.485529 0.285617 100
-0.420292 6.197573 -0.671528 100
-0.621258 6.222438 -0.181226 93
-0.021819 6.336139 -0.220157 101
-0.227532 6.472582 0.384780 94
-0.409107 6.104137 -0.566457 101
-0.616933 6.228943 -0.085218 99
0.174758 6.185497 -0.705030 101
-0.020880 6.374769 -0.123516 101
-0.410474 6.140022 -0.474584 101
-0.620271 6.273401 0.011003 100
0.178575 6.283172 -0.424108 101
-0.020090 6.465663 0.172698 101
-0.220485 6.332788 -1.031304 17
-0.416846 6.251126 -0.193602 101
-0.634207 6.425387 0.309004 85
0.180939 6.328841 -0.329600 101
-0.019145 6.514205 0.274166 101
-0.212436 6.131284 -0.675139 80
-0.417801 6.281361 -0.097795 101
-0.801097 6.127583 -0.548265 68
0.185466 6.449220 -0.038287 101
-0.215278 6.243661 -0.397430 101
-0.424011 6.390961 0.195691 101
-0.798864 6.118515 -0.261855 1
0.187587 6.484999 0.061147 101
-0.215097 6.269026 -0.302397 101
-0.425590 6.431138 0.296057 101
-0.015090 6.199205 -0.598009 101
-0.216611 6.344289 -0.013295 100
-0.595753 6.077632 -0.459170 101
-0.014121 6.231582 -0.504667 100
-0.217155 6.391749 0.084837 100
-0.605458 6.187356 -0.371530 101
0.185963 6.247046 -0.615002 101
-0.011272 6.399939 -0.025691 101
-0.402126 6.155153 -0.380510 101
-0.613396 6.301289 0.108299 99
0.187274 6.255720 -0.518943 101
-0.010252 6.435578 0.073013 101
-0.404801 6.212161 -0.288135 101
-0.615970 6.338785 0.206819 51
0.192214 6.384814 -0.234227 101
-0.009337 6.553175 0.376707 101
-0.205187 6.192979 -0.585730 101
-0.411971 6.338626 -0.001109 101
-0.786159 6.084983 -0.449491 86
0.193858 6.403614 -0.136435 101
-0.204155 6.193304 -0.489865 101
-0.412410 6.361912 0.096812 101
-0.787970 6.107086 -0.356130 100
0.199178 6.542958 0.162267 101
-0.206126 6.285234 -0.206417 94
-0.417828 6.462336 0.397213 82
-0.605841 6.267402 -0.668468 12
0.201157 6.571621 0.264067 101
-0.005692 6.185330 -0.692703 101
-0.206322 6.323671 -0.110439 100
-0.419636 6.507296 0.500604 101
-0.588483 6.098548 -0.555433 101
-0.004715 6.270544 -0.410993 101
-0.209097 6.441966 0.184538 101
-0.405414 6.303269 -0.927303 44
-0.597333 6.201170 -0.276360 101
-0.003685 6.312072 -0.316442 101
-0.209832 6.498320 0.286145 93
-0.391809 6.107786 -0.661640 51
-0.599304 6.232624 -0.181458 100
-0.000808 6.344172 -0.220435 101
-0.206575 6.489264 0.385729 100
-0.389369 6.113410 -0.567195 101
-0.597798 6.246881 -0.085436 100
0.194892 6.172967 -0.703671 101
0.000260 6.378803 -0.123593 101
-0.390364 6.145329 -0.474891 101
-0.599845 6.279405 0.011010 100
0.199663 6.290523 -0.424647 101
0.001352 6.469693 0.172805 101
-0.199483 6.333484 -1.031304 18
-0.396620 6.260455 -0.193849 101
-0.609483 6.391658 0.307283 100
0.202817 6.356154 -0.331056 101
0.002456 6.510236 0.273998 101
-0.192352 6.139903 -0.676014 80
-0.397221 6.286704 -0.097857 101
-0.614697 6.457841 0.410403 3
-0.775738 6.090681 -0.544730 75
-0.782100 6.148881 -0.263042 48
0.209478 6.496335 0.061260 101
-0.194183 6.265711 -0.302205 101
-0.404762 6.440489 0.296424 101
0.005467 6.199221 -0.598009 101
-0.196311 6.368961 -0.013345 90
-0.576348 6.087517 -0.459770 101
0.006552 6.239569 -0.505312 100
-0.196325 6.404428 0.084996 100
-0.586064 6.201255 -0.372246 101
0.206941 6.254353 -0.615786 101
0.009969 6.411941 -0.025739 101
-0.383689 6.188331 -0.382480 101
-0.595117 6.331161 0.108778 100
0.208680 6.274985 -0.520596 101
0.011089 6.435576 0.073013 101
-0.384939 6.225433 -0.288690 101
-0.595693 6.348753 0.207078 54
0.214320 6.412107 -0.235253 101
0.012454 6.585117 0.378543 101
-0.184412 6.185665 -0.584977 101
-0.392673 6.367905 -0.001114 101
-0.609838 6.511282 0.514692 0
-0.766972 6.095473 -0.450075 92
0.215898 6.426917 -0.136946 101
-0.183970 6.205904 -0.490811 100
-0.392293 6.379212 0.097055 101
-0.768710 6.117590 -0.356592 100
0.221414 6.558248 0.162663 101
-0.185989 6.309860 -0.207205 86
-0.397129 6.475641 0.397948 83
-0.589119 6.312942 -0.673113 15
0.223355 6.582901 0.264549 101
0.014839 6.193265 -0.693593 101
-0.185820 6.340312 -0.110718 100
-0.398785 6.520594 0.501523 101
-0.569734 6.116332 -0.556878 101
0.016109 6.282499 -0.411778 101
-0.187617 6.438627 0.184424 101
-0.383064 6.280878 -0.923817 35
-0.577505 6.211075 -0.276714 101
0.017291 6.328029 -0.317244 101
-0.188397 6.502974 0.286320 93
-0.372036 6.116991 -0.662499 69
-0.579372 6.242540 -0.181690 100
0.021297 6.332143 -0.220018 101
-0.183583 6.477972 0.385017 100
-0.367788 6.110756 -0.566826 101
-0.575989 6.248929 -0.085436 101
0.217135 6.192108 -0.705935 101
0.022526 6.378763 -0.123593 101
-0.369866 6.162578 -0.476122 101
-0.578288 6.285444 0.011017 100
0.221901 6.297764 -0.425185 101
0.024010 6.489641 0.173339 101
-0.178258 6.365714 -1.036444 15
-0.375003 6.265792 -0.193973 101
-0.587899 6.401704 0.307665 100
0.224720 6.347423 -0.330640 101
0.025258 6.530170 0.274839 100
-0.170919 6.140537 -0.676014 80
-0.375750 6.296037 -0.097981 101
-0.590330 6.440071 0.409140 59
-0.749088 6.049856 -0.540841 77
0.229360 6.447808 -0.038287 101
-0.172554 6.237001 -0.396922 101
-0.380499 6.393699 0.195691 101
-0.756218 6.115879 -0.261516 74
0.232724 6.511553 0.061411 101
-0.172420 6.270345 -0.302397 101
-0.381095 6.421919 0.295506 100
-0.763922 6.186733 -0.168679 58
0.027228 6.227035 -0.600698 101
-0.174405 6.381603 -0.013371 99
-0.555095 6.089491 -0.459770 101
0.028333 6.239508 -0.505312 100
-0.174186 6.413071 0.085103 100
-0.563328 6.191333 -0.371530 101
0.228480 6.245636 -0.615002 101
0.032351 6.411867 -0.025739 101
-0.361619 6.181661 -0.381987 101
-0.571932 6.321250 0.108572 100
0.229997 6.258284 -0.519274 101
0.033553 6.435498 0.073013 101
-0.363671 6.234717 -0.289060 101
-0.573528 6.350794 0.207078 46
0.235817 6.387353 -0.234373 101
0.035376 6.573053 0.377854 101
-0.162819 6.186271 -0.584977 101
-0.368584 6.337290 -0.001108 101
-0.588180 6.525286 0.515633 5
-0.742301 6.070394 -0.448029 100
0.238331 6.426124 -0.136946 101
-0.162411 6.210495 -0.491126 100
-0.370254 6.384536 0.097115 101
-0.750739 6.147983 -0.358208 101
0.244305 6.557435 0.162663 101
-0.163340 6.286491 -0.206417 100
-0.374292 6.473002 0.397703 83
-0.568858 6.334768 -0.675225 11
0.246332 6.582082 0.264549 101
0.036364 6.177275 -0.691813 101
-0.163583 6.336923 -0.110648 100
-0.376251 6.525928 0.501829 101
-0.548025 6.114316 -0.556516 101
0.038088 6.290387 -0.412301 101
-0.165551 6.455231 0.184882 101
-0.360910 6.278225 -0.923236 22
-0.556177 6.217033 -0.276892 101
0.039255 6.307956 -0.316242 101
-0.165391 6.491608 0.285793 100
-0.349316 6.094430 -0.659920 97
-0.557222 6.240541 -0.181574 100
0.043484 6.340025 -0.220296 101
-0.161236 6.490550 0.385729 100
-0.346426 6.112005 -0.566826 101
-0.554496 6.254888 -0.085491 101
0.239226 6.203226 -0.707294 101
0.044923 6.394642 -0.123903 101
-0.348559 6.167815 -0.476429 101
-0.557736 6.303364 0.011044 101
0.243581 6.288975 -0.424647 101
0.046526 6.469525 0.172805 101
-0.157093 6.409713 -1.043512 13
-0.353572 6.275046 -0.194220 101
-0.564839 6.395758 0.307283 100
-0.750257 6.228997 -0.653891 0
0.246871 6.346600 -0.330640 101
0.047901 6.510060 0.273998 101
-0.149681 6.149045 -0.676889 80
-0.353775 6.297309 -0.097981 101
-0.568201 6.446069 0.409393 58
-0.726542 6.040566 -0.539781 83
0.252162 6.454963 -0.038334 101
-0.151279 6.257519 -0.398192 100
-0.359536 6.418939 0.196424 101
-0.734880 6.118479 -0.261516 87
0.255111 6.502709 0.061336 101
-0.150750 6.278896 -0.302783 101
-0.360263 6.451136 0.296791 100
-0.560058 6.377962 -0.859964 10
-0.742348 6.189359 -0.168679 101
0.048802 6.210976 -0.599162 101
-0.151977 6.374175 -0.013354 90
-0.534220 6.095362 -0.460069 101
0.050127 6.247345 -0.505958 100
-0.151849 6.413638 0.085103 101
-0.543154 6.209168 -0.372485 101
0.250197 6.244804 -0.615002 101
0.054545 6.399716 -0.025691 101
-0.340121 6.182881 -0.381987 101
-0.549601 6.319217 0.108504 100
0.251747 6.257446 -0.519274 101
0.055955 6.439342 0.073058 101
-0.341124 6.219984 -0.288320 101
-0.551107 6.348766 0.206949 48
0.258326 6.394483 -0.234666 101
0.058174 6.568898 0.377625 100
-0.141510 6.194762 -0.585730 101
-0.346568 6.338532 -0.001108 101
-0.561034 6.475643 0.511553 39
-0.723561 6.092743 -0.449491 90
0.260641 6.425258 -0.136946 101
-0.141118 6.222980 -0.492071 101
-0.347868 6.381789 0.097055 101
-0.730799 6.162449 -0.358901 101
0.267385 6.564538 0.162862 101
-0.142153 6.314998 -0.207336 94
-0.352911 6.494195 0.398927 83
-0.739410 6.243942 -0.073528 41
0.268997 6.577194 0.264388 101
0.058049 6.204937 -0.694929 101
-0.141336 6.325458 -0.110439 100
-0.353183 6.519229 0.501217 101
-0.525106 6.096334 -0.554711 101
0.059703 6.270261 -0.410993 101
-0.142906 6.443774 0.184538 101
-0.339571 6.287343 -0.924398 49
-0.532569 6.195035 -0.275828 101
0.061343 6.331751 -0.317444 101
-0.143074 6.500132 0.286145 100
-0.329481 6.119431 -0.662499 100
-0.535255 6.238451 -0.181458 100
0.065574 6.335837 -0.220157 101
-0.138494 6.487081 0.385491 100
-0.325723 6.125109 -0.567932 101
-0.533677 6.268741 -0.085654 101
0.260210 6.186470 -0.705482 101
0.067413 6.410442 -0.124213 101
-0.326605 6.161029 -0.475814 101
-0.534714 6.293315 0.011023 100
0.266037 6.300049 -0.425455 101
0.069365 6.493314 0.173446 101
-0.330611 6.256280 -0.193602 101
-0.542848 6.401672 0.307474 98
-0.728510 6.231578 -0.653891 12
0.270038 6.369646 -0.331887 101
0.071189 6.561804 0.276185 100
-0.128133 6.145555 -0.676451 80
-0.331791 6.298506 -0.097981 101
-0.546706 6.459946 0.410150 59
-0.708224 6.066810 -0.541902 100
0.274862 6.458040 -0.038358 101
-0.129518 6.262000 -0.398446 100
-0.337966 6.436125 0.196912 101
-0.716757 6.148794 -0.262703 100
0.278150 6.509771 0.061411 101
-0.128832 6.279385 -0.302783 101
-0.337324 6.444373 0.296424 100
-0.534461 6.340374 -0.854639 21
-0.717040 6.160139 -0.167814 101
0.070572 6.218730 -0.599930 101
-0.129807 6.378665 -0.013362 99
-0.512940 6.097190 -0.460069 101
0.072026 6.255105 -0.506604 100
-0.129541 6.418128 0.085156 100
-0.521142 6.207048 -0.372246 100
0.272514 6.255823 -0.616177 101
0.077124 6.419485 -0.025771 101
-0.318537 6.184031 -0.381987 101
-0.527872 6.325082 0.108572 99
