# This PCD file was generated using the MATLAB® pcwrite function
# from Computer Vision Toolbox®.
# .PCD v.7 - Point Cloud Data file format
VERSION .7
FIELDS x y z intensity
SIZE 4 4 4 1
TYPE F F F U
COUNT 1 1 1 1
WIDTH 1465
HEIGHT 1
VIEWPOINT 0 0 0 1 0 0 0
POINTS 1465
DATA ascii
-1.766411 12.260994 0.330871 28
-1.367234 12.223116 -0.640276 73
-1.770237 12.302285 0.523102 37
-1.374984 12.311237 -0.073511 72
-1.376413 12.342940 0.117054 58
-1.374802 12.423792 -1.230004 11
-1.740838 12.200329 -0.049472 87
-1.373302 12.429449 -1.036895 10
-1.746578 12.255372 0.140444 44
-1.353944 12.273246 -0.452770 65
-1.353347 12.286889 -0.263247 60
-1.364276 12.405374 0.309368 72
-2.113138 12.110401 -0.403518 3
-1.362809 12.411337 0.501487 64
-2.115340 12.135135 -0.215014 23
-1.722014 12.171350 -0.616262 8
-1.713268 12.164530 -0.426841 58
-1.352778 12.449699 -1.426813 13
-1.718095 12.213432 -0.238972 73
-1.359817 12.533787 -0.850640 12
-1.726355 12.286888 0.331405 25
-1.326296 12.243698 -0.641108 83
-1.726745 12.304430 0.522934 39
-1.332922 12.323909 -0.073559 73
-1.335142 12.363565 0.117205 56
-1.330906 12.420564 -1.229221 9
-1.700215 12.218171 -0.049520 86
-1.336215 12.489618 -1.041522 7
-1.705257 12.269266 0.140534 49
-1.309382 12.257980 -0.452037 65
-1.310057 12.283537 -0.263077 61
-1.321469 12.410007 0.309368 72
-2.063261 12.070332 -0.401943 54
-1.319603 12.411985 0.501326 59
-2.073504 12.142353 -0.215014 65
-1.697049 12.284727 -0.812830 6
-1.677413 12.157413 -0.615260 5
-1.675145 12.202120 -0.427952 55
-1.311390 12.474108 -1.429077 15
-1.675995 12.223318 -0.239050 72
-1.317308 12.550364 -0.851448 13
-1.683456 12.292839 0.331405 26
-1.283549 12.248253 -0.641108 86
-1.687575 12.338099 0.524112 39
-1.289479 12.324508 -0.073535 71
-1.289899 12.348260 0.117016 56
-1.293286 12.480568 -1.234705 8
-1.657556 12.224031 -0.049520 86
-1.295892 12.525928 -1.044167 11
-1.662418 12.275144 0.140534 56
-1.267818 12.274405 -0.452477 63
-1.268813 12.303946 -0.263417 60
-1.278142 12.414544 0.309368 82
-2.020455 12.073517 -0.401812 46
-1.274226 12.396637 0.500524 37
-1.680755 12.472587 -1.409446 7
-2.021215 12.090347 -0.213967 63
-1.655755 12.302444 -0.813615 8
-1.637626 12.182991 -0.616262 72
-1.632011 12.203930 -0.427813 52
-1.271053 12.510242 -1.432700 15
-1.631200 12.213238 -0.238740 64
-1.265436 12.475475 -0.846062 14
-1.641064 12.302604 0.331512 34
-1.240787 12.252659 -0.641108 89
-1.646607 12.359760 0.524784 41
-1.246853 12.332913 -0.073559 73
-1.248796 12.372585 0.117205 58
-1.653721 12.460391 -1.212534 7
-2.009037 12.167223 -0.025828 47
-1.654960 12.485560 -1.019988 3
-1.617494 12.249571 -0.049600 75
-1.620606 12.288803 0.140625 47
-1.226552 12.294665 -0.453063 58
-1.226252 12.312281 -0.263502 63
-1.236778 12.438826 0.309863 69
-1.982821 12.108113 -0.402730 53
-1.631001 12.431082 -1.404104 11
-1.980291 12.105224 -0.214106 52
-1.622136 12.379385 -0.818324 8
-1.591979 12.164865 -0.615060 76
-1.588976 12.205577 -0.427674 51
-1.590160 12.230747 -0.238972 73
-1.196625 12.221639 -0.828559 48
-1.599161 12.316185 0.331725 36
-1.197608 12.252941 -0.640900 85
-1.602927 12.361471 0.524616 42
-1.204913 12.349138 -0.073630 71
-1.205518 12.376877 0.117205 61
-1.607548 12.446360 -1.210614 12
-1.964525 12.162334 -0.025803 44
-1.610703 12.487328 -1.019665 11
-1.574981 12.259143 -0.049616 87
-1.575884 12.282520 0.140489 54
-1.183688 12.302882 -0.453209 60
-1.184056 12.328463 -0.263758 50
-1.193335 12.447085 0.309962 84
-1.942686 12.130813 -0.403255 55
-1.583645 12.409152 -1.400988 13
-1.942026 12.139773 -0.214595 55
-1.594597 12.511732 -0.826696 10
-1.548007 12.162485 -0.614659 60
-1.546360 12.211049 -0.427674 55
-1.548461 12.244159 -0.239127 64
-1.153581 12.221767 -0.828290 60
-1.558164 12.337561 0.332153 35
-1.155205 12.261024 -0.641108 89
-1.556267 12.339236 0.523439 43
-1.160302 12.337340 -0.073535 68
-1.164924 12.408886 0.117469 63
-1.559626 12.416341 -1.207157 12
-1.920810 12.161216 -0.025786 39
-1.560158 12.437490 -1.015145 14
-1.924210 12.196053 0.163785 34
-1.532179 12.264565 -0.049616 71
-1.534981 12.303823 0.140671 57
-1.140366 12.302958 -0.453063 60
-1.139540 12.316592 -0.263417 55
-1.149144 12.443212 0.309764 98
-1.899711 12.133571 -0.403124 68
-1.538361 12.398825 -1.399207 14
-1.903346 12.170187 -0.215014 65
-1.547968 12.493455 -0.825126 11
-1.505052 12.163850 -0.614459 59
-1.502750 12.208437 -0.427396 54
-1.508151 12.269336 -0.239515 62
-1.109467 12.209822 -0.827213 66
-1.514114 12.334987 0.331939 33
-1.113121 12.272938 -0.641524 91
-1.514644 12.356494 0.523943 48
-1.118311 12.353266 -0.073606 68
-1.121962 12.416861 0.117506 54
-1.515311 12.413805 -1.206389 11
-1.880179 12.179706 -0.025811 35
-1.516251 12.438903 -1.014822 17
-1.884674 12.222460 0.164051 41
-1.491287 12.285723 -0.049680 83
-1.493949 12.324988 0.140852 56
-1.097059 12.302883 -0.452916 55
-1.098668 12.344395 -0.263928 53
-1.106056 12.451130 0.309863 100
-1.856136 12.132224 -0.402861 77
-1.494596 12.400172 -1.398762 13
-1.862061 12.184664 -0.215153 75
-1.503395 12.490856 -0.824603 10
-1.874013 12.276702 0.355569 1
-1.465443 12.192828 -0.615661 65
-1.465050 12.237176 -0.428230 54
-1.466470 12.266333 -0.239360 68
-1.475084 12.355824 0.332366 38
-1.073120 12.284520 -0.641940 91
-1.475088 12.373353 0.524448 48
-1.077718 12.360888 -0.073630 75
-1.082567 12.440432 0.117695 56
-1.473274 12.410845 -1.205621 13
-1.842839 12.205639 -0.025853 43
-1.473214 12.428014 -1.013531 22
-1.841843 12.212808 0.163838 37
-1.448825 12.274692 -0.049616 87
-1.452787 12.325880 0.140807 55
-1.056805 12.310418 -0.453063 59
-1.058298 12.351935 -0.264013 52
-1.065356 12.458692 0.309962 98
-1.817326 12.146183 -0.403124 92
-1.467625 12.523472 -1.412117 22
-1.820735 12.182819 -0.215014 81
-1.463658 12.507631 -0.825387 8
-1.831817 12.270942 0.355225 36
-1.428100 12.221392 -0.616862 79
-1.422787 12.246186 -0.428368 52
-1.423183 12.267404 -0.239282 64
-1.430564 12.348981 0.332046 40
-1.030232 12.288191 -0.641940 85
-1.430510 12.366516 0.523943 50
-1.035231 12.372547 -0.073678 62
-1.036805 12.416233 0.117431 60
-1.429487 12.411957 -1.205237 11
-1.800222 12.211997 -0.025853 45
-1.429823 12.433081 -1.013531 21
-1.799784 12.223120 0.163891 34
-1.405970 12.279674 -0.049616 83
-1.410662 12.338824 0.140897 60
-1.014483 12.322000 -0.453356 52
-1.016813 12.375483 -0.264439 45
-1.022515 12.470305 0.310161 100
-1.776650 12.164320 -0.403518 100
-1.419412 12.489021 -1.407665 17
-1.780507 12.204931 -0.215293 74
-1.420439 12.516630 -0.825649 11
-1.784360 12.245608 0.354309 36
-1.384081 12.214394 -0.616262 97
-1.799170 12.361665 0.549777 1
-1.380479 12.255051 -0.428507 52
-1.378565 12.256400 -0.238972 70
-1.387896 12.357873 0.332153 40
-2.140169 12.082056 -0.379174 19
-1.390452 12.399236 0.525121 50
-0.992356 12.380073 -0.073701 71
-0.996010 12.451674 0.117733 50
-1.751884 12.164222 -0.592468 11
-1.387478 12.428742 -1.206389 13
-1.759862 12.234043 -0.025887 51
-1.388182 12.453846 -1.014822 22
-1.755400 12.217451 0.163732 42
-1.363979 12.292458 -0.049648 75
-1.366261 12.331747 0.140761 52
-0.973036 12.345390 -0.454089 50
-0.972354 12.363009 -0.264099 51
-0.979918 12.485759 0.310458 96
-1.733614 12.166490 -0.403386 100
-1.372327 12.462290 -1.404104 8
-1.739583 12.222950 -0.215502 71
-1.376303 12.517545 -0.825387 11
-1.743292 12.263638 0.354653 30
-1.342309 12.227093 -0.616662 99
-1.754324 12.356000 0.549250 45
-1.336016 12.243892 -0.427952 55
-1.340574 12.304867 -0.239825 68
-1.347359 12.386492 0.332793 35
-2.095261 12.073694 -0.378680 35
-1.347154 12.404015 0.525121 43
-2.103541 12.133523 -0.191302 11
-0.948799 12.379476 -0.073678 62
-1.734398 12.333470 -0.792321 1
-0.951266 12.439125 0.117582 54
-1.707138 12.154445 -0.591697 16
-1.345293 12.445393 -1.207541 11
-1.715405 12.228239 -0.025862 62
-1.348881 12.498265 -1.018051 15
-1.715420 12.243322 0.163998 48
-1.321753 12.305116 -0.049680 83
-1.323874 12.344415 0.140852 50
-0.929728 12.348727 -0.454089 34
-0.930160 12.382297 -0.264439 45
-0.935176 12.477160 0.310161 98
-1.691985 12.180422 -0.403649 100
-1.330224 12.482845 -1.405885 13
-1.695535 12.221063 -0.215363 75
-1.333566 12.534212 -0.826172 12
-1.700178 12.269690 0.354653 30
-1.300147 12.239682 -0.617063 100
-1.703741 12.310634 0.546963 48
-1.294528 12.260407 -0.428368 55
-1.296356 12.297540 -0.239592 64
-1.302440 12.375213 0.332366 37
-2.051764 12.073050 -0.378433 30
-1.304682 12.416591 0.525457 22
-2.058497 12.125019 -0.191054 48
-0.906456 12.394680 -0.073749 69
-1.682662 12.276170 -0.788258 4
-0.908422 12.450349 0.117657 48
-1.667410 12.180121 -0.592660 52
-1.304741 12.477733 -1.210230 9
-1.674877 12.250005 -0.025895 55
-1.310627 12.554448 -1.022249 19
-1.674837 12.265087 0.164210 56
-1.278793 12.309654 -0.049680 79
-1.282014 12.360896 0.140988 48
-0.887218 12.389457 -0.264524 48
-0.893326 12.504279 0.310755 81
-1.651066 12.198138 -0.404042 97
-1.291125 12.530909 -1.410782 13
-1.652329 12.222943 -0.215293 79
-1.257131 12.221151 -0.805243 40
-1.660548 12.299324 0.355340 33
-1.256191 12.232224 -0.616462 101
-1.661292 12.320466 0.547139 39
-1.251317 12.260875 -0.428230 50
-1.254233 12.309947 -0.239747 60
-1.260448 12.391618 0.332687 37
-2.013545 12.103803 -0.379174 28
-1.662182 12.433659 -1.380468 7
-2.015504 12.128185 -0.190991 47
-0.862907 12.393778 -0.073725 69
-1.641913 12.297796 -0.789274 4
-0.865233 12.457434 0.117695 42
-1.621715 12.162106 -0.591505 64
-1.267581 12.545592 -1.216375 13
-1.632635 12.259742 -0.025903 49
-1.634123 12.286717 0.164422 59
-1.235816 12.314043 -0.049680 85
-1.238061 12.357336 0.140897 53
-1.646460 12.459661 -1.188023 5
-2.007127 12.191890 -0.002157 55
-0.845324 12.412428 -0.264950 37
-1.658036 12.563529 -1.001796 2
-1.606387 12.187973 -0.403518 100
-1.250525 12.566984 -1.414343 14
-1.610697 12.236567 -0.215433 76
-1.213675 12.217522 -0.804720 56
-1.618126 12.309010 0.355454 40
-1.214667 12.248461 -0.617063 101
-1.620876 12.346001 0.548019 36
-1.208903 12.269146 -0.428368 50
-1.212430 12.326190 -0.239980 54
-1.217185 12.395942 0.332687 29
-1.973209 12.122596 -0.379545 33
-1.617231 12.427556 -1.379156 19
-1.972515 12.131199 -0.190929 42
-0.820959 12.416671 -0.073844 71
-1.612867 12.410336 -0.796130 10
-0.821744 12.460379 0.117695 52
-1.581308 12.183541 -0.592275 64
-1.590344 12.269333 -0.025912 57
-1.592252 12.300280 0.164528 60
-1.196294 12.354115 -0.049825 76
-1.196458 12.377507 0.141079 51
-1.599911 12.441633 -1.185765 6
-1.965829 12.206719 -0.002158 41
-1.604520 12.494094 -0.995806 7
-1.565867 12.209368 -0.404042 100
-1.567974 12.242115 -0.215433 76
-1.172543 12.237576 -0.805767 64
-1.577179 12.330447 0.355912 41
-1.173426 12.268534 -0.617864 100
-1.580303 12.371403 0.548898 43
-1.168968 12.281047 -0.428646 50
-1.171170 12.326161 -0.239902 58
-1.175695 12.395929 0.332580 32
-1.931740 12.121176 -0.379297 34
-1.570511 12.389462 -1.374343 21
-1.935420 12.157422 -0.191240 43
-0.779278 12.411341 -0.073796 66
-1.582232 12.498783 -0.801463 10
-0.781169 12.475011 0.117808 44
-1.543403 12.208537 -0.593238 68
-1.551152 12.286445 -0.025937 47
-1.550953 12.301524 0.164475 70
-1.155692 12.361996 -0.049841 76
-1.156149 12.389372 0.141170 52
-1.558149 12.442920 -1.185388 6
-1.924717 12.209220 -0.002157 43
-1.555657 12.439995 -0.991078 7
-1.925552 12.227891 0.187975 27
-1.524876 12.210526 -0.403911 100
-1.528359 12.255185 -0.215572 79
-1.130853 12.229474 -0.804982 66
-1.536775 12.339578 0.356026 38
-1.133103 12.276336 -0.618064 100
-1.539762 12.380541 0.549074 50
-1.127187 12.296995 -0.429063 48
-1.129594 12.346106 -0.240212 55
-1.133145 12.407922 0.332793 32
-1.888187 12.119945 -0.379050 36
-1.526767 12.390923 -1.373905 22
-1.892971 12.164104 -0.191240 53
-1.536643 12.488381 -0.800447 10
-0.738326 12.489640 0.117921 45
-1.498829 12.197988 -0.592468 72
-1.506793 12.279873 -0.025912 51
-1.510436 12.326713 0.164740 75
-1.112892 12.369939 -0.049857 80
-1.111822 12.381381 0.141034 54
-1.512782 12.432470 -1.183883 5
-1.881478 12.211911 -0.002157 39
-1.510781 12.433474 -0.990132 12
-1.882249 12.230585 0.187914 41
-1.484651 12.235619 -0.404567 99
-1.484128 12.248534 -0.215363 75
-1.087803 12.229371 -0.804720 69
-1.494173 12.348836 0.356141 35
-1.089184 12.268278 -0.617463 96
-1.494619 12.369971 0.548370 56
-1.086973 12.332720 -0.430174 48
-1.086785 12.353962 -0.240290 54
-1.091553 12.431720 0.333327 32
-1.847652 12.138323 -0.379421 37
-1.482574 12.388279 -1.373030 18
-1.849910 12.166682 -0.191178 59
-1.493090 12.493664 -0.800447 10
-1.870672 12.316939 0.380632 1
-0.694808 12.492137 0.117921 50
-1.457742 12.215037 -0.593046 76
-1.465456 12.296960 -0.025937 58
-1.466604 12.323949 0.164634 75
-1.068928 12.361771 -0.049809 71
-1.069575 12.393131 0.141124 50
-1.469235 12.433681 -1.183506 7
-1.837969 12.210445 -0.002155 46
-1.467733 12.438629 -0.990132 11
-1.839306 12.233072 0.187854 37
-1.441854 12.236710 -0.404436 99
-1.444592 12.277422 -0.215782 67
-1.451988 12.357893 0.356255 34
-1.046847 12.271963 -0.617463 100
-1.453792 12.390930 0.549074 61
-1.042568 12.320506 -0.429619 44
-1.043655 12.357680 -0.240290 54
-1.047480 12.427485 0.333114 30
-1.807034 12.156562 -0.379792 34
-1.449413 12.480267 -1.382656 28
-1.807429 12.173065 -0.191178 67
-1.452229 12.522592 -0.801971 10
-1.822974 12.291756 0.379655 51
-1.415095 12.220052 -0.593046 80
-1.423441 12.309947 -0.025954 49
-1.425412 12.344886 0.164846 75
-1.025440 12.361441 -0.049793 73
-1.026638 12.400775 0.141170 49
-1.783221 12.120409 -0.567023 3
-1.423103 12.414996 -1.181248 12
-1.795917 12.220744 -0.002156 47
-1.426119 12.459523 -0.991393 15
-1.798336 12.251289 0.188036 30
-1.399586 12.245641 -0.404567 95
-1.403088 12.294311 -0.215991 68
-1.408390 12.358913 0.356141 33
-1.006284 12.303414 -0.618865 100
-1.410079 12.391959 0.548898 61
-2.165558 12.114805 -0.356659 39
-0.998586 12.312117 -0.429202 48
-1.001158 12.369221 -0.240445 56
-1.004094 12.431067 0.333114 32
-1.762866 12.150926 -0.379421 36
-1.404060 12.469446 -1.380906 23
-1.765500 12.183258 -0.191240 63
-1.412522 12.563287 -0.804257 10
-1.774329 12.258475 0.378433 52
-1.373767 12.236828 -0.593624 72
-1.381354 12.322791 -0.025970 41
-1.380087 12.329912 0.164581 71
-0.983235 12.376906 -0.049841 69
-0.984609 12.420232 0.141351 50
-1.742037 12.134470 -0.567393 11
-1.381517 12.435719 -1.182753 7
-1.757790 12.258615 -0.002161 50
-1.382618 12.464426 -0.991393 9
-1.759529 12.285206 0.188461 36
-1.359032 12.270319 -0.405223 100
-1.359285 12.291183 -0.215851 67
-1.367435 12.383625 0.356713 34
-1.369442 12.420638 0.549953 68
-2.118428 12.094722 -0.355848 57
-0.957240 12.335448 -0.429896 48
-0.958340 12.376623 -0.240522 55
-0.962873 12.462400 0.333861 31
-1.722703 12.172837 -0.379915 34
-1.360512 12.474273 -1.380906 20
-1.725747 12.209149 -0.191551 72
-1.356943 12.460998 -0.797400 14
-1.732599 12.272518 0.378678 51
-1.331827 12.249501 -0.594009 72
-1.736213 12.313083 0.571189 36
-1.338214 12.327551 -0.025970 44
-1.339474 12.358529 0.164899 63
-0.940072 12.384272 -0.049857 62
-1.717194 12.252736 -0.763236 1
-0.940957 12.423615 0.141351 46
-1.702154 12.160302 -0.568317 25
-1.339901 12.460299 -1.184635 5
-1.713005 12.252836 -0.002159 54
-1.339164 12.473180 -0.991708 8
-1.714618 12.279440 0.188279 45
-1.313245 12.251180 -0.404436 97
-1.316797 12.303852 -0.215991 75
-1.322885 12.380422 0.356484 36
-2.073681 12.090304 -0.355500 41
-0.915652 12.358647 -0.430591 43
-2.074139 12.138933 -0.167660 30
-0.915722 12.387869 -0.240677 60
-0.919071 12.461698 0.333755 18
-1.680202 12.178776 -0.379915 35
-1.314456 12.455222 -1.378281 25
-1.682027 12.207175 -0.191426 72
-1.282902 12.175852 -0.778862 47
-1.690839 12.286413 0.378922 41
-1.288224 12.246129 -0.593624 66
-1.692134 12.311152 0.570822 33
-1.295175 12.332147 -0.025970 48
-1.295492 12.355174 0.164793 71
-0.897704 12.399446 -0.049905 72
-1.670091 12.227010 -0.761266 3
-0.897585 12.426825 0.141351 45
-1.658616 12.158252 -0.567948 43
-1.303402 12.532235 -1.191035 5
-1.671844 12.270631 -0.002161 51
-1.304265 12.561069 -0.998328 10
-1.672823 12.293276 0.188400 48
-1.270472 12.255690 -0.404436 93
-1.274664 12.316330 -0.216131 78
-1.279251 12.380986 0.356370 46
-1.692982 12.504394 -1.364121 0
-2.034776 12.117185 -0.356080 40
-2.026475 12.114540 -0.167224 33
-0.873879 12.410937 -0.241064 56
-1.637680 12.184566 -0.379915 36
-1.277427 12.523022 -1.385281 22
-1.641534 12.228827 -0.191675 66
-1.244437 12.219970 -0.781401 57
-1.647941 12.292240 0.378922 45
-1.246277 12.258501 -0.594009 70
-1.651270 12.332825 0.571557 38
-1.251716 12.332613 -0.025962 46
-1.253163 12.367579 0.164899 73
-0.854691 12.406494 -0.049921 68
-1.641616 12.339619 -0.767915 1
-0.856121 12.457814 0.141669 45
-1.613534 12.144163 -0.567023 39
-1.627423 12.264497 -0.002159 51
-1.632003 12.314899 0.188643 37
-1.230871 12.291873 -0.405486 89
-1.234051 12.344582 -0.216549 70
-1.236422 12.389355 0.356484 49
-1.638927 12.431373 -1.355523 11
-1.993763 12.132104 -0.356311 47
-1.632083 12.423658 -1.160205 5
-1.986233 12.121203 -0.167224 38
-0.831879 12.401798 -0.240832 38
-1.638367 12.487583 -0.971313 5
-1.994089 12.181850 0.021544 49
-1.596732 12.185968 -0.379792 31
-1.241366 12.582583 -1.391407 10
-1.599943 12.226272 -0.191551 72
-1.205503 12.239917 -0.782417 71
-1.610309 12.321420 0.379655 55
-1.206454 12.270514 -0.594394 64
-1.615071 12.373885 0.573208 40
-1.211278 12.340670 -0.025970 46
-1.213021 12.379619 0.165006 66
-0.813448 12.405258 -0.049905 72
-1.609580 12.412281 -0.772102 8
-0.814732 12.456581 0.141623 47
-1.572411 12.141498 -0.566653 38
-1.591055 12.301535 -0.002165 54
-1.590874 12.316248 0.188583 41
-1.190354 12.295862 -0.405486 97
-1.192229 12.336637 -0.216340 68
-1.198317 12.421217 0.357286 45
-1.593962 12.405143 -1.352083 7
-1.951294 12.122808 -0.355848 56
-1.586686 12.413476 -1.158729 5
-1.946442 12.143860 -0.167442 28
-1.589717 12.453666 -0.968237 6
-1.951555 12.188737 0.021544 62
-1.555702 12.203365 -0.380162 33
-1.558266 12.239717 -0.191675 65
-1.163147 12.248024 -0.782671 76
-1.568802 12.338864 0.380021 60
-1.163615 12.274650 -0.594394 78
-1.573379 12.391339 0.573759 35
-1.170455 12.368716 -0.026021 44
-1.170553 12.391741 0.165112 61
-0.771380 12.427983 -0.049985 62
-1.574736 12.485161 -0.776289 8
-1.943665 12.257032 0.212287 1
-0.770751 12.451365 0.141533 43
-1.530020 12.146913 -0.566653 44
-1.547606 12.303045 -0.002164 44
-1.547873 12.321726 0.188583 44
-1.148912 12.315866 -0.406011 91
-1.148788 12.336740 -0.216270 71
-1.152731 12.401438 0.356599 44
-1.547198 12.383008 -1.349074 8
-1.911452 12.145345 -0.356311 64
-1.541381 12.403130 -1.157254 5
-1.907136 12.170337 -0.167714 33
-1.544762 12.447266 -0.967315 6
-1.906522 12.179667 0.021516 50
-1.513095 12.208722 -0.380162 32
-1.516023 12.249051 -0.191737 76
-1.120750 12.255985 -0.782925 78
-1.526212 12.348233 0.380143 62
-1.120398 12.274658 -0.594201 74
-1.526689 12.368997 0.572474 35
-1.126547 12.364759 -0.026004 46
-1.129102 12.415668 0.165377 70
-0.728929 12.446573 -0.050050 12
-1.526773 12.454917 -0.774073 6
-1.895355 12.228172 0.211672 33
-0.728449 12.473944 0.141760 43
-1.494407 12.207705 -0.569242 50
-1.504651 12.308372 -0.002164 54
-1.505337 12.331024 0.188643 41
-1.105915 12.319800 -0.406011 91
-1.107860 12.364576 -0.216689 71
-1.111928 12.433263 0.357400 43
-1.504923 12.396229 -1.349934 7
-1.867829 12.144039 -0.356080 67
-1.499090 12.416335 -1.157992 5
-1.864700 12.176911 -0.167714 40
-1.498476 12.428821 -0.965469 8
-1.865845 12.198105 0.021537 49
-1.470961 12.217896 -0.380286 31
-1.473249 12.254269 -0.191737 63
-1.076533 12.243919 -0.781909 53
-1.483546 12.357459 0.380266 55
-1.078540 12.290439 -0.594779 72
-1.484877 12.386159 0.573025 39
-1.089237 12.436363 -0.026146 50
-1.083569 12.395636 0.165059 71
-1.488785 12.507764 -0.777028 2
-1.851897 12.230784 0.211603 44
-0.684933 12.480415 0.141805 46
-1.451601 12.212869 -0.569242 53
-1.462412 12.321518 -0.002166 53
-1.462054 12.336230 0.188643 40
-1.062651 12.323607 -0.406011 91
-1.063388 12.356438 -0.216480 73
-1.067195 12.425143 0.357057 42
-1.826722 12.147336 -0.544920 9
-1.463649 12.421192 -1.352083 7
-1.828082 12.170302 -0.356659 64
-1.454349 12.409625 -1.156885 6
-1.823366 12.191257 -0.167823 37
-1.455082 12.433975 -0.965469 6
-1.827392 12.232236 0.021586 59
-1.429696 12.234870 -0.380656 32
-1.431391 12.267282 -0.191861 65
-1.442715 12.382419 0.380876 50
-1.035967 12.298110 -0.594972 70
-1.440709 12.383328 0.572658 41
-1.040793 12.380301 -0.026021 47
-1.041631 12.415284 0.165271 75
-1.444658 12.508918 -0.776782 9
-1.810363 12.245087 0.211740 56
-1.410792 12.233739 -0.569982 42
-1.818711 12.315875 0.404290 70
-1.418936 12.322574 -0.002165 51
-1.420354 12.353179 0.188826 42
-1.020616 12.339194 -0.406404 89
-1.020579 12.364060 -0.216549 63
-1.025786 12.452702 0.357744 46
-1.787211 12.173407 -0.545806 47
-1.428410 12.497345 -1.359822 8
-1.782688 12.156829 -0.356080 75
-1.410573 12.410668 -1.156517 5
-1.780800 12.197548 -0.167823 38
-1.411671 12.438979 -0.965469 8
-1.785836 12.246456 0.021600 61
-1.387429 12.243759 -0.380780 34
-1.389012 12.276178 -0.191923 59
-1.398585 12.379434 0.380632 44
-0.993354 12.305634 -0.595164 55
-1.400610 12.416076 0.573943 11
-2.150408 12.097870 -0.332490 46
-0.998214 12.391832 -0.026038 46
-0.998608 12.422832 0.165324 70
-1.369891 12.236151 -0.759542 20
-1.769893 12.267165 0.212014 41
-1.367192 12.230647 -0.569612 50
-1.771148 12.290492 0.403251 71
-1.379019 12.355279 -0.002170 53
-1.377225 12.358062 0.188826 43
-0.977222 12.338696 -0.406273 93
-0.978674 12.383495 -0.216829 67
-0.981055 12.440263 0.357286 22
-1.743574 12.171659 -0.545452 12
-1.375584 12.419250 -1.350794 4
-1.740808 12.166936 -0.356196 62
-1.369423 12.435311 -1.158361 5
-1.738212 12.203690 -0.167823 34
-1.370857 12.467616 -0.967315 6
-1.743077 12.252616 0.021600 63
-1.347300 12.272372 -0.381521 33
-1.755890 12.357590 0.597356 14
-1.347023 12.288903 -0.192048 68
-1.354060 12.372317 0.380266 57
-2.104049 12.081667 -0.331841 49
-0.955567 12.403218 -0.026054 43
-0.955238 12.426242 0.165324 71
-1.738239 12.307682 -0.742822 1
-1.319855 12.173383 -0.755355 36
-1.726504 12.269308 0.211945 40
-1.323630 12.227400 -0.569242 50
-1.729348 12.304518 0.403511 73
-1.334593 12.348087 -0.002168 54
-1.334508 12.366771 0.188886 43
-0.934750 12.350005 -0.406536 84
-2.095900 12.143616 -0.144110 2
-0.935442 12.386836 -0.216829 60
-1.703288 12.193502 -0.546161 26
-1.335616 12.455608 -1.354233 6
-1.700537 12.188778 -0.356659 56
-1.328601 12.443745 -1.158729 4
-1.699386 12.221272 -0.167986 38
-1.330351 12.480025 -0.967930 5
-1.702987 12.262291 0.021607 57
-1.307019 12.280748 -0.381645 33
-1.715450 12.367302 0.597547 22
-1.305419 12.285348 -0.191923 63
-1.312181 12.368788 0.380021 81
-2.059263 12.060987 -0.331083 38
-0.915607 12.422276 -0.026088 45
-0.914026 12.429341 0.165324 71
-1.687601 12.242181 -0.738527 4
-1.279062 12.173722 -0.755109 44
-1.684720 12.267042 0.211808 47
-1.284743 12.247618 -0.569982 60
-1.691795 12.333950 0.404290 75
-1.294055 12.356423 -0.002168 51
-1.293491 12.371128 0.188886 42
-0.892925 12.341075 -0.406142 28
-2.056286 12.154444 -0.144157 51
-0.894648 12.393859 -0.216899 59
-1.656367 12.151570 -0.544034 51
-1.295948 12.475791 -1.355953 5
-1.660648 12.198312 -0.356775 56
-1.289655 12.491888 -1.162786 5
-1.656715 12.227129 -0.167986 31
-1.299455 12.607574 -0.977464 4
-1.661246 12.276088 0.021621 63
-1.262916 12.273305 -0.381274 36
-1.669059 12.349459 0.596400 25
-1.264570 12.309723 -0.192234 65
-1.271853 12.401134 0.380876 77
-2.017809 12.072046 -0.331192 36
-0.871960 12.421406 -0.026079 43
-0.871751 12.448416 0.165536 66
-1.649640 12.283613 -0.740674 7
-1.242610 12.237693 -0.758803 50
-1.642950 12.280776 0.211945 49
-1.242789 12.259978 -0.570352 50
-1.646084 12.319966 0.403641 81
-1.252929 12.380763 -0.002172 53
-1.250702 12.379547 0.188947 42
-1.661475 12.483149 -1.336937 18
-2.011232 12.145763 -0.143970 44
-0.852750 12.416857 -0.217248 62
-1.619198 12.196891 -0.545806 59
-1.261127 12.567292 -1.365411 5
-1.619634 12.215925 -0.357123 55
-1.613934 12.232849 -0.167986 35
-1.618851 12.285786 0.021628 65
-1.221231 12.289576 -0.381645 36
-1.626962 12.363134 0.596783 24
-1.221607 12.314061 -0.192234 70
-1.229393 12.413450 0.381121 84
-1.980256 12.106626 -0.331949 42
-0.829245 12.432347 -0.026096 40
-1.638338 12.513581 -0.948931 4
-0.828180 12.447382 0.165483 66
-1.626575 12.439725 -0.749742 7
-1.198969 12.230010 -0.758064 47
-1.601360 12.294334 0.212082 49
-1.199496 12.256260 -0.569982 57
-1.605421 12.341457 0.404160 64
-1.208474 12.369105 -0.002169 54
-1.208618 12.391764 0.189068 37
-1.610110 12.425706 -1.330180 10
-1.966652 12.136854 -0.143783 43
-0.808532 12.399775 -0.216899 30
-1.612021 12.456619 -1.138674 8
-1.975631 12.205053 0.045316 43
-1.576559 12.198446 -0.545629 71
-1.576452 12.213511 -0.356891 56
-1.572242 12.246343 -0.168095 41
-1.573921 12.275491 0.021600 67
-1.176417 12.273865 -0.381027 37
-1.585319 12.380628 0.597356 25
-1.178996 12.322231 -0.192296 65
-1.186435 12.421646 0.381243 77
-1.938615 12.117413 -0.332057 48
-0.786600 12.447143 -0.026121 42
-1.589608 12.479656 -0.945932 4
-0.785480 12.462172 0.165642 69
-1.595739 12.544352 -0.755707 9
-1.156647 12.238096 -0.758310 50
-1.558937 12.303818 0.212150 43
-1.157081 12.264351 -0.570167 59
-1.561830 12.343020 0.404030 67
-1.165665 12.377231 -0.002170 59
-1.165356 12.395906 0.189068 38
-1.565235 12.419411 -1.328913 17
-1.927404 12.163397 -0.144016 40
-1.564550 12.430551 -1.135785 9
-1.932390 12.207924 0.045302 42
-1.535962 12.219735 -0.546338 76
-1.534307 12.222906 -0.357007 49
-1.529485 12.251756 -0.168095 35
-1.532546 12.292818 0.021621 57
-1.134669 12.289840 -0.381398 33
-1.540119 12.370227 0.596591 30
-1.136710 12.334237 -0.192420 63
-1.143068 12.425712 0.381243 76
-1.903481 12.156806 -0.522183 3
-1.900013 12.147809 -0.332706 59
-0.743147 12.449813 -0.026121 33
-1.539173 12.429709 -0.941733 4
-1.911937 12.237300 0.235656 11
-0.742925 12.480808 0.165854 63
-1.552432 12.553807 -0.755946 8
-1.115368 12.257962 -0.759295 44
-1.515980 12.309184 0.212150 45
-1.113902 12.264336 -0.569982 62
-1.516783 12.332525 0.403511 75
-1.124621 12.405127 -0.002174 50
-1.122800 12.407866 0.189190 39
-1.522357 12.428747 -1.329336 14
-1.886159 12.177956 -0.144110 43
-1.521633 12.439890 -1.136146 8
-1.891599 12.226454 0.045346 35
-1.492813 12.221055 -0.546161 81
-1.494052 12.248032 -0.357586 56
-1.486832 12.257006 -0.168095 36
-1.490184 12.302054 0.021628 65
-1.092499 12.301688 -0.381645 35
-1.499358 12.395356 0.597547 25
-1.094691 12.350083 -0.192607 61
-1.099269 12.425649 0.381121 86
-1.857344 12.139684 -0.521166 30
-1.857487 12.154384 -0.332706 66
-1.495139 12.431066 -0.941433 4
-1.864826 12.216249 0.235124 20
-0.698251 12.467363 0.165642 70
-1.506487 12.543318 -0.754991 7
-1.073271 12.273744 -0.760034 11
-1.473131 12.318414 0.212219 49
-1.071734 12.280125 -0.570537 60
-1.475227 12.353670 0.404030 69
-1.079131 12.389091 -0.002170 63
-1.080028 12.423706 0.189372 38
-1.474665 12.402452 -1.325958 12
-1.843109 12.184546 -0.144110 50
-1.477142 12.441239 -1.135785 9
-1.845941 12.217250 0.045287 32
-1.451872 12.246107 -0.547047 74
-1.449676 12.245311 -0.357354 51
-1.448248 12.297871 -0.168585 38
-1.447700 12.311154 0.021635 61
-1.049212 12.301443 -0.381521 31
-1.451421 12.360833 0.595635 9
-1.051913 12.357814 -0.192669 57
-1.056566 12.437378 0.381365 79
-1.814957 12.146093 -0.521166 61
-1.818001 12.180568 -0.333247 64
-1.450350 12.424324 -0.940533 4
-1.825121 12.242462 0.235504 25
-0.655357 12.481708 0.165801 60
-1.428946 12.258980 -0.737572 29
-1.829955 12.289151 0.427365 13
-1.027416 12.241610 -0.757818 4
-1.429662 12.319508 0.212150 53
-1.029529 12.291755 -0.570907 56
-1.433015 12.366687 0.404290 63
-1.036878 12.404740 -0.002173 56
-1.036655 12.427400 0.189372 41
-1.441848 12.498406 -1.335670 15
-1.801734 12.198819 -0.144203 46
-1.433249 12.442363 -1.135423 14
-1.804451 12.231533 0.045316 39
-1.407747 12.239191 -0.546515 84
-1.408292 12.262213 -0.357702 49
-1.403042 12.282982 -0.168313 36
-1.405171 12.320107 0.021642 61
-1.007569 12.320970 -0.382016 34
-1.009421 12.369384 -0.192793 66
-1.013794 12.448960 0.381609 47
-1.770241 12.136537 -0.520487 61
-1.774895 12.182882 -0.333139 62
-1.407421 12.433274 -0.940833 4
-1.781800 12.244801 0.235428 26
-1.384352 12.248023 -0.736618 43
-1.787047 12.295465 0.427365 33
-1.388438 12.340321 0.212424 56
-0.986936 12.299256 -0.571091 47
-1.391624 12.387506 0.404809 66
-2.145783 12.111500 -0.309201 49
-0.993891 12.412271 -0.002173 54
-0.993587 12.434930 0.189433 39
-1.390255 12.432209 -1.328069 10
-1.763135 12.232745 -0.144531 45
-1.388482 12.435412 -1.134340 9
-1.762884 12.245675 0.045346 39
-1.367229 12.263887 -0.547402 74
-1.364153 12.255133 -0.357354 55
-1.360093 12.287811 -0.168313 32
-1.362995 12.332892 0.021656 57
-0.966411 12.348329 -0.382757 29
-0.966870 12.380806 -0.192917 66
-1.725084 12.122854 -0.519640 43
-1.732979 12.192954 -0.333247 64
-1.366271 12.457927 -0.942333 4
-1.743065 12.278650 0.235961 27
-1.339525 12.232924 -0.735425 49
-1.743665 12.297654 0.427228 31
-1.344672 12.337120 0.212287 56
-1.346423 12.372393 0.404160 55
-2.096860 12.079482 -0.308196 66
-0.952626 12.439577 -0.002177 53
-0.951351 12.450266 0.189615 38
-1.719440 12.214962 -0.713414 6
-1.352705 12.488364 -1.333559 13
-1.718479 12.222942 -0.144344 47
-1.345806 12.444110 -1.134701 8
-1.722660 12.267556 0.045404 45
-1.322599 12.248685 -0.546515 79
-1.734583 12.367486 0.621716 26
-1.322152 12.263757 -0.357470 49
-1.317192 12.292484 -0.168313 31
-1.318660 12.325644 0.021635 59
-0.923897 12.359600 -0.383004 30
-2.091008 12.189360 -0.120881 1
-0.924242 12.392082 -0.193042 69
-1.687700 12.164429 -0.521166 46
-1.689859 12.194968 -0.333139 68
-1.325303 12.486419 -0.944132 4
-1.700742 12.288622 0.236037 27
-1.298078 12.249436 -0.736140 60
-1.702369 12.315545 0.427640 37
-1.302438 12.349693 0.212424 52
-1.306576 12.408825 0.405198 61
-2.059373 12.114324 -0.308899 58
-0.908907 12.438837 -0.002177 57
-0.908176 12.457500 0.189676 40
-1.671363 12.181327 -0.711105 5
-1.308275 12.485098 -1.332714 12
-1.677975 12.244718 -0.144531 43
-1.306920 12.492314 -1.138674 7
-1.678200 12.261605 0.045360 47
-1.281496 12.269125 -0.547224 81
-1.690861 12.369507 0.621517 27
-1.280580 12.280228 -0.357818 48
-1.275100 12.304964 -0.168422 35
-1.278509 12.358023 0.021684 59
-0.880749 12.362750 -0.383004 6
-2.039834 12.145306 -0.120373 48
-0.880412 12.387254 -0.192917 56
-1.647369 12.186087 -0.521844 64
-1.646210 12.192867 -0.332923 62
-1.660509 12.314301 0.236417 24
-1.256533 12.265809 -0.736856 64
-1.658836 12.317451 0.427503 41
-1.261350 12.374059 0.212766 53
-1.264063 12.421265 0.405458 63
-2.017730 12.125382 -0.309000 53
-0.866592 12.457895 -0.002180 53
-0.865794 12.476554 0.189919 36
-1.664276 12.452282 -0.726578 8
-1.270296 12.544992 -1.338626 14
-1.634693 12.246535 -0.144484 43
-1.269315 12.556252 -1.144091 7
-1.636446 12.275318 0.045390 47
-1.238260 12.269547 -0.547047 82
-1.643455 12.343653 0.619926 24
-1.239710 12.304514 -0.358397 49
-1.232604 12.313313 -0.168476 40
-1.233814 12.346485 0.021656 55
-1.645933 12.471722 -1.311098 6
-1.998740 12.160243 -0.120451 55
-0.837967 12.402224 -0.193104 58
-1.647301 12.498392 -1.118446 3
-1.605831 12.199692 -0.522183 74
-1.605665 12.214405 -0.333356 64
-1.615867 12.308137 0.236189 23
-1.213994 12.274105 -0.737095 65
-1.615201 12.319217 0.427365 40
-1.216005 12.358503 0.212424 53
-1.219704 12.417665 0.405198 61
-1.975186 12.132385 -0.309000 67
-0.822600 12.456869 -0.002179 47
-1.633379 12.540182 -0.926453 11
-0.821975 12.479517 0.189919 37
-1.625173 12.493690 -0.728657 9
-1.591137 12.248238 -0.144437 48
-1.596367 12.304796 0.045478 41
-1.196640 12.289736 -0.547756 68
-1.598996 12.341434 0.619528 27
-1.195619 12.300841 -0.358165 55
-1.190768 12.329484 -0.168640 34
-1.190709 12.350717 0.021656 53
-1.596814 12.433984 -1.306537 7
-1.956280 12.167146 -0.120451 56
-0.794926 12.409064 -0.193166 20
-1.598088 12.460595 -1.114557 8
-1.964433 12.231057 0.069187 44
-1.563236 12.205223 -0.522183 69
-1.564033 12.227868 -0.333572 49
-1.571881 12.305769 0.236037 27
-1.172658 12.294167 -0.738049 59
-1.572695 12.328746 0.427503 37
-1.174370 12.378599 0.212698 53
-1.929500 12.105132 -0.496616 11
-1.177482 12.433786 0.405588 58
-1.931567 12.131309 -0.308799 74
-0.778863 12.455672 -0.002178 51
-1.580570 12.474568 -0.921193 13
-0.778408 12.482310 0.189919 34
-1.582555 12.507210 -0.729119 10
-1.550379 12.269589 -0.144624 56
-1.551402 12.294419 0.045419 40
-1.154480 12.301796 -0.548111 64
-1.559404 12.374686 0.620921 26
-1.153047 12.308921 -0.358281 55
-1.149205 12.349495 -0.168857 40
-1.148700 12.366747 0.021677 50
-1.549458 12.407900 -1.303220 7
-1.912555 12.165998 -0.120373 54
-1.553596 12.458190 -1.113850 9
-1.919865 12.225986 0.069120 48
-1.521117 12.214571 -0.522353 65
-1.522328 12.241189 -0.333788 49
-1.528916 12.311180 0.236037 23
-1.131562 12.318066 -0.739243 52
-1.532602 12.357964 0.428328 38
-1.132608 12.398554 0.212971 50
-1.890310 12.131539 -0.497425 75
-1.135888 12.457728 0.406237 61
-1.891669 12.153781 -0.309201 82
-0.736087 12.470294 -0.002180 45
-1.536528 12.476050 -0.920900 12
-1.903925 12.246162 0.259602 18
-0.736242 12.508907 0.190283 36
-1.502816 12.219361 -0.712028 21
-1.509491 12.290807 -0.144812 51
-1.508477 12.299760 0.045419 43
-1.110813 12.297791 -0.547756 68
-1.517655 12.391951 0.621517 18
-1.111510 12.328800 -0.358745 48
-1.107451 12.369372 -0.169075 40
-1.107264 12.390605 0.021712 48
-1.506121 12.413235 -1.303220 7
-1.868846 12.164695 -0.120295 57
-1.507234 12.439803 -1.111729 9
-1.874152 12.212843 0.069009 52
-1.478505 12.219803 -0.522353 69
-1.478209 12.234512 -0.333464 54
-1.488412 12.336285 0.236417 27
-1.088315 12.317954 -0.739004 46
-1.488609 12.355287 0.428053 38
-1.089158 12.398432 0.212903 49
-1.843320 12.106426 -0.496130 91
-1.091909 12.453633 0.405977 56
-1.847635 12.148419 -0.308899 100
-1.492259 12.473388 -0.920316 12
-1.859597 12.240837 0.259351 29
-0.692173 12.499406 0.190101 36
-1.453305 12.165025 -0.708564 46
-1.467336 12.299938 -0.144858 52
-1.467262 12.316830 0.045463 44
-1.067866 12.297584 -0.547579 72
-1.068137 12.324607 -0.358513 48
-1.062896 12.357223 -0.168857 37
-1.063664 12.390409 0.021705 61
-1.464643 12.434221 -1.304879 8
-1.832307 12.210700 -0.120686 58
-1.463336 12.441031 -1.111376 10
-1.834475 12.239089 0.069120 44
-1.438638 12.248704 -0.523371 69
-1.437356 12.255483 -0.333897 56
-1.443946 12.329489 0.236189 23
-1.048011 12.353506 -0.740913 16
-1.446865 12.372320 0.428465 41
-1.046881 12.414114 0.213108 50
-1.801637 12.116740 -0.496292 75
-1.808155 12.174571 -0.309402 83
-1.449170 12.482483 -0.920608 11
-1.818618 12.259121 0.259602 32
-0.648745 12.505740 0.190162 19
-1.412671 12.185890 -0.709488 48
-1.821628 12.293577 0.451363 9
-1.423012 12.293066 -0.144718 48
-1.425178 12.329823 0.045492 45
-1.026592 12.321147 -0.548465 71
-1.027097 12.352167 -0.359208 44
-1.020084 12.364843 -0.168912 35
-1.021391 12.406006 0.021726 52
-1.425295 12.474833 -1.308611 5
-1.787933 12.205149 -0.120568 62
-1.418093 12.430229 -1.109962 12
-1.789425 12.229587 0.069031 49
-1.394516 12.241738 -0.522862 71
-1.395472 12.268372 -0.334113 57
-1.402704 12.350348 0.236493 25
-1.405921 12.397156 0.429153 38
-1.004508 12.429652 0.213314 62
-1.762775 12.146688 -0.497263 64
-1.767368 12.192681 -0.309703 76
-1.402911 12.463680 -0.918855 11
-1.774668 12.257479 0.259435 36
-1.374586 12.230431 -0.711797 57
-1.779849 12.307774 0.451653 41
-1.383215 12.325782 -0.145045 44
-1.381685 12.330748 0.045478 47
-0.984213 12.332623 -0.548820 64
-0.985243 12.371620 -0.359672 45
-0.979187 12.396235 -0.169293 34
-0.978121 12.409492 0.021726 50
-1.749285 12.224188 -0.690400 6
-1.379130 12.456004 -1.306123 7
-1.745900 12.215273 -0.120607 66
-1.377750 12.462826 -1.112436 7
-1.748411 12.247640 0.069098 57
-1.349988 12.230646 -0.522183 67
-1.351704 12.265225 -0.333897 54
-1.359938 12.359155 0.236569 23
-1.360782 12.386105 0.428603 36
-2.111690 12.109952 -0.285400 64
-0.960928 12.433097 0.213314 57
-1.720743 12.156750 -0.497425 75
-1.724030 12.194846 -0.309603 76
-1.362186 12.496287 -0.920900 12
-1.733874 12.279471 0.259770 41
-1.332060 12.239153 -0.712028 61
-1.741082 12.345613 0.452815 45
-1.338169 12.314660 -0.144858 46
-1.338756 12.339506 0.045492 47
-0.941085 12.367038 -0.359440 45
-0.935609 12.395589 -0.169239 33
-0.935399 12.420809 0.021740 55
-1.698877 12.174844 -0.687274 17
-1.336914 12.472610 -1.307367 6
-1.706563 12.245062 -0.120842 55
-1.338478 12.507176 -1.115971 7
-1.707854 12.269515 0.069187 61
-1.309410 12.255154 -0.523031 71
-1.714529 12.332757 0.643832 40
-1.308882 12.269869 -0.333897 49
-1.317635 12.371779 0.236721 27
-1.318383 12.398730 0.428878 37
-2.067386 12.105423 -0.285121 44
-0.917523 12.436376 0.213314 54
-1.674473 12.134968 -0.496292 80
-1.681998 12.204751 -0.309703 76
-1.320231 12.516836 -0.922069 10
-1.690455 12.281487 0.259686 38
-1.288493 12.235785 -0.711566 59
-1.694167 12.323895 0.451799 40
-1.296011 12.327212 -0.144952 50
-1.296510 12.352060 0.045522 48
-2.053438 12.135111 -0.096666 16
-0.897331 12.362272 -0.359208 41
-0.892909 12.406757 -0.169348 33
-0.891750 12.420009 0.021733 47
-1.296240 12.504901 -1.310269 7
-1.662194 12.239054 -0.120725 54
-1.298093 12.543478 -1.118799 7
-1.664477 12.271438 0.069165 64
-1.267034 12.263624 -0.523201 76
-1.676832 12.378252 0.645898 48
-1.268095 12.294250 -0.334438 44
-1.274032 12.372326 0.236645 28
-1.275913 12.411210 0.429153 34
-2.027755 12.128343 -0.285493 64
-0.874667 12.447481 0.213450 54
-1.632637 12.144699 -0.496454 77
-1.641513 12.226400 -0.310105 79
-1.276531 12.521368 -0.922069 5
-1.649169 12.299204 0.259937 41
-1.248605 12.268018 -0.713183 56
-1.649016 12.313886 0.451218 43
-1.251761 12.319723 -0.144812 42
-1.254597 12.368449 0.045566 45
-1.659518 12.440322 -1.283688 7
-2.009759 12.134313 -0.096603 57
-0.850349 12.421774 -0.169511 34
-1.666705 12.569766 -0.904449 4
-0.849167 12.435020 0.021754 48
-1.654696 12.495230 -0.704691 5
-1.259304 12.576649 -1.317318 2
-1.618922 12.240818 -0.120686 57
-1.620594 12.269241 0.069120 61
-1.224649 12.271946 -0.523371 72
-1.632603 12.376104 0.645485 46
-1.223646 12.282681 -0.334005 52
-1.231317 12.380669 0.236721 27
-1.989831 12.148961 -0.475086 35
-1.234667 12.435468 0.429840 33
-1.987452 12.147169 -0.285771 50
-0.832197 12.462418 0.213656 57
-1.591971 12.162189 -0.496940 82
-1.597996 12.224099 -0.309904 72
-1.225628 12.450292 -0.916516 4
-1.608531 12.320717 0.260272 38
-1.204470 12.256379 -0.712259 66
-1.609899 12.347280 0.452234 45
-1.211767 12.351854 -0.145139 39
-1.209776 12.352818 0.045492 43
-1.613858 12.426264 -1.281653 11
-1.968999 12.149097 -0.096666 41
-1.614122 12.444589 -1.089053 5
-1.975283 12.200789 0.092760 21
-0.808893 12.420535 -0.169456 25
-1.616320 12.507956 -0.899611 9
-0.808963 12.453734 0.021782 47
-1.613762 12.504609 -0.704914 12
-1.579855 12.258020 -0.120803 52
-1.581941 12.290417 0.069210 58
-1.185098 12.287873 -0.523879 62
-1.588498 12.357677 0.644245 33
-1.185591 12.314531 -0.334762 50
-1.191020 12.392646 0.236874 25
-1.941937 12.108134 -0.473235 56
-1.193423 12.439493 0.429840 33
-1.594790 12.456038 -1.508533 15
-1.946527 12.149744 -0.285678 48
-0.791879 12.481074 0.213929 54
-1.552643 12.175331 -0.497263 88
-1.557956 12.233297 -0.310005 74
-1.187734 12.490030 -0.919147 4
-1.567665 12.325983 0.260272 41
-1.163819 12.260306 -0.712259 68
-1.569952 12.360481 0.452525 43
-1.171932 12.367750 -0.145279 41
-1.169936 12.368709 0.045536 41
-1.570645 12.415756 -1.280025 13
-1.927446 12.147659 -0.096603 44
-1.569349 12.422197 -1.086632 5
-1.934186 12.203321 0.092730 57
-1.569167 12.485810 -0.897619 12
-0.766468 12.472452 0.021810 46
-1.531808 12.205040 -0.687721 44
-1.536062 12.255523 -0.120725 53
-1.539527 12.299832 0.069232 68
-1.143677 12.307852 -0.524558 66
-1.142598 12.318595 -0.334762 45
-1.148492 12.404692 0.237026 25
-1.899041 12.110890 -0.473081 79
-1.150362 12.447564 0.429978 26
-1.551301 12.461529 -1.508533 12
-1.905342 12.164367 -0.285864 44
-0.747828 12.475779 0.213792 50
-1.509642 12.176710 -0.497101 82
-1.515736 12.242630 -0.310105 72
-1.525611 12.339318 0.260440 38
-1.123560 12.292131 -0.713876 68
-1.528756 12.381755 0.453105 46
-1.128026 12.363799 -0.145186 45
-1.128205 12.388651 0.045595 43
-1.526811 12.417214 -1.279618 11
-1.886871 12.166171 -0.096697 52
-1.526464 12.431556 -1.086978 6
-1.893414 12.221857 0.092820 51
-1.518776 12.435768 -0.893635 10
-1.884420 12.216283 0.282664 18
-0.723836 12.491026 0.021838 40
-1.482894 12.158777 -0.684818 42
-1.494717 12.272722 -0.120842 53
-1.497069 12.309102 0.069254 68
-1.099654 12.299827 -0.524049 59
-1.100680 12.334455 -0.335087 52
-1.104508 12.400656 0.236874 25
-1.850733 12.077931 -0.471539 62
-1.509266 12.478691 -1.509964 10
-1.864726 12.182796 -0.286143 56
-0.705926 12.506260 0.214271 53
-1.470544 12.209674 -0.498235 80
-1.473550 12.251806 -0.310206 70
-1.483099 12.348528 0.260524 34
-1.080397 12.291991 -0.713645 66
-1.487056 12.398911 0.453541 41
-1.086022 12.379605 -0.145326 43
-1.085075 12.392503 0.045595 39
-1.480758 12.398746 -1.277176 12
-1.842723 12.160799 -0.096603 61
-1.483202 12.436791 -1.086978 6
-1.849084 12.216506 0.092730 44
-1.479586 12.476653 -0.896196 10
-1.842957 12.230695 0.282846 38
-1.441851 12.175778 -0.685488 52
-1.452338 12.281837 -0.120881 53
-1.455970 12.330142 0.069344 62
-1.057739 12.315536 -0.524558 66
-1.056594 12.326269 -0.334762 45
-1.062238 12.416389 0.237102 24
-1.815661 12.131754 -0.473390 72
-1.473571 12.550937 -1.518074 4
-1.819824 12.173410 -0.285771 53
-0.661209 12.488679 0.213929 10
-1.426988 12.206793 -0.497911 71
-1.430775 12.256875 -0.310206 68
-1.439522 12.349658 0.260440 38
-1.037820 12.299667 -0.713876 37
-1.443767 12.404026 0.453541 40
-1.043138 12.387306 -0.145373 43
-1.042146 12.400201 0.045610 46
-1.441134 12.435461 -1.280432 15
-1.806117 12.206725 -0.096917 68
-1.439323 12.437934 -1.086632 8
-1.806429 12.222886 0.092730 51
-1.436026 12.481742 -0.896196 7
-1.801417 12.244966 0.283029 47
-1.400253 12.188672 -0.685935 52
-1.808995 12.310703 0.475833 4
-1.409914 12.290806 -0.120920 54
-1.412465 12.331175 0.069321 68
-1.013431 12.303221 -0.523879 57
-1.016182 12.361763 -0.335628 49
-1.018890 12.420022 0.237102 23
-1.776191 12.157793 -0.474161 73
-1.426606 12.528383 -1.514735 8
-1.777897 12.183645 -0.285864 46
-1.382568 12.195814 -0.497263 71
-1.387532 12.257822 -0.310105 70
-1.396405 12.354608 0.260440 38
-1.397322 12.381185 0.452525 41
-1.000536 12.398846 -0.145466 42
-0.998855 12.403764 0.045610 36
-1.396384 12.428553 -1.279211 11
-1.763496 12.212955 -0.096917 70
-1.395009 12.434962 -1.085941 6
-1.767178 12.252871 0.092910 53
-1.393358 12.494606 -0.896765 8
-1.759257 12.255135 0.283121 55
-1.359481 12.209361 -0.686828 54
-1.760921 12.281331 0.474458 39
-1.367450 12.299627 -0.120959 53
-1.369851 12.340006 0.069344 69
-0.972036 12.326605 -0.524727 55
-0.973001 12.365237 -0.335628 48
-0.975183 12.419518 0.237026 27
-1.735401 12.175795 -0.474624 70
-1.382821 12.533291 -1.514735 10
-1.735879 12.193743 -0.285957 48
-1.341663 12.216465 -0.497911 85
-1.348577 12.298373 -0.311010 66
-1.354485 12.371343 0.260691 35
-1.356600 12.409841 0.453396 40
-0.957753 12.410247 -0.145560 42
-0.956044 12.415160 0.045639 44
-1.719201 12.193469 -0.664751 13
-1.355873 12.461057 -1.282061 8
-1.721283 12.223016 -0.096949 59
-1.355756 12.479388 -1.089399 3
-1.725371 12.266907 0.092970 54
-1.347981 12.503596 -0.897050 10
-1.715435 12.269421 0.283304 64
-1.316860 12.234116 -0.687944 50
-1.720319 12.319372 0.475680 42
-1.323215 12.312510 -0.121037 53
-1.324186 12.340967 0.069321 63
-0.927076 12.360745 -0.335411 49
-0.931149 12.442950 0.237406 25
-1.691313 12.186032 -0.474778 77
-1.337296 12.542224 -1.515212 10
-1.691724 12.203984 -0.286050 48
-1.297721 12.229250 -0.498235 78
-1.700030 12.309300 0.666451 32
-1.300543 12.275398 -0.310306 69
-1.309974 12.384178 0.260859 34
-1.310686 12.410754 0.453250 39
-0.912847 12.421652 -0.145653 39
-0.909949 12.410603 0.045610 45
-1.677214 12.219474 -0.665829 9
-1.307696 12.442198 -1.279618 11
-1.675928 12.225280 -0.096917 59
-1.315830 12.539760 -1.094241 4
-1.680942 12.277111 0.093000 55
-1.309412 12.535775 -0.899042 6
-1.676901 12.290891 0.283669 56
-1.277526 12.250332 -0.688614 52
-1.679996 12.328970 0.475833 44
-1.282793 12.320808 -0.121076 54
-1.282428 12.337334 0.069277 58
-0.886367 12.367740 -0.335520 51
-0.890167 12.449958 0.237482 26
-1.650357 12.187613 -0.474624 78
-1.296921 12.558441 -1.516643 5
-1.649101 12.193675 -0.285678 51
-1.257569 12.237461 -0.498397 80
-1.662935 12.342580 0.667950 35
-1.261870 12.299533 -0.310809 54
-1.268492 12.384476 0.260775 37
-1.271557 12.434916 0.453976 45
-1.669103 12.435499 -1.462836 6
-0.872770 12.440570 -0.145841 37
-1.657322 12.363408 -0.865704 5
-0.869068 12.417542 0.045624 40
-1.684915 12.585224 -0.685450 2
-1.274083 12.521683 -1.287351 10
-1.634318 12.222841 -0.096854 56
-1.639161 12.274688 0.092940 58
-1.258467 12.468812 -0.893919 10
-1.635600 12.308558 0.283944 58
-1.234376 12.250741 -0.688391 59
-1.637496 12.338718 0.475986 40
-1.240986 12.337150 -0.121194 48
-1.241748 12.365615 0.069411 59
-1.650385 12.484147 -1.263584 4
-1.651674 12.510094 -1.070709 3
-0.846661 12.452992 0.237482 24
-1.608285 12.197268 -0.474778 75
-1.608040 12.211259 -0.285957 50
-1.216727 12.261672 -0.499206 73
-1.622347 12.368123 0.669021 23
-1.220007 12.315810 -0.311111 64
-1.224743 12.384860 0.260691 31
-1.228013 12.439291 0.453976 46
-1.624011 12.429447 -1.461446 7
-0.827601 12.419605 -0.145560 42
-1.640346 12.570936 -0.879827 20
-0.827419 12.448448 0.045727 34
-1.589719 12.198941 -0.664104 55
-1.594575 12.252292 -0.097043 65
-1.598189 12.296225 0.093060 46
-1.206426 12.385765 -0.887658 6
-1.592113 12.310225 0.283852 56
-1.191219 12.251000 -0.688168 56
-1.591856 12.324539 0.475222 38
-1.197141 12.333445 -0.121116 54
-1.197805 12.361912 0.069366 65
-1.599180 12.430619 -1.257594 4
-1.602917 12.476252 -1.067327 4
-0.803958 12.467845 0.237711 21
-1.567733 12.218666 -0.475395 76
-1.569471 12.248529 -0.286700 49
-1.173538 12.261866 -0.499045 71
-1.177010 12.319994 -0.311111 61
-1.181505 12.389059 0.260691 33
-1.183448 12.431563 0.453541 29
-1.576105 12.399569 -1.457277 7
-0.784747 12.430402 -0.145653 24
-1.588416 12.513247 -0.875396 21
-0.783458 12.443276 0.045698 34
-1.540597 12.152904 -0.661301 56
-1.551797 12.257783 -0.097043 56
-1.553753 12.289824 0.092970 58
-1.148640 12.234978 -0.876559 23
-1.549132 12.315708 0.283852 55
-1.148820 12.259060 -0.688391 47
-1.551815 12.353816 0.476139 44
-1.155572 12.353477 -0.121272 52
-1.154646 12.366017 0.069366 56
-1.553309 12.416380 -1.255597 4
-1.554910 12.446177 -1.064283 7
-0.760676 12.474567 0.237787 19
-1.524578 12.220098 -0.475241 67
-1.526211 12.249965 -0.286607 51
-1.130729 12.265887 -0.499045 69
-1.135097 12.335974 -0.311412 63
-1.140080 12.413020 0.261110 33
-1.532326 12.401052 -1.456814 8
-1.536908 12.455350 -0.870965 19
-0.741443 12.469893 0.045785 37
-1.499143 12.166136 -0.661732 57
-1.510465 12.275035 -0.097137 51
-1.512795 12.311052 0.093090 60
-1.104847 12.226992 -0.875705 24
-1.506618 12.325010 0.283944 59
-1.107815 12.282884 -0.689507 48
-1.506745 12.343287 0.475528 46
-1.112443 12.357436 -0.121272 51
-1.113622 12.393876 0.069500 55
-1.509478 12.417775 -1.255198 4
-1.508093 12.423832 -1.061916 7
-1.480951 12.217409 -0.474932 77
-1.484403 12.263158 -0.286793 47
-1.090377 12.297627 -0.500178 69
-1.092734 12.347827 -0.311613 63
-1.096744 12.416924 0.261110 31
-1.489975 12.414214 -1.457741 8
-1.495320 12.476487 -0.872073 20
-0.699028 12.492373 0.045859 17
-1.458564 12.187158 -0.662595 53
-1.467608 12.280232 -0.097137 56
-1.469338 12.312286 0.093060 60
-1.463587 12.330194 0.283944 55
-1.063553 12.270761 -0.688614 49
-1.464591 12.356410 0.475833 49
-1.068956 12.357259 -0.121233 48
-1.070352 12.397687 0.069500 58
-1.467055 12.430874 -1.255997 4
-1.466583 12.444853 -1.063268 7
-1.439229 12.230443 -0.475241 78
-1.441587 12.268265 -0.286793 45
-1.045748 12.281446 -0.499368 64
-1.049964 12.355551 -0.311714 63
-1.054408 12.432631 0.261361 25
-1.467318 12.596928 -1.478585 8
-1.451299 12.477667 -0.871796 22
-1.418779 12.215981 -0.663888 67
-1.425194 12.289254 -0.097168 58
-1.427272 12.325287 0.093120 49
-1.420537 12.335228 0.283944 53
-1.022700 12.298278 -0.689954 22
-1.420993 12.357476 0.475680 50
