# This PCD file was generated using the MATLAB® pcwrite function
# from Computer Vision Toolbox®.
# .PCD v.7 - Point Cloud Data file format
VERSION .7
FIELDS x y z intensity
SIZE 4 4 4 1
TYPE F F F U
COUNT 1 1 1 1
WIDTH 1496
HEIGHT 1
VIEWPOINT 0 0 0 1 0 0 0
POINTS 1496
DATA ascii
-0.440572 8.454364 -0.554880 23
-0.735254 8.757588 0.251623 24
-0.984133 8.479577 -1.253253 43
-1.231989 8.300820 -0.372261 87
-0.443063 8.529774 -0.428199 39
-0.983367 8.485439 -0.923458 22
-1.235977 8.337345 -0.244262 70
-0.440220 8.579529 -0.298497 54
-0.975418 8.463535 -0.788836 32
-1.239880 8.400202 -0.115603 69
-0.442432 8.651068 -0.167839 57
-0.950643 8.260789 -0.641288 63
-1.250248 8.480321 0.014961 28
-0.968962 8.432460 -0.262296 32
-0.974271 8.491259 -0.132774 27
-0.167821 8.798244 -0.052220 33
-0.692655 8.398451 -0.536086 100
-0.992074 8.659288 0.266296 30
-0.167244 8.846026 0.083389 99
-0.694785 8.441619 -0.408333 95
-0.418825 8.326772 -0.804259 101
-0.708576 8.626930 -0.018129 57
-1.196812 8.165462 -0.620524 101
-0.421187 8.401908 -0.681284 101
-0.711965 8.686104 0.115610 33
-1.210559 8.268948 -0.499430 71
-0.430402 8.673258 -0.034860 101
-0.943640 8.310699 -0.515966 26
-1.240692 8.504722 0.147021 68
-0.434055 8.776708 0.099695 46
-0.945724 8.341574 -0.388557 76
-0.671327 8.275803 -0.784863 100
-0.970979 8.577215 -0.001507 32
-0.153204 8.724676 -0.185831 30
-0.675011 8.338623 -0.661349 100
-0.974815 8.624081 0.131795 31
-0.687900 8.515659 -0.280428 65
-0.404987 8.302166 -0.930875 16
-0.692196 8.586834 -0.150370 94
-0.411252 8.459837 -0.555142 26
-0.706283 8.780028 0.252195 23
-0.952758 8.467229 -1.250929 37
-1.203007 8.305071 -0.372261 76
-0.412706 8.519298 -0.427598 42
-0.951521 8.469060 -0.921308 34
-1.209729 8.361394 -0.244841 72
-0.410078 8.577021 -0.298358 49
-0.919336 8.229388 -0.766709 57
-1.211691 8.412396 -0.115712 67
-0.412422 8.656554 -0.167916 58
-0.921802 8.264056 -0.641288 70
-1.221778 8.492552 0.014975 26
-0.939963 8.439764 -0.262419 31
-0.946835 8.514482 -0.133085 29
-0.137108 8.798777 -0.052220 34
-0.664277 8.412756 -0.536848 98
-0.964930 8.690515 0.267151 34
-0.136241 8.838557 0.083314 96
-0.665628 8.447976 -0.408525 90
-0.389756 8.328183 -0.804259 101
-0.680026 8.649290 -0.018171 65
-1.168866 8.173538 -0.620824 101
-0.392228 8.411292 -0.681930 101
-0.681328 8.684548 0.115557 31
-1.181123 8.269171 -0.499192 67
-0.400677 8.686694 -0.034908 101
-0.914188 8.309974 -0.515720 27
-1.214378 8.532758 0.147431 59
-0.403784 8.786160 0.099785 47
-0.919218 8.368654 -0.389666 73
-1.225985 8.624708 0.282899 62
-0.643052 8.286036 -0.785616 101
-0.943213 8.600433 -0.001510 37
-0.645900 8.340929 -0.661349 100
-0.946446 8.643334 0.132038 32
-1.431723 8.210174 -0.481999 29
-0.659095 8.529966 -0.280822 68
-0.375824 8.299558 -0.930430 31
-0.663755 8.609136 -0.150719 82
-0.381899 8.465208 -0.555403 24
-0.674404 8.766495 0.251737 24
-0.920623 8.446898 -1.247443 55
-1.174568 8.313176 -0.372439 88
-0.383503 8.532660 -0.428199 43
-0.921953 8.472330 -0.921308 23
-1.183887 8.389320 -0.245536 67
-0.381198 8.602362 -0.299191 54
-0.884179 8.173149 -0.761177 90
-1.183987 8.428457 -0.115875 66
-0.381849 8.649951 -0.167761 58
-0.892949 8.267224 -0.641288 76
-1.193237 8.504687 0.014989 23
-0.912212 8.458894 -0.262914 33
-0.917108 8.517735 -0.133085 27
-0.106539 8.811201 -0.052291 30
-0.633405 8.395121 -0.535578 100
-0.935444 8.701780 0.267395 30
-0.105865 8.878975 0.083691 100
-0.636435 8.454232 -0.408718 85
-0.361372 8.345404 -0.805795 100
-0.649830 8.651610 -0.018171 61
-1.140328 8.177568 -0.620824 101
-0.363208 8.420576 -0.682575 101
-0.652504 8.706817 0.115822 28
-1.157208 8.308835 -0.501339 66
-0.371204 8.708021 -0.034988 101
-0.886866 8.328995 -0.516705 25
-1.188434 8.564674 0.147910 54
-0.373960 8.807497 0.100012 48
-0.890423 8.375786 -0.389851 62
-1.195871 8.628935 0.282899 78
-0.615595 8.308087 -0.787498 100
-0.913608 8.607651 -0.001511 31
-1.396302 8.167296 -0.607017 14
-0.617075 8.347110 -0.661664 100
-0.916691 8.650562 0.132099 31
-1.403056 8.215121 -0.481999 41
-0.629610 8.536202 -0.280953 75
-0.347017 8.304790 -0.930875 42
-0.633700 8.611400 -0.150719 77
-1.179843 8.555614 -0.782951 5
-0.352181 8.462502 -0.555142 24
-0.645849 8.796708 0.252538 21
-0.893207 8.469739 -1.250348 49
-1.148814 8.340978 -0.373502 86
-0.354213 8.545920 -0.428800 41
-0.891957 8.471541 -0.920878 30
-1.154596 8.393402 -0.245536 69
-0.351168 8.603640 -0.299191 56
-0.857302 8.192032 -0.762652 100
-1.154559 8.432539 -0.115875 68
-0.352952 8.683199 -0.168381 54
-0.866158 8.290123 -0.642826 70
-1.164085 8.512764 0.014996 26
-0.883924 8.473956 -0.263284 29
-1.192683 8.732843 0.421821 58
-0.885713 8.504973 -0.132837 28
-0.605529 8.417189 -0.536848 100
-0.904236 8.697040 0.267151 30
-1.391873 8.247852 -0.354963 72
-0.074972 8.891289 0.083804 42
-0.606634 8.452417 -0.408525 84
-0.332714 8.358550 -0.806948 100
-0.620483 8.665795 -0.018196 74
-1.111776 8.181499 -0.620824 101
-0.334760 8.445696 -0.684513 100
-0.621822 8.705051 0.115769 31
-1.127124 8.304911 -0.500862 63
-0.340805 8.709264 -0.034988 101
-0.856151 8.316154 -0.515720 24
-1.159602 8.576697 0.148047 52
-0.343681 8.820739 0.100148 40
-0.862815 8.394742 -0.390591 71
-1.164673 8.625133 0.282639 79
-0.586871 8.314157 -0.787875 101
-0.883148 8.606809 -0.001510 29
-1.365150 8.156383 -0.605848 44
-0.588214 8.353190 -0.661979 97
-0.886897 8.657688 0.132160 31
-1.370420 8.196337 -0.480613 38
-0.598689 8.522396 -0.280428 74
-1.161869 8.637230 -0.925214 12
-0.318482 8.317868 -0.932211 7
-0.603357 8.609570 -0.150649 91
-1.151562 8.571526 -0.784034 8
-0.323400 8.483622 -0.556450 22
-0.614581 8.790932 0.252309 12
-0.863236 8.468868 -1.249767 48
-1.119160 8.340977 -0.373325 78
-0.324228 8.543113 -0.428599 42
-0.862783 8.478560 -0.921308 26
-1.125821 8.401344 -0.245652 67
-0.319643 8.564865 -0.297802 49
-0.829102 8.198936 -0.763021 100
-1.125646 8.440482 -0.115930 72
-0.323086 8.696367 -0.168613 54
-0.836814 8.289128 -0.642518 76
-1.135947 8.528670 0.015017 23
-0.853537 8.469034 -0.263037 28
-1.156398 8.693387 0.419717 46
-0.857221 8.519952 -0.133023 32
-0.577779 8.443147 -0.538372 100
-0.876669 8.727989 0.268006 27
-1.364377 8.260547 -0.355302 93
-0.577942 8.466441 -0.409103 86
-1.135773 8.571433 -1.161351 31
-1.372828 8.320419 -0.228188 9
-0.304113 8.375576 -0.808484 100
-0.589415 8.655936 -0.018171 69
-1.085827 8.205102 -0.622323 100
-0.304845 8.434860 -0.683544 100
-0.591974 8.715150 0.115875 36
-1.099697 8.320670 -0.501578 66
-0.310402 8.710401 -0.034988 101
-0.829882 8.346901 -0.517444 22
-1.126003 8.552937 0.147568 49
-0.312889 8.821885 0.100148 45
-0.834691 8.409631 -0.391146 62
-1.136122 8.641037 0.283029 76
-0.558112 8.320129 -0.788251 100
-0.852311 8.601878 -0.001509 32
-1.335381 8.153225 -0.605263 81
-0.560384 8.375086 -0.663556 100
-0.856277 8.656751 0.132099 33
-1.344380 8.216834 -0.481537 43
-0.570534 8.548368 -0.281216 65
-1.123964 8.582073 -0.918880 31
-0.573832 8.619604 -0.150789 88
-1.121118 8.571543 -0.783673 11
-0.293922 8.488688 -0.556711 22
-0.831731 8.452137 -1.246862 43
-1.090555 8.348794 -0.373502 71
-0.294955 8.560163 -0.429400 42
-0.836292 8.513183 -0.924748 19
-1.099592 8.429011 -0.246347 69
-0.292828 8.613823 -0.299469 59
-0.806521 8.249213 -0.767446 101
-1.100188 8.464005 -0.116202 57
-0.294085 8.693395 -0.168536 57
-0.808910 8.287890 -0.642211 76
-1.104544 8.508594 0.014975 27
-0.825051 8.467840 -0.262914 28
-1.131149 8.724912 0.421056 52
-0.829743 8.530708 -0.133147 31
-0.550058 8.448998 -0.538626 100
-0.848516 8.738806 0.268250 27
-1.337635 8.268968 -0.355471 81
-0.550159 8.472296 -0.409296 86
-1.099764 8.516171 -1.153363 23
-1.340161 8.293342 -0.227322 30
-0.562053 8.677798 -0.018213 70
-1.058152 8.204695 -0.622024 101
-0.277201 8.443791 -0.684190 100
-0.563913 8.729034 0.116034 29
-1.073694 8.336143 -0.502294 55
-0.282536 8.739364 -0.035101 101
-0.801164 8.337674 -0.516705 21
-1.098257 8.560575 0.147636 50
-0.283637 8.818872 0.100103 39
-0.806926 8.412341 -0.391146 66
-1.109116 8.656637 0.283418 70
-0.531926 8.341796 -0.790133 101
-0.826976 8.636497 -0.001514 30
-1.314793 8.196976 -0.608186 89
-0.532764 8.376888 -0.663556 100
-0.828869 8.671472 0.132281 30
-1.319806 8.236995 -0.482461 48
-0.542611 8.554192 -0.281347 72
-1.087115 8.518655 -0.911701 26
-1.343937 8.396544 -0.099441 7
-0.545437 8.621448 -0.150789 88
-1.093383 8.579141 -0.784034 10
-0.266476 8.505568 -0.557758 23
-0.805400 8.470589 -1.249186 46
-1.065588 8.372160 -0.374389 76
-0.267162 8.573067 -0.430001 36
-0.810532 8.539642 -0.927327 29
-1.070340 8.420684 -0.246000 71
-0.263246 8.630775 -0.300025 53
-0.777347 8.248013 -0.767077 100
-1.069633 8.459858 -0.116093 70
-0.264344 8.714355 -0.168923 53
-0.782216 8.314487 -0.644056 70
-1.077342 8.532239 0.015010 24
-0.796235 8.478629 -0.263161 29
-1.100187 8.724843 0.420865 35
-0.512041 8.290059 -0.914041 1
-0.801827 8.553463 -0.133458 26
-0.520317 8.446882 -0.538372 95
-0.818379 8.745695 0.268372 27
-1.306265 8.257797 -0.354793 84
-0.520581 8.474165 -0.409296 77
-1.064596 8.476689 -1.147506 23
-1.316821 8.333514 -0.228296 20
-0.531758 8.679708 -0.018213 72
-1.028513 8.200423 -0.621424 101
-0.534415 8.746919 0.116247 31
-1.044589 8.339840 -0.502294 58
-0.252374 8.752292 -0.035149 101
-0.773159 8.352346 -0.517444 21
-1.070843 8.584201 0.147979 47
-0.253540 8.843797 0.100375 42
-0.779027 8.431022 -0.391886 60
-1.079880 8.668390 0.283678 70
-0.503284 8.351552 -0.790886 101
-0.796824 8.639331 -0.001514 30
-1.284936 8.193633 -0.607601 100
-0.502563 8.362776 -0.662295 94
-0.799328 8.682278 0.132403 29
-1.292281 8.249442 -0.482923 49
-0.513227 8.564014 -0.281609 76
-1.055413 8.506608 -0.910012 21
-1.315856 8.409088 -0.099535 76
-0.516294 8.639268 -0.151068 83
-1.058041 8.539417 -0.780062 9
-0.237006 8.514426 -0.558281 19
-0.779436 8.512759 -1.254996 40
-1.038320 8.391692 -0.375098 76
-0.237346 8.577940 -0.430201 42
-0.785423 8.593904 -0.932916 31
-1.042410 8.436274 -0.246347 72
-0.233333 8.639634 -0.300302 56
-0.748192 8.246710 -0.766709 100
-1.041560 8.475450 -0.116256 68
-0.233494 8.699234 -0.168613 50
-0.751031 8.293336 -0.642211 68
-1.047065 8.531978 0.015003 25
-0.766634 8.481357 -0.263161 30
-1.071669 8.744493 0.421629 24
-0.482869 8.287827 -0.913603 37
-0.773043 8.568160 -0.133644 30
-0.491523 8.460603 -0.539134 98
-0.786770 8.736552 0.268006 27
-1.278043 8.266256 -0.354963 96
-0.492384 8.499863 -0.410452 89
-1.038362 8.507900 -1.151233 20
-1.291385 8.361771 -0.228945 21
-0.502611 8.701477 -0.018255 72
-1.003742 8.235639 -0.623823 101
-0.503189 8.736752 0.116088 28
-1.014989 8.339472 -0.502055 60
-0.221619 8.745122 -0.035117 101
-0.743999 8.354995 -0.517444 21
-1.039910 8.579946 0.147842 50
-0.222365 8.832633 0.100239 41
-0.748885 8.425729 -0.391516 64
-1.052017 8.691952 0.284327 73
-0.473903 8.349282 -0.790510 101
-0.765956 8.634091 -0.001513 28
-1.257535 8.205955 -0.608186 100
-0.475171 8.396328 -0.664817 100
-0.770075 8.696967 0.132585 31
-1.264082 8.257850 -0.483154 55
-0.483780 8.573737 -0.281872 72
-1.025237 8.506291 -0.909590 27
-1.281054 8.378046 -0.099114 58
-0.486583 8.649004 -0.151208 94
-1.013946 8.424405 -0.769228 9
-1.293629 8.469720 0.031403 47
-1.009021 8.395265 -0.375098 82
-0.207595 8.586704 -0.430602 36
-1.013433 8.443830 -0.246463 65
-0.203802 8.664373 -0.301136 45
-0.721192 8.269106 -0.768553 100
-1.011557 8.475055 -0.116202 69
-0.203540 8.715987 -0.168923 54
-0.723152 8.307823 -0.643133 74
-1.017789 8.539548 0.015010 24
-0.737039 8.483980 -0.263161 30
-0.453275 8.277552 -0.912290 75
-0.742430 8.562838 -0.133520 30
-0.461954 8.462269 -0.539134 100
-0.757958 8.759165 0.268617 25
-1.250342 8.278575 -0.355302 96
-0.462437 8.497543 -0.410259 88
-1.005802 8.487859 -1.148038 20
-1.262133 8.366236 -0.228945 20
-0.471934 8.699189 -0.018246 74
-0.974441 8.235141 -0.623523 101
-0.474741 8.778399 0.116618 32
-0.988112 8.362803 -0.503248 58
-0.191695 8.781837 -0.035261 101
-0.716357 8.377445 -0.518675 20
-1.013513 8.615320 0.148389 50
-0.191670 8.849355 0.100421 42
-0.722667 8.468122 -0.393365 58
-1.021931 8.699565 0.284457 66
-0.445381 8.366803 -0.792016 100
-0.736602 8.648688 -0.001515 28
-1.231028 8.226109 -0.609355 100
-0.445191 8.389985 -0.664186 97
-0.740135 8.707594 0.132706 32
-1.233826 8.254350 -0.482692 50
-0.453363 8.571396 -0.281741 78
-0.994342 8.501948 -0.908745 16
-1.251532 8.382506 -0.099114 58
-0.456719 8.662647 -0.151417 88
-0.964831 8.261744 -0.754060 18
-1.265530 8.486097 0.031447 53
-0.975690 8.367020 -0.373680 75
-0.982684 8.439414 -0.246232 83
-0.173076 8.641051 -0.300302 44
-0.691991 8.267604 -0.768184 99
-0.982428 8.482507 -0.116256 67
-0.173670 8.744634 -0.169466 55
-0.693816 8.306322 -0.642826 76
-0.989813 8.558943 0.015038 24
-0.709413 8.510406 -0.263902 28
-0.424786 8.287025 -0.913166 90
-0.712204 8.561391 -0.133458 27
-0.433431 8.483764 -0.540404 100
-0.727709 8.765741 0.268739 26
-1.225518 8.310565 -0.356489 100
-0.433585 8.515066 -0.411029 95
-0.972545 8.459810 -1.143779 32
-1.235253 8.386414 -0.229378 20
-0.442174 8.712768 -0.018271 64
-0.946144 8.242455 -0.623823 101
-1.249778 8.495005 0.163369 38
-0.443692 8.772014 0.116512 28
-0.958915 8.366201 -0.503248 58
-0.160966 8.778454 -0.035245 101
-0.686457 8.371937 -0.518183 20
-0.982527 8.610859 0.148252 47
-0.160924 8.857968 0.100511 31
-0.690171 8.434751 -0.391701 70
-0.990653 8.695135 0.284197 70
-0.415975 8.364330 -0.791639 100
-0.707711 8.667154 -0.001518 29
-1.201730 8.226408 -0.609063 100
-0.415705 8.387505 -0.663871 97
-0.712009 8.738029 0.133131 28
-1.204429 8.254654 -0.482461 49
-0.425018 8.604870 -0.282790 83
-0.963762 8.497463 -0.907901 29
-1.227455 8.422445 -0.099535 58
-0.426871 8.672177 -0.151557 85
-0.934642 8.253185 -0.752976 33
-1.234748 8.482547 0.031418 49
-0.951417 8.414053 -0.375630 71
-0.953668 8.446766 -0.246347 71
-0.662491 8.262028 -0.767446 101
-0.954598 8.501783 -0.116474 59
-1.441027 8.136381 -0.589401 17
-0.142818 8.725193 -0.169078 48
-0.665136 8.312669 -0.643133 72
-0.959485 8.558371 0.015031 24
-1.450799 8.199636 -0.465551 12
-0.680338 8.520802 -0.264149 28
-0.396615 8.304343 -0.914916 100
-0.684856 8.595720 -0.133955 28
-0.402865 8.465288 -0.539134 92
-0.697424 8.772214 0.268861 26
-1.195932 8.310836 -0.356319 101
-0.404995 8.540473 -0.412185 96
-0.943448 8.467093 -1.144311 44
-1.203696 8.374843 -0.228945 20
-0.412324 8.726245 -0.018297 66
-0.918249 8.253635 -0.624423 100
-1.221254 8.507233 0.163521 53
-0.413634 8.785495 0.116671 26
-0.930146 8.373466 -0.503487 67
-1.239173 8.642451 0.300311 15
-0.130441 8.786961 -0.035277 101
-0.657542 8.378262 -0.518429 23
-0.952903 8.618211 0.148321 44
-0.130121 8.866474 0.100602 11
-0.662284 8.457026 -0.392625 81
-0.961611 8.710462 0.284587 74
-0.387328 8.377665 -0.792768 101
-0.677764 8.673559 -0.001518 31
-1.173570 8.234502 -0.609355 99
-0.387709 8.416788 -0.666077 92
-0.680881 8.732486 0.133010 28
-1.180672 8.294390 -0.484540 44
-0.394246 8.590326 -0.282265 78
-0.936266 8.520545 -0.910012 32
-1.198611 8.430639 -0.099581 64
-0.396963 8.681605 -0.151696 100
-0.905827 8.256398 -0.752976 43
-1.206818 8.498686 0.031462 44
-0.921605 8.413350 -0.375452 71
-0.925916 8.465941 -0.246811 63
-0.635756 8.292091 -0.770028 100
-0.925757 8.513019 -0.116583 60
-1.413960 8.149228 -0.589970 32
-0.637926 8.338800 -0.644979 73
-0.930454 8.569622 0.015045 23
-1.420108 8.192848 -0.464881 47
-0.649672 8.511166 -0.263779 29
-0.367804 8.309649 -0.915353 100
-0.655761 8.610022 -0.134141 28
-1.199728 8.538257 -0.764955 7
-0.374732 8.498547 -0.541165 93
-0.667720 8.786553 0.269228 25
-1.169703 8.334746 -0.357167 101
-0.375026 8.537843 -0.411992 94
-0.912631 8.458508 -1.142714 39
-1.179470 8.414629 -0.229919 20
-0.381367 8.715641 -0.018271 68
-0.889889 8.260754 -0.624723 101
-1.193798 8.527283 0.163826 61
-0.383874 8.806862 0.116936 30
-0.901803 8.384598 -0.503964 63
-1.209589 8.650678 0.300448 23
-0.099652 8.771363 -0.035213 101
-0.628057 8.376520 -0.518183 23
-0.920751 8.601594 0.147979 47
-0.631937 8.447328 -0.392071 68
-0.931275 8.713758 0.284587 68
-0.358842 8.394877 -0.794274 100
-0.647864 8.679855 -0.001519 30
-1.144897 8.238537 -0.609355 100
-0.358755 8.426055 -0.666708 95
-0.651379 8.746768 0.133192 24
-1.149604 8.282626 -0.483616 45
-0.364696 8.599635 -0.282528 63
-0.903672 8.496063 -0.907056 18
-1.172019 8.454567 -0.099815 66
-0.366596 8.678938 -0.151627 84
-0.875843 8.247614 -0.751893 41
-1.179995 8.522642 0.031535 47
-0.891925 8.412530 -0.375275 76
-1.207757 8.733971 0.438940 7
-0.896062 8.465133 -0.246695 69
-0.606216 8.266348 -0.767446 100
-0.897522 8.516042 -0.116583 60
-1.386928 8.153872 -0.589970 47
-0.610853 8.348825 -0.645594 71
-0.902449 8.576639 0.015052 24
-1.395608 8.213262 -0.465775 66
-0.623482 8.541186 -0.264643 25
-0.341384 8.338632 -0.918416 100
-0.628078 8.624116 -0.134328 27
-1.169784 8.530346 -0.763894 11
-0.346385 8.495753 -0.540911 86
-0.638869 8.792707 0.269350 13
-1.142600 8.342539 -0.357337 100
-0.346063 8.523071 -0.411222 91
-0.886638 8.481203 -1.145376 39
-1.151018 8.414533 -0.229811 18
-0.352947 8.728848 -0.018297 66
-0.861248 8.251758 -0.623823 101
-1.171469 8.574781 0.164663 66
-0.355150 8.820076 0.117096 27
-0.873994 8.387542 -0.503964 58
-1.177653 8.630876 0.299623 23
-0.601988 8.402450 -0.519661 21
-0.895109 8.632447 0.148457 46
-1.391495 8.264804 -0.339551 55
-0.606770 8.489232 -0.393920 65
-0.904020 8.732704 0.285106 68
-0.331472 8.407958 -0.795403 100
-0.619077 8.681956 -0.001519 30
-1.118107 8.246242 -0.609647 97
-0.331749 8.451105 -0.668599 95
-0.622370 8.748879 0.133192 28
-1.122668 8.290350 -0.483847 49
-0.336801 8.616776 -0.283053 63
-0.877124 8.514840 -0.908745 25
-1.143440 8.454444 -0.099768 76
-0.338592 8.700088 -0.151976 80
-0.849711 8.262362 -0.752976 44
-1.151726 8.526508 0.031535 42
-0.865656 8.431342 -0.375984 71
-1.177719 8.730009 0.438543 15
-0.581956 8.259282 -0.895083 0
-0.869617 8.483968 -0.247158 62
-0.577575 8.292354 -0.769659 100
-0.865898 8.515295 -0.116529 69
-1.357033 8.158900 -0.589970 51
-0.579419 8.339072 -0.644671 75
-0.871412 8.583868 0.015059 24
-1.362223 8.198623 -0.464658 84
-0.591897 8.539425 -0.264520 27
-1.153007 8.632165 -0.907652 46
-0.311560 8.359694 -0.920604 44
-0.596740 8.630350 -0.134390 27
-1.139565 8.542475 -0.764601 26
-0.315541 8.504945 -0.541419 93
-1.113599 8.358555 -0.357846 101
-0.315854 8.552231 -0.412570 82
-0.854751 8.476507 -1.144311 39
-1.121224 8.426622 -0.230027 19
-0.321834 8.754066 -0.018347 70
-0.833794 8.282640 -0.625922 100
-1.139506 8.575053 0.164586 74
-0.322674 8.817322 0.117043 29
-0.844444 8.402608 -0.504680 58
-1.149167 8.658912 0.300448 22
-0.572812 8.428499 -0.521138 20
-0.863862 8.639649 0.148526 51
-1.354703 8.230412 -0.337932 63
-0.575111 8.483425 -0.393550 72
-0.871213 8.728003 0.284846 72
-1.127847 8.542337 -1.080875 25
-1.376059 8.368946 -0.213204 12
-0.300796 8.413096 -0.795780 100
-0.588061 8.696139 -0.001521 27
-1.088397 8.254239 -0.609939 100
-0.300772 8.452264 -0.668599 88
-0.590299 8.751102 0.133192 34
-1.094360 8.310246 -0.484771 47
-0.305783 8.633934 -0.283578 75
-0.846303 8.521955 -0.909168 23
-1.111924 8.454612 -0.099722 78
-0.306984 8.709264 -0.152115 80
-0.819029 8.261456 -0.752615 46
-1.120988 8.534638 0.031550 45
-0.837503 8.462295 -0.377225 71
-1.144675 8.726345 0.438145 11
-0.554595 8.305007 -0.899813 31
-0.838516 8.487098 -0.247158 63
-0.548888 8.298294 -0.770028 100
-0.837732 8.534187 -0.116746 63
-1.327904 8.159650 -0.589685 48
-0.552407 8.372880 -0.647132 66
-0.841444 8.586858 0.015059 23
-1.334877 8.211212 -0.465105 84
-0.563398 8.561387 -0.265138 26
-1.111583 8.549342 -0.898530 28
-0.566349 8.628389 -0.134328 29
-1.110252 8.550352 -0.764955 29
-0.285985 8.509984 -0.541673 96
-1.084415 8.362391 -0.357846 100
-0.286267 8.561267 -0.412955 78
-0.827077 8.499167 -1.146973 35
-1.091803 8.430485 -0.230027 19
-0.291807 8.771128 -0.018380 62
-0.803721 8.273589 -0.625023 100
-1.109054 8.575012 0.164510 96
-0.292291 8.830386 0.117202 25
-0.813952 8.393581 -0.503964 53
-1.117399 8.650976 0.300036 24
-0.542874 8.422479 -0.520646 20
-0.834851 8.654555 0.148731 51
-1.331048 8.266658 -0.339227 58
-0.546776 8.505319 -0.394475 69
-0.841891 8.742929 0.285236 72
-1.095493 8.526540 -1.078386 22
-1.336678 8.310531 -0.211595 34
-0.273096 8.465837 -0.800674 19
-0.557959 8.702130 -0.001522 30
-1.059578 8.257988 -0.609939 97
-0.270883 8.441306 -0.667654 85
-0.561535 8.781049 0.133617 27
-1.065345 8.314015 -0.484771 37
-0.276153 8.650932 -0.284103 52
-0.819584 8.556534 -0.912546 27
-1.086467 8.490181 -0.100096 68
-0.276327 8.702288 -0.151976 71
-0.790566 8.268230 -0.752976 45
-1.089162 8.522629 0.031491 46
-0.807959 8.465167 -0.377225 75
-0.524346 8.287048 -0.897663 56
-0.809643 8.497933 -0.247390 65
-0.520666 8.312085 -0.771134 101
-0.810952 8.568914 -0.117182 62
-1.300041 8.168176 -0.589970 48
-0.523426 8.378737 -0.647439 76
-0.814475 8.621601 0.015115 25
-1.308715 8.231599 -0.465998 84
-0.533509 8.563301 -0.265138 26
-1.080735 8.545277 -0.897700 32
-1.336913 8.418094 -0.083311 11
-0.536723 8.638298 -0.134452 29
-1.074907 8.510694 -0.761066 21
-0.256398 8.514920 -0.541927 93
-1.056218 8.374056 -0.358185 100
-0.256739 8.574195 -0.413533 87
-0.798515 8.513844 -1.148571 25
-1.061369 8.426310 -0.229811 21
-0.260116 8.736109 -0.018305 64
-0.775207 8.280315 -0.625323 101
-1.079115 8.578832 0.164510 95
-0.261584 8.835351 0.117255 27
-0.787620 8.428176 -0.505873 65
-1.089686 8.674656 0.300723 22
-0.513227 8.420338 -0.520399 21
-0.805376 8.665380 0.148868 48
-1.300319 8.259410 -0.338741 57
-0.517569 8.515152 -0.394845 61
-0.812475 8.757756 0.285625 65
-1.062279 8.502744 -1.074901 21
-1.313872 8.354648 -0.212601 31
-0.527821 8.708018 -0.001523 30
-1.031240 8.265595 -0.610232 100
-0.530639 8.778963 0.133557 25
-1.034836 8.305796 -0.484078 37
-0.245840 8.647847 -0.283971 57
-0.794097 8.606873 -0.917613 27
-1.056824 8.493921 -0.100096 68
-0.245949 8.703199 -0.151976 76
-0.762065 8.274906 -0.753338 47
-1.062858 8.554165 0.031594 44
-0.776941 8.452019 -0.376516 76
-0.494466 8.272949 -0.895943 91
-0.779975 8.500708 -0.247390 65
-0.491648 8.313851 -0.771134 100
-0.779584 8.555760 -0.116964 61
-1.272747 8.180549 -0.590539 45
-0.493471 8.368570 -0.646517 64
-0.785461 8.636342 0.015135 26
-1.278747 8.228224 -0.465551 83
-0.503849 8.569102 -0.265261 27
-1.047988 8.525304 -0.895212 30
-1.308748 8.430614 -0.083389 44
-0.507035 8.648104 -0.134576 29
-1.015580 8.273159 -0.739503 35
-0.226992 8.527735 -0.542689 70
-1.027954 8.385625 -0.358524 101
-0.226808 8.575039 -0.413533 80
-0.770930 8.540270 -1.151766 40
-1.032921 8.437901 -0.230027 20
-0.230671 8.776950 -0.018389 57
-0.747731 8.298862 -0.626522 100
-1.050133 8.590486 0.164663 100
-0.231263 8.856201 0.117520 26
-0.757122 8.418943 -0.505157 56
-1.060852 8.690311 0.301136 22
-0.485206 8.445992 -0.521877 18
-0.776192 8.680090 0.149073 53
-1.274519 8.283649 -0.339551 59
-0.487157 8.504940 -0.394290 67
-0.782611 8.768503 0.285885 76
-1.030680 8.490640 -1.072909 31
-1.287131 8.374992 -0.213003 29
-0.498562 8.729774 -0.001526 30
-1.003341 8.277065 -0.610816 91
-0.500901 8.796735 0.133799 26
-1.008716 8.333143 -0.485463 45
-0.215553 8.644656 -0.283840 59
-0.764400 8.613554 -0.918036 16
-1.028608 8.509471 -0.100236 77
-0.216062 8.723995 -0.152325 77
-0.734230 8.289420 -0.754421 44
-1.034909 8.573708 0.031653 44
-0.747786 8.458659 -0.376693 66
-0.465362 8.270654 -0.895513 93
-0.752055 8.523293 -0.247970 62
-0.463288 8.327448 -0.772240 100
-0.750063 8.562413 -0.117019 63
-1.246582 8.200720 -0.591677 45
-0.463152 8.350331 -0.644979 64
-0.756007 8.647001 0.015149 28
-1.254814 8.264225 -0.467338 80
-0.475038 8.590769 -0.265879 25
-1.018222 8.528911 -0.895212 33
-1.275713 8.411404 -0.083155 44
-0.475743 8.629854 -0.134266 29
-0.981978 8.237090 -0.735968 53
-1.284524 8.479120 0.047897 30
-0.999148 8.393130 -0.358694 100
-0.197058 8.583767 -0.413919 76
-1.002989 8.437485 -0.229919 20
-0.200306 8.789699 -0.018414 59
-0.719790 8.313343 -0.627422 100
-1.021083 8.602042 0.164815 100
-0.200348 8.856955 0.117520 10
-0.727043 8.413579 -0.504680 61
-1.031452 8.701901 0.301411 22
-0.455936 8.451622 -0.522123 19
-0.745203 8.674777 0.148936 57
-1.243220 8.272239 -0.338903 63
-0.457466 8.506588 -0.394290 69
-0.752340 8.775166 0.286015 63
-0.998713 8.474478 -1.070420 19
-1.258483 8.383389 -0.213103 37
-0.468300 8.735456 -0.001527 28
-0.975375 8.288441 -0.611401 95
-0.470619 8.806417 0.133921 27
-0.981020 8.348512 -0.486156 37
-0.185547 8.653350 -0.284103 59
-0.998898 8.513010 -0.100236 74
-0.185694 8.728695 -0.152394 78
-0.705627 8.295902 -0.754782 43
-1.004044 8.569322 0.031623 43
-0.718931 8.469182 -0.377048 79
-0.436699 8.276199 -0.895943 83
-0.722636 8.529850 -0.248085 62
-0.434839 8.340947 -0.773347 95
-0.721175 8.576937 -0.117182 67
-1.216777 8.197128 -0.591108 49
-0.435864 8.387742 -0.647747 63
-0.722808 8.613713 0.015087 24
-1.221858 8.240901 -0.465775 76
-0.445461 8.600360 -0.266126 26
-0.983867 8.492892 -0.891066 32
-1.247516 8.423718 -0.083233 43
-0.447472 8.667410 -0.134825 33
-0.952762 8.236509 -0.735615 87
-1.257260 8.499380 0.047987 21
-0.969845 8.396567 -0.358694 100
-0.974447 8.448879 -0.230135 20
-0.169391 8.778347 -0.018389 55
-0.689446 8.299905 -0.626222 100
-0.993795 8.629392 0.165271 93
-0.699648 8.439940 -0.506112 55
-1.002440 8.717363 0.301823 22
-0.425828 8.441199 -0.521385 19
-0.716232 8.693269 0.149210 48
-1.217818 8.300254 -0.339875 56
-0.428371 8.520105 -0.394845 59
-0.721704 8.777738 0.286015 68
-0.966872 8.458197 -1.067930 29
-1.230371 8.395643 -0.213304 34
-0.437404 8.729048 -0.001525 26
-0.945080 8.279904 -0.610524 97
-1.249929 8.539111 0.180775 46
-0.440075 8.812001 0.133982 27
-0.953681 8.367756 -0.487080 45
-0.155412 8.657942 -0.284234 44
-0.969629 8.520419 -0.100283 76
-1.459000 8.178904 -0.576582 19
-0.155366 8.737288 -0.152534 80
-0.677960 8.314197 -0.756227 41
-0.974126 8.572775 0.031623 43
-0.690012 8.479606 -0.377402 69
-0.408981 8.301505 -0.898523 92
-0.692533 8.528336 -0.247970 65
-0.405721 8.342414 -0.773347 98
-0.693159 8.603322 -0.117509 70
-1.191017 8.221068 -0.592531 47
-0.407161 8.401163 -0.648670 70
-0.695301 8.648081 0.015142 25
-1.195372 8.260926 -0.466668 78
-0.415824 8.609850 -0.266373 24
-0.955547 8.508136 -0.892310 33
-1.221537 8.451774 -0.083467 46
-0.417792 8.680903 -0.135011 29
-0.922673 8.227906 -0.734554 100
-1.228155 8.507676 0.048009 34
-0.940085 8.395929 -0.358524 100
-0.947170 8.472097 -0.230676 23
-0.139127 8.802881 -0.018439 65
-0.662051 8.322142 -0.627722 101
-0.962336 8.620884 0.165043 89
-0.670183 8.442331 -0.506112 53
-0.972448 8.724782 0.301961 21
-0.396922 8.454598 -0.522123 19
-0.687140 8.711664 0.149484 49
-1.192236 8.328193 -0.340846 59
-0.399002 8.529531 -0.395215 73
-0.692001 8.792160 0.286404 46
-0.937341 8.461520 -1.067930 30
-1.199925 8.391971 -0.213103 35
-0.407677 8.746504 -0.001528 26
-0.918803 8.306944 -0.612277 98
-1.222941 8.563217 0.181194 46
-0.409313 8.813483 0.133982 25
-0.923590 8.363095 -0.486618 44
-1.239591 8.690249 0.318814 7
-0.938566 8.511825 -0.100143 70
-1.429067 8.176085 -0.576028 70
-0.124866 8.737777 -0.152534 76
-0.648314 8.308570 -0.755504 44
-0.945946 8.592027 0.031682 40
-1.433854 8.211618 -0.449995 22
-0.660718 8.485947 -0.377580 75
-0.380546 8.314800 -0.899813 100
-0.663998 8.546646 -0.248433 63
-1.203610 8.478807 -0.743212 17
-0.376418 8.339801 -0.772978 98
-0.663738 8.613665 -0.117618 66
-1.160638 8.213325 -0.591677 44
-0.378729 8.422454 -0.650208 69
-0.666029 8.662420 0.015163 27
-1.169320 8.284822 -0.467784 74
-0.385767 8.611249 -0.266373 26
-0.928854 8.539105 -0.895212 42
-1.191469 8.452025 -0.083428 48
-0.387844 8.690300 -0.135135 32
-0.894377 8.235039 -0.734908 100
-1.199566 8.519833 0.048054 27
-0.912495 8.415052 -0.359203 100
-0.916300 8.463427 -0.230352 18
-0.108399 8.803313 -0.018439 65
-0.633300 8.328379 -0.628022 101
-0.932238 8.624191 0.165043 100
-0.640408 8.440638 -0.505873 59
-0.944132 8.747996 0.302648 22
-0.368794 8.487842 -0.524094 21
-0.657628 8.725974 0.149689 42
-1.162053 8.324388 -0.340523 57
-0.369226 8.530872 -0.395215 71
-0.905683 8.445009 -1.065441 38
-1.172281 8.407990 -0.213405 38
-0.376971 8.743877 -0.001528 33
-0.888527 8.298201 -0.611401 100
-1.193042 8.567434 0.181194 49
-0.379060 8.826846 0.134164 25
-0.895665 8.378181 -0.487311 42
-1.204293 8.658890 0.317508 32
-0.620953 8.313993 -0.885098 0
-0.910122 8.526980 -0.100283 72
-1.397825 8.165291 -0.574920 81
-0.620492 8.326673 -0.756949 38
-0.915949 8.595276 0.031682 40
-1.402488 8.200825 -0.449133 21
-0.631093 8.488201 -0.377580 71
-0.352024 8.327998 -0.901102 100
-0.633569 8.540937 -0.248201 67
-1.175099 8.490852 -0.743904 19
-0.349093 8.348962 -0.773716 100
-0.634583 8.607841 -0.117509 69
-1.135031 8.228985 -0.592531 50
-0.350797 8.423663 -0.650208 62
-0.635833 8.644635 0.015129 25
-1.142930 8.296566 -0.468231 76
-0.357375 8.616475 -0.266497 25
-0.896778 8.506530 -0.891481 27
-1.162344 8.448006 -0.083350 52
-0.358363 8.675554 -0.134887 29
-0.868315 8.249846 -0.735968 100
-1.171851 8.527726 0.048076 31
-0.885002 8.422007 -0.359372 100
-0.889898 8.482326 -0.230785 17
-0.606546 8.342368 -0.628922 100
-0.903217 8.623258 0.164967 86
-1.398028 8.264347 -0.323460 5
-0.614436 8.470592 -0.507543 55
-0.914701 8.747103 0.302511 21
-0.340165 8.477051 -0.523355 19
-0.628688 8.728106 0.149689 47
-1.132823 8.316315 -0.340037 56
-0.341094 8.536042 -0.395399 67
-0.880134 8.471652 -1.068428 29
-1.142776 8.399943 -0.213103 37
-0.349404 8.781051 -0.001534 24
-0.862650 8.316974 -0.612570 95
-1.165164 8.575306 0.181278 47
-0.349471 8.820062 0.134042 29
-0.866643 8.369188 -0.486618 43
-1.173960 8.650952 0.317072 32
-0.591681 8.292201 -0.882564 20
-0.883074 8.541887 -0.100423 74
-1.370080 8.165945 -0.574643 89
-0.593442 8.336632 -0.757671 37
-0.887851 8.602245 0.031697 45
-1.376606 8.213309 -0.449564 56
-0.604923 8.518149 -0.378820 83
-1.163758 8.608373 -0.888488 7
-0.325179 8.348989 -0.903252 80
-0.606938 8.566921 -0.248897 65
-1.151201 8.526296 -0.746671 21
-0.318642 8.354165 -0.774084 101
-0.603308 8.614099 -0.117563 68
-1.102740 8.217273 -0.591393 50
-0.320526 8.440834 -0.651438 64
-0.606096 8.674839 0.015177 25
-1.111983 8.296741 -0.468008 73
-0.326093 8.625718 -0.266744 26
-0.867607 8.529550 -0.893554 31
-1.134557 8.475995 -0.083585 50
-0.327767 8.708783 -0.135384 30
-0.839682 8.268829 -0.737382 100
-1.141117 8.535929 0.048098 30
-0.854934 8.433146 -0.359711 100
-0.858803 8.485530 -0.230785 21
-0.577339 8.364431 -0.630421 100
-0.873615 8.646405 0.165347 100
-1.369033 8.277303 -0.323768 100
-0.583386 8.472787 -0.507543 58
-0.882234 8.746419 0.302373 22
-1.141423 8.582184 -1.040038 25
-0.309674 8.494200 -0.524340 20
-0.595603 8.714392 0.149415 52
-1.103909 8.332297 -0.340523 55
-0.310530 8.557200 -0.396324 62
-0.848683 8.470871 -1.067930 30
-1.115128 8.427860 -0.213706 37
-0.317074 8.778275 -0.001533 28
-0.832955 8.328018 -0.613154 100
-1.135297 8.591413 0.181529 49
-0.317860 8.841268 0.134346 26
-0.839137 8.404098 -0.488466 40
-1.141199 8.647271 0.316782 29
-0.559673 8.270502 -0.880030 50
-0.852554 8.553026 -0.100517 71
-1.334329 8.135472 -0.572151 84
-0.563151 8.342725 -0.758032 41
-0.857109 8.613402 0.031726 43
-1.347140 8.222241 -0.449779 47
-0.572893 8.508348 -0.378289 75
-1.124419 8.553401 -0.882383 20
-0.576071 8.577067 -0.249128 62
-1.095563 8.344755 -0.730416 26
-0.291430 8.371100 -0.775559 88
-0.575475 8.628028 -0.117726 65
-1.078529 8.244629 -0.593100 47
-0.292633 8.445837 -0.651745 69
-0.579676 8.712725 0.015240 23
-1.083909 8.296428 -0.467784 77
-0.297748 8.634744 -0.266991 27
-0.838134 8.520503 -0.892310 18
-1.106946 8.483679 -0.083624 46
-0.299169 8.717815 -0.135508 26
-0.812265 8.271567 -0.737382 100
-1.113331 8.543632 0.048121 29
-0.827387 8.439909 -0.359881 100
-0.831884 8.500264 -0.231109 19
-0.549939 8.370275 -0.630721 101
-0.846964 8.669148 0.165728 100
-1.344212 8.297566 -0.324385 83
-0.554607 8.462715 -0.506827 56
-0.855273 8.769180 0.303061 22
-1.108978 8.554399 -1.036222 24
-1.353698 8.364889 -0.196735 50
-0.282210 8.511135 -0.525325 18
-0.568699 8.744245 0.149894 55
-1.079004 8.355709 -0.341332 51
-0.282089 8.550190 -0.395954 60
-0.824613 8.513124 -1.072909 31
-1.086860 8.427521 -0.213606 36
-0.287668 8.763280 -0.001530 29
-0.805937 8.334684 -0.613446 93
-1.107027 8.595101 0.181529 52
-0.289057 8.850260 0.134468 18
-0.811508 8.406810 -0.488466 46
-1.116338 8.678728 0.317798 31
-0.533786 8.292143 -0.882142 68
-0.826378 8.575686 -0.100751 66
-1.312666 8.171329 -0.574366 91
-0.536027 8.348504 -0.758394 42
-0.829223 8.620150 0.031740 44
-1.318253 8.214787 -0.449133 42
-0.545250 8.514169 -0.378466 75
-1.098898 8.576777 -0.884418 30
-0.549245 8.598859 -0.249708 58
-1.053047 8.229715 -0.720041 36
-0.262457 8.380029 -0.776297 34
-0.544345 8.614017 -0.117509 61
-1.050750 8.256259 -0.593669 47
-0.263274 8.450793 -0.652053 63
-0.549008 8.710703 0.015233 23
-1.057964 8.323933 -0.469124 70
-0.268225 8.655711 -0.267609 23
-0.811767 8.559023 -0.896042 33
-1.077325 8.487492 -0.083624 46
-0.268490 8.710812 -0.135384 29
-0.782261 8.262452 -0.736322 100
-1.086016 8.567307 0.048232 28
-0.798297 8.446724 -0.360050 100
-0.803334 8.515059 -0.231434 19
-0.520470 8.368162 -0.630421 101
-0.817448 8.680016 0.165880 83
-1.313989 8.294312 -0.324077 69
-0.526546 8.488511 -0.508259 61
-0.825032 8.776093 0.303198 21
-1.077124 8.542458 -1.034313 41
-1.322616 8.357715 -0.196456 47
-0.252735 8.520049 -0.525818 18
-0.538418 8.750168 0.149963 55
-1.048835 8.351493 -0.341008 54
-0.252713 8.567098 -0.396694 55
-0.796367 8.531757 -1.074901 24
-1.059427 8.447134 -0.214008 33
-0.258249 8.804214 -0.001537 22
-0.777209 8.341419 -0.613739 100
-1.078012 8.606850 0.181696 52
-0.258279 8.855213 0.134528 12
-0.781048 8.397663 -0.487773 39
-1.087526 8.694471 0.318233 31
-0.504354 8.286016 -0.881297 83
-0.796068 8.574536 -0.100704 64
-1.288469 8.203456 -0.576305 100
-0.506882 8.350324 -0.758394 44
-0.799497 8.626975 0.031755 43
-1.292047 8.235122 -0.449995 38
-0.516975 8.539952 -0.379529 68
-1.064525 8.545021 -0.880755 21
-1.315439 8.393282 -0.066727 30
-0.518021 8.580769 -0.249128 56
-1.019394 8.193796 -0.716583 49
-0.515941 8.643813 -0.117890 63
-1.021434 8.255917 -0.593385 49
-0.518836 8.716559 0.015240 26
-1.029881 8.335502 -0.469570 73
-0.237569 8.640609 -0.267114 24
-0.785866 8.605387 -0.900603 32
-1.048182 8.495171 -0.083663 50
-0.238082 8.711696 -0.135384 28
-0.753776 8.269101 -0.736675 98
-1.055615 8.567075 0.048210 32
-0.769170 8.453440 -0.360220 96
-0.774691 8.529757 -0.231758 19
-0.490322 8.354001 -0.629221 100
-0.788949 8.702730 0.166261 95
-1.286863 8.310699 -0.324540 77
-0.497146 8.494284 -0.508498 59
-0.795473 8.790863 0.303611 20
-1.041018 8.494920 -1.028111 27
-1.295267 8.374136 -0.196735 49
-0.222889 8.516889 -0.525571 13
-0.507871 8.751994 0.149963 55
-1.019676 8.355103 -0.341008 50
-0.222702 8.563933 -0.396509 62
-0.766936 8.538438 -1.075398 23
-1.029934 8.450781 -0.214008 38
-0.228135 8.829053 -0.001541 24
-0.748087 8.344081 -0.613739 95
-1.049894 8.626439 0.182032 49
-0.753154 8.416248 -0.488697 36
-1.059581 8.718056 0.318959 32
-0.477706 8.327436 -0.885520 89
-0.767200 8.589214 -0.100844 71
-1.262247 8.223680 -0.577413 100
-0.479323 8.379883 -0.760922 41
-0.770799 8.645650 0.031814 40
-1.268135 8.271166 -0.451720 42
-0.486707 8.533726 -0.379175 72
-1.029432 8.505231 -0.876278 18
-1.287344 8.405730 -0.066790 35
-0.489428 8.606476 -0.249824 62
-0.991742 8.205216 -0.717274 69
-1.298659 8.488997 0.064452 7
-0.486526 8.657537 -0.118053 63
-0.992216 8.255461 -0.593100 44
-0.488237 8.714320 0.015233 27
-0.999878 8.331109 -0.469124 69
-0.208003 8.665366 -0.267856 23
-1.018542 8.498775 -0.083663 45
-0.207754 8.716473 -0.135446 28
-0.726634 8.291529 -0.738443 95
-1.025216 8.566737 0.048188 34
-0.739613 8.456077 -0.360220 100
-0.743096 8.512500 -0.231217 20
-0.462589 8.383546 -0.631321 100
-0.758454 8.705441 0.166261 100
-1.258336 8.319108 -0.324694 75
-0.467131 8.491988 -0.508259 62
-0.762557 8.769703 0.302786 18
-1.012156 8.506407 -1.029065 24
-1.264693 8.370719 -0.196549 50
-0.477941 8.769701 0.150236 56
-0.991680 8.370546 -0.341494 51
-0.193072 8.588634 -0.397619 46
-1.000158 8.454356 -0.214008 40
-0.196909 8.825804 -0.001541 28
-0.720026 8.362566 -0.614908 96
-1.019936 8.634059 0.182115 51
-0.724463 8.430791 -0.489390 40
-1.027861 8.713802 0.318669 33
-0.448058 8.325101 -0.885098 93
-0.737523 8.599843 -0.100938 71
-1.232584 8.224144 -0.577136 100
-0.450099 8.389482 -0.761644 44
-0.741230 8.660278 0.031858 40
-1.238273 8.271650 -0.451504 41
-0.456906 8.543377 -0.379529 77
-0.997909 8.496967 -0.875057 21
-1.255790 8.398370 -0.066695 38
-0.458058 8.592186 -0.249360 58
-0.966357 8.240345 -0.720041 61
-1.269143 8.497504 0.064482 49
-0.456302 8.659183 -0.118053 64
-0.965243 8.274726 -0.594239 44
-0.459074 8.739939 0.015275 25
-0.971715 8.342483 -0.469570 69
-0.177836 8.670036 -0.267979 23
-0.989332 8.506251 -0.083702 47
-0.177814 8.741137 -0.135819 27
-0.696685 8.282104 -0.737382 100
-0.997614 8.590130 0.048299 30
-0.711428 8.474536 -0.360898 100
-0.713711 8.519027 -0.231326 20
-0.433733 8.393077 -0.631921 100
-0.730728 8.739919 0.166869 94
-1.231625 8.339267 -0.325311 66
-0.437485 8.493567 -0.508259 53
-0.978813 8.478326 -1.025249 29
-1.238384 8.394863 -0.197013 48
-0.446919 8.763328 0.150099 55
-0.963368 8.381898 -0.341818 53
-0.970641 8.457796 -0.214008 38
-0.166702 8.858432 -0.001546 21
-0.691816 8.376956 -0.615785 85
-0.992068 8.657433 0.182534 49
-0.694045 8.421329 -0.488697 34
-0.998346 8.725280 0.318959 32
-0.420395 8.354423 -0.888054 87
-0.708483 8.614324 -0.101078 77
-1.206180 8.244190 -0.578244 100
-0.421012 8.394980 -0.762005 42
-0.710341 8.654840 0.031828 44
-1.209969 8.279875 -0.451720 39
-0.427081 8.544920 -0.379529 72
-0.965991 8.480631 -0.873022 24
-1.229355 8.422491 -0.066852 38
-0.429057 8.613700 -0.249939 62
-0.938938 8.255547 -0.721078 58
-1.237742 8.490008 0.064392 44
-0.427782 8.664642 -0.118108 70
-0.939145 8.289775 -0.595092 45
-1.243505 8.555846 0.197709 23
-0.430089 8.741412 0.015275 24
-0.944943 8.353596 -0.470017 69
-0.149290 8.682571 -0.268350 14
-0.674120 8.327506 -0.870749 1
-0.964710 8.541282 -0.084015 49
-0.148827 8.741678 -0.135819 27
-0.671142 8.308196 -0.739503 100
-0.969571 8.597366 0.048322 33
-0.684285 8.488799 -0.361407 100
-0.686739 8.537289 -0.231758 21
-1.223041 8.465371 -0.725755 16
-0.405899 8.394469 -0.631921 101
-0.697581 8.690470 0.165880 100
-1.202252 8.331437 -0.324848 89
-0.409509 8.498960 -0.508498 58
-0.950250 8.477578 -1.024772 32
-1.209969 8.394966 -0.196920 48
-0.417856 8.764761 0.150099 53
-0.935567 8.385047 -0.341818 53
-0.943474 8.468917 -0.214209 35
-0.137140 8.846937 -0.001544 26
-0.664348 8.383181 -0.616077 96
-0.963795 8.664649 0.182618 49
-0.667375 8.439507 -0.489621 39
-0.968965 8.724570 0.318814 31
-0.392502 8.351797 -0.887631 98
-0.679913 8.616626 -0.101078 77
-1.177141 8.236294 -0.577413 100
-0.393357 8.400310 -0.762366 39
-0.682264 8.665123 0.031858 47
-1.181941 8.279887 -0.451504 37
-0.399674 8.566248 -0.380416 76
-0.940487 8.507518 -0.875464 32
-1.199724 8.414642 -0.066758 36
-0.401419 8.635045 -0.250519 63
-0.911556 8.258615 -0.721078 54
-1.210709 8.501987 0.064452 43
-0.398180 8.682069 -0.118325 64
-0.911425 8.304910 -0.595946 44
-1.216353 8.579944 0.198166 27
-0.399519 8.742863 0.015275 22
-0.917901 8.376699 -0.471134 71
-1.223890 8.643399 0.333832 14
-0.641649 8.286178 -0.866187 14
-0.935304 8.548575 -0.084054 45
-0.118378 8.746143 -0.135881 18
-0.642456 8.314460 -0.739857 100
-0.937829 8.584791 0.048232 30
-0.653772 8.479179 -0.360898 100
-0.658546 8.559562 -0.232299 20
-1.194117 8.473524 -0.726093 20
-0.377775 8.419738 -0.633720 100
-0.669803 8.724744 0.166489 96
-1.176055 8.355358 -0.325619 82
-0.379982 8.500331 -0.508498 61
-0.917793 8.453191 -1.021432 45
-1.183582 8.418919 -0.197385 51
-0.388742 8.794125 0.150578 47
-0.906958 8.392209 -0.341980 56
-0.914607 8.476105 -0.214309 40
-0.106526 8.843358 -0.001544 18
-0.635080 8.381448 -0.615785 92
-0.932141 8.652023 0.182283 50
-0.638848 8.449724 -0.490082 39
-0.938424 8.723887 0.318669 35
-0.364228 8.365023 -0.888898 89
-0.651109 8.630883 -0.101218 85
-1.149844 8.248207 -0.577967 100
-0.364257 8.397635 -0.762005 43
-0.651523 8.655456 0.031814 43
-1.155627 8.299732 -0.452367 41
-0.370036 8.563580 -0.380239 70
-0.911643 8.514659 -0.875871 21
-1.175733 8.454374 -0.067041 40
-0.371922 8.640368 -0.250635 72
-0.883177 8.261698 -0.721078 51
-1.182593 8.514020 0.064512 50
-0.366525 8.687466 -0.118380 66
-0.880138 8.300260 -0.595377 48
-1.185444 8.588306 0.198258 27
-0.368312 8.764251 0.015310 24
-0.887193 8.380008 -0.471134 69
-1.191656 8.643867 0.333679 29
-0.611274 8.288474 -0.866187 41
-0.905227 8.563879 -0.084171 47
-0.613439 8.336627 -0.741624 93
-0.910976 8.631927 0.048478 27
-0.623275 8.489490 -0.361238 100
-0.625416 8.537991 -0.231650 24
-1.140842 8.315948 -0.712227 61
-0.346584 8.413095 -0.633120 100
-0.637237 8.719163 0.166337 87
-1.145424 8.359612 -0.325619 73
-0.350134 8.533583 -0.510407 51
-0.888875 8.476247 -1.023818 29
-1.148921 8.395466 -0.196735 50
-0.356994 8.807478 0.150784 53
-0.877438 8.407403 -0.342466 51
-0.884777 8.491331 -0.214611 36
-0.604930 8.391677 -0.616369 96
-0.902493 8.675270 0.182702 48
-0.609306 8.471924 -0.491237 36
-0.908921 8.751124 0.319540 31
-0.333567 8.366301 -0.888898 81
-0.618898 8.625233 -0.101125 79
-1.119068 8.248412 -0.577690 100
-0.333950 8.410854 -0.763088 43
-0.620937 8.673744 0.031872 40
-1.124663 8.299954 -0.452151 42
-0.338962 8.572864 -0.380593 70
-0.877974 8.494194 -0.873429 26
-1.144739 8.458628 -0.067041 42
-0.340408 8.645668 -0.250751 72
-0.851663 8.252987 -0.720041 53
-1.152986 8.530189 0.064602 48
-0.337869 8.692630 -0.118434 65
-0.853831 8.315040 -0.596231 46
-1.156424 8.588226 0.198166 29
-0.339401 8.769422 0.015317 23
-0.858992 8.378930 -0.470910 65
-1.166182 8.671539 0.334597 31
-0.583506 8.286487 -0.865773 96
-0.876008 8.558876 -0.084093 47
-0.586070 8.342590 -0.741978 93
-0.879907 8.611026 0.048344 28
-0.595120 8.491509 -0.361238 100
-1.147933 8.568032 -0.867416 22
-0.599889 8.579906 -0.232732 19
-1.103744 8.248577 -0.706140 83
-0.319589 8.438114 -0.634920 100
-0.612772 8.785061 0.167554 100
-1.120872 8.387136 -0.326545 74
-0.321834 8.534697 -0.510407 51
-0.862768 8.498903 -1.026203 22
-1.124778 8.426976 -0.197385 51
-0.327636 8.804617 0.150715 45
-0.851160 8.426172 -0.343113 52
-0.857818 8.506155 -0.214913 35
-0.577099 8.393637 -0.616369 99
-0.875722 8.698110 0.183121 47
-0.581756 8.481866 -0.491699 30
-0.879496 8.750113 0.319395 35
-1.139462 8.602084 -1.011664 12
-0.590839 8.635219 -0.101218 75
-1.092756 8.259989 -0.578244 100
-0.306491 8.423859 -0.764172 44
-0.594349 8.707681 0.031990 36
-1.100272 8.327396 -0.453445 38
-0.310965 8.585921 -0.381125 65
-0.851782 8.516856 -0.875464 24
-1.117206 8.466342 -0.067072 38
-0.312312 8.662733 -0.251214 63
-0.826666 8.279558 -0.722116 56
-1.124170 8.530000 0.064572 51
-0.307894 8.701748 -0.118543 63
-0.824885 8.317961 -0.596231 46
-1.128084 8.604095 0.198441 27
-0.308983 8.774549 0.015324 23
-0.830184 8.385847 -0.471134 72
-1.135960 8.675550 0.334597 34
-0.553535 8.272593 -0.864114 100
-0.846541 8.565860 -0.084132 43
-0.557464 8.352537 -0.742685 100
-0.851009 8.625988 0.048411 28
-0.566758 8.513476 -0.362086 100
-1.114370 8.544367 -0.864621 23
-0.571447 8.605891 -0.233381 19
-1.070237 8.216819 -0.703096 97
-0.289613 8.427222 -0.634020 100
-0.581461 8.779173 0.167402 97
-1.087356 8.359302 -0.325311 71
-0.291215 8.515821 -0.509214 54
-0.835277 8.525592 -1.029065 20
-1.096760 8.442766 -0.197663 47
-0.296922 8.813710 0.150852 25
-0.820341 8.417181 -0.342628 52
-0.825912 8.489223 -0.214410 39
-0.549053 8.419505 -0.618123 100
-0.843110 8.681242 0.182702 47
-0.551290 8.475897 -0.491237 38
-0.850528 8.773057 0.320121 33
-1.100453 8.539065 -1.003789 12
-0.560317 8.637253 -0.101218 72
-1.062029 8.251926 -0.577413 100
-0.276293 8.412946 -0.763088 22
-0.563797 8.713721 0.032004 37
-1.069276 8.319352 -0.452798 39
-0.280815 8.594956 -0.381479 69
-0.821993 8.523781 -0.875871 26
-1.089759 8.490083 -0.067229 38
-0.281855 8.671778 -0.251446 69
-0.796541 8.274504 -0.721424 61
-1.098496 8.569638 0.064842 51
-0.278028 8.718760 -0.118761 64
-0.796984 8.332705 -0.597085 43
-1.099562 8.619881 0.198715 28
-0.278987 8.795563 0.015359 23
-0.803184 8.412548 -0.472473 72
-1.108700 8.703253 0.335514 32
-0.525158 8.282416 -0.864944 100
-0.817774 8.580708 -0.084249 42
-0.527550 8.342503 -0.741624 100
-0.821651 8.636869 0.048456 28
-0.536785 8.511415 -0.361916 100
-1.084037 8.544256 -0.864222 27
-0.539647 8.579899 -0.232624 20
-1.036538 8.180964 -0.699714 93
-0.260441 8.436155 -0.634620 100
-0.550061 8.769175 0.167174 91
-1.061181 8.386839 -0.326236 81
-0.262713 8.556695 -0.511600 60
-0.805885 8.532410 -1.029543 25
-1.066781 8.442575 -0.197570 47
-0.790955 8.419993 -0.342628 48
-0.798141 8.511962 -0.214913 36
-0.518923 8.409425 -0.617246 83
-0.815411 8.712004 0.183288 49
-0.522191 8.485742 -0.491699 41
-0.819900 8.775972 0.320121 32
-1.068664 8.527085 -1.001936 12
-0.531389 8.659117 -0.101452 74
-1.037183 8.287259 -0.579628 101
-0.532888 8.707651 0.031975 36
-1.041220 8.330961 -0.453229 36
-0.250927 8.599879 -0.381657 69
-0.797389 8.582068 -0.881569 26
-1.060612 8.497804 -0.067261 41
-0.251583 8.672709 -0.251446 62
-0.768021 8.281201 -0.721770 56
-1.065608 8.549605 0.064662 48
-0.248046 8.735669 -0.118979 61
-0.768991 8.347355 -0.597938 49
-1.068974 8.619698 0.198624 29
-0.248283 8.796483 0.015359 23
-0.774180 8.419277 -0.472697 71
-1.079296 8.715004 0.335819 35
-0.496720 8.292142 -0.865773 100
-0.787085 8.575544 -0.084171 44
-0.500089 8.372134 -0.744099 100
-0.793687 8.663585 0.048590 25
-0.507785 8.525205 -0.362425 100
-1.054206 8.547989 -0.864222 27
-0.510642 8.597696 -0.233057 21
-1.013334 8.228045 -0.703434 97
-0.520630 8.791003 0.167554 92
-1.032874 8.398426 -0.326545 79
-0.232843 8.557560 -0.511600 48
-0.779693 8.574722 -1.034313 26
-1.036817 8.442279 -0.197477 49
-0.763358 8.442606 -0.343437 52
-0.769502 8.526644 -0.215214 34
-0.490956 8.435081 -0.618999 100
-0.786789 8.734713 0.183707 46
-0.493261 8.499473 -0.492392 40
-0.790335 8.790725 0.320556 14
-1.037451 8.518932 -1.000546 13
-0.501853 8.672898 -0.101593 67
-1.005840 8.271023 -0.578244 100
-0.503180 8.721438 0.032019 40
-1.011652 8.330580 -0.453014 38
-0.221522 8.624671 -0.382720 65
-0.770616 8.620471 -0.885232 24
-1.033832 8.525279 -0.067449 36
-0.221614 8.685525 -0.251793 58
-0.740526 8.299708 -0.723153 48
-1.036238 8.557244 0.064692 53
-0.217306 8.728486 -0.118870 59
-0.739452 8.346018 -0.597654 53
-1.039790 8.631323 0.198806 26
-0.217250 8.785301 0.015338 23
-0.744407 8.417953 -0.472473 69
-1.047884 8.710785 0.335514 31
-0.468657 8.309714 -0.867431 101
-0.758190 8.590193 -0.084288 50
-0.470421 8.365872 -0.743392 100
-0.762746 8.658333 0.048545 26
-0.478270 8.530913 -0.362594 100
-1.016811 8.488385 -0.857832 28
-0.479776 8.583455 -0.232624 16
-0.987013 8.251315 -0.705125 100
-0.489556 8.784778 0.167402 100
-1.004084 8.405942 -0.326699 74
-1.007890 8.449809 -0.197570 49
-0.734010 8.445208 -0.343437 45
-0.740915 8.541216 -0.215516 32
-0.461888 8.440718 -0.619292 94
-0.755081 8.721455 0.183372 51
-0.463550 8.497145 -0.492161 31
-1.005554 8.502752 -0.998230 14
-0.471776 8.674586 -0.101593 71
-0.978089 8.282387 -0.578797 101
-0.473602 8.735112 0.032063 34
-0.984179 8.345936 -0.453661 38
-0.191649 8.625386 -0.382720 60
-1.000088 8.493057 -0.067167 34
-0.191460 8.682243 -0.251678 58
-0.711451 8.298252 -0.722808 59
-1.007078 8.564753 0.064722 51
-0.187007 8.737189 -0.118979 61
-0.710653 8.352524 -0.597938 46
-1.012905 8.662703 0.199447 25
-0.187092 8.810000 0.015380 21
-0.716370 8.436418 -0.473366 73
-1.019326 8.730269 0.336125 31
-0.440278 8.323218 -0.868675 101
-0.727863 8.588802 -0.084249 49
-0.442055 8.383379 -0.744806 99
-0.733866 8.676886 0.048634 28
-0.448489 8.532531 -0.362594 100
-0.987175 8.491883 -0.857832 26
-0.451067 8.609035 -0.233273 19
-0.958205 8.254710 -0.705125 99
-0.459722 8.802408 0.167706 98
-0.976116 8.421308 -0.327162 71
-0.979308 8.461220 -0.197756 49
-0.705190 8.455685 -0.343761 42
-0.712423 8.559690 -0.215918 36
-0.432625 8.446262 -0.619584 100
-0.725957 8.739979 0.183707 47
-0.433683 8.494723 -0.491930 31
-0.971340 8.466739 -0.993598 16
