# This PCD file was generated using the MATLAB® pcwrite function
# from Computer Vision Toolbox®.
# .PCD v.7 - Point Cloud Data file format
VERSION .7
FIELDS x y z intensity
SIZE 4 4 4 1
TYPE F F F U
COUNT 1 1 1 1
WIDTH 805
HEIGHT 1
VIEWPOINT 0 0 0 1 0 0 0
POINTS 805
DATA ascii
-3.609561 16.171627 -0.862574 2
-3.553106 16.184124 -0.862574 29
-3.529564 16.192650 -0.607699 43
-3.484277 16.126373 -1.113183 20
-3.489848 16.165192 -0.860911 36
-3.471344 16.197056 -0.607406 39
-3.424647 16.122822 -1.112106 35
-3.430082 16.161644 -0.860079 28
-3.394102 16.097618 -1.364127 14
-3.410665 16.189516 -0.606673 48
-3.370347 16.130184 -1.111837 38
-3.369939 16.141647 -0.858415 25
-3.337464 16.093172 -1.362804 29
-3.352904 16.181168 -0.605940 44
-3.305590 16.115063 -1.109952 43
-3.303535 16.118671 -0.856544 34
-3.273393 16.066738 -1.613500 27
-3.275277 16.089670 -1.361482 33
-3.287998 16.165928 -0.604914 43
-3.242224 16.091291 -1.107528 49
-3.246462 16.126188 -0.856336 42
-3.216509 16.074163 -1.613108 32
-3.216749 16.089279 -1.360491 40
-3.233897 16.189066 -0.605354 47
-3.190404 16.109783 -1.108067 61
-3.196840 16.156460 -0.857376 47
-3.152339 16.030077 -1.607624 27
-3.160964 16.088144 -1.359499 43
-3.175454 16.176189 -0.604475 61
-3.131104 16.105152 -1.106990 68
-3.135092 16.140072 -0.855920 56
-3.092592 16.021441 -1.605665 28
-3.102522 16.087337 -1.358507 47
-3.120482 16.195026 -0.604768 60
-3.071308 16.112598 -1.106720 72
-3.072178 16.131832 -0.854880 67
-3.031630 16.020933 -1.604490 35
-3.040576 16.082933 -1.357185 49
-3.059619 16.198498 -0.604475 52
-3.572026 16.173441 -0.830361 34
-3.013606 16.115370 -1.106182 74
-3.012898 16.126755 -0.854048 59
-2.978264 16.047134 -1.606057 39
-2.984042 16.093517 -1.357185 52
-3.001178 16.201298 -0.604181 53
-3.511138 16.155382 -1.083599 13
-3.511509 16.170336 -0.829560 40
-2.957267 16.109573 -1.105105 76
-2.957241 16.124870 -0.853425 68
-2.925747 16.060839 -1.606449 44
-2.927803 16.087637 -1.355863 52
-2.942430 16.183630 -0.603155 60
-3.453372 16.147421 -1.082291 33
-3.452024 16.154545 -0.828158 35
-3.444240 16.179480 -0.574769 9
-2.898202 16.120304 -1.105105 74
-2.896708 16.127737 -0.853009 67
-3.409263 16.109285 -1.333508 26
-2.862667 16.047941 -1.604098 50
-2.865322 16.078638 -1.354210 61
-2.882394 16.190371 -0.603009 61
-2.880224 16.194132 -0.350286 24
-3.388422 16.132626 -1.080460 35
-3.387868 16.143629 -0.826956 33
-3.381074 16.160126 -0.573658 35
-2.839117 16.114607 -1.104028 83
-2.841104 16.141682 -0.853217 65
-3.344276 16.078110 -1.329956 40
-2.804220 16.042093 -1.602531 49
-2.807498 16.076694 -1.353219 60
-2.823537 16.184509 -0.602423 68
-2.818653 16.172487 -0.349605 29
-3.331883 16.140322 -1.080198 39
-3.334564 16.166960 -0.827557 37
-3.322230 16.160082 -0.573241 33
-2.783527 16.128351 -1.104297 82
-2.783384 16.143627 -0.852801 67
-3.293523 16.102333 -1.585474 65
-3.284141 16.070154 -1.328342 43
-2.807993 16.400991 -1.637395 20
-2.748675 16.070681 -1.351897 65
-2.762313 16.166685 -0.601397 70
-2.757473 16.154634 -0.349009 24
-3.272349 16.136206 -1.079152 45
-3.275730 16.166756 -0.826956 43
-3.265455 16.155336 -0.572686 33
-2.724703 16.106012 -1.102143 99
-2.726506 16.133076 -0.851761 71
-3.228333 16.054615 -1.579713 49
-3.232403 16.088774 -1.328988 46
-2.695367 16.079706 -1.351897 62
-2.706706 16.163929 -0.600957 85
-2.703228 16.159744 -0.348924 24
-3.215700 16.131311 -1.078105 45
-3.218980 16.161858 -0.826155 54
-3.212857 16.186256 -0.573380 40
-2.665840 16.099680 -1.101066 97
-2.668230 16.130669 -0.851137 73
-3.166200 16.034519 -1.576640 47
-3.180980 16.123404 -1.330925 64
-2.637528 16.077177 -1.350905 53
-2.651186 16.177179 -0.601103 81
-2.649043 16.180872 -0.349179 28
-3.157460 16.130611 -1.077320 54
-3.162962 16.172915 -0.826155 58
-3.151749 16.173832 -0.572547 44
-2.608987 16.104948 -1.100796 88
-2.609355 16.124111 -0.850305 75
-3.107937 16.033747 -1.575488 55
-3.123163 16.126581 -1.330279 63
-2.578866 16.070541 -1.349583 57
-2.590905 16.162653 -0.600224 77
-2.591280 16.182123 -0.349009 35
-3.098122 16.125854 -1.076274 46
-3.104230 16.172087 -0.825554 68
-3.092269 16.169029 -0.571991 48
-2.550257 16.098190 -1.099719 97
-2.552431 16.129177 -0.850097 71
-3.613961 16.173912 -0.798946 25
-3.057158 16.071877 -1.578176 69
-3.064619 16.125633 -1.329311 63
-2.525225 16.095198 -1.350905 42
-2.532614 16.159750 -0.599784 87
-2.532304 16.175266 -0.348668 39
-3.040334 16.128727 -1.075751 54
-3.047760 16.182823 -0.825554 65
-3.040195 16.187035 -0.572269 49
-2.492600 16.078949 -1.097834 99
-2.497084 16.125711 -0.849474 75
-3.562804 16.197531 -0.799523 45
-3.002273 16.074120 -1.577408 72
-3.010985 16.135735 -1.329311 76
-2.467332 16.075943 -1.348591 46
-2.477495 16.160206 -0.599491 89
-2.983492 16.123102 -1.074704 50
-2.992157 16.185070 -0.825154 67
-2.984398 16.201481 -0.572408 52
-2.434068 16.071768 -1.096757 97
-2.438390 16.118530 -0.848642 71
-3.493275 16.136845 -1.050333 32
-3.496106 16.163008 -0.797212 38
-2.943994 16.072752 -1.576256 83
-2.951054 16.126537 -1.327696 69
-2.407656 16.060804 -1.346608 43
-2.421070 16.168755 -0.599491 39
-2.924344 16.117708 -1.073658 56
-2.931367 16.171831 -0.823952 78
-2.923563 16.188196 -0.571575 55
-2.378536 16.084114 -1.097026 100
-2.381527 16.122993 -0.848434 69
-3.432771 16.129417 -1.049063 33
-3.435510 16.155573 -0.796249 41
-2.882242 16.051580 -1.573183 92
-2.891928 16.121042 -1.326405 66
-2.349847 16.057278 -1.345616 50
-3.404729 16.116905 -1.302208 37
-2.867366 16.123888 -1.073396 50
-2.872104 16.166231 -0.823151 71
-2.865678 16.190424 -0.571297 49
-2.320106 16.076517 -1.095949 92
-2.320099 16.095625 -0.846562 61
-3.375613 16.137398 -1.048810 39
-3.379883 16.171385 -0.796442 42
-2.829601 16.081158 -1.575104 90
-2.828680 16.091782 -1.323176 66
-2.290859 16.045668 -1.343964 46
-3.352238 16.133965 -1.557681 1
-3.338592 16.081867 -1.298425 35
-3.359108 16.194382 -0.542879 15
-2.807471 16.114168 -1.072088 53
-2.814788 16.172255 -0.822951 65
-2.809238 16.184082 -0.570741 52
-2.814515 16.230688 -0.319172 1
-2.267338 16.088074 -1.096219 92
-3.319668 16.136774 -1.048048 46
-3.322216 16.162935 -0.795479 45
-2.774228 16.078682 -1.573951 86
-2.773947 16.093216 -1.322530 60
-2.239839 16.068968 -1.345286 47
-3.290746 16.105976 -1.553916 32
-3.279661 16.065502 -1.296219 40
-3.299794 16.178011 -0.541960 29
-2.760067 16.158798 -1.074443 52
-2.759799 16.173624 -0.822550 71
-2.748039 16.166203 -0.569769 53
-2.745121 16.165499 -0.317700 41
-3.264901 16.156088 -1.048556 46
-3.263404 16.162685 -0.794901 51
-2.716096 16.076490 -1.572799 45
-2.717091 16.098869 -1.322207 71
-2.178368 16.037188 -1.341981 42
-3.221185 16.050991 -1.547517 27
-3.223562 16.076853 -1.296219 49
-3.237805 16.161991 -0.541042 35
-2.695746 16.121094 -1.071303 56
-2.699376 16.159517 -0.821348 69
-2.692171 16.179653 -0.569908 60
-2.686006 16.159210 -0.317390 36
-3.206972 16.159548 -1.048048 52
-3.203150 16.154369 -0.793938 60
-2.657107 16.084633 -1.320270 75
-3.160018 16.034733 -1.544882 29
-3.176969 16.134897 -1.300002 58
-3.177842 16.153517 -0.540385 43
-2.638556 16.122463 -1.070780 52
-2.643371 16.168772 -0.821348 71
-2.633107 16.173168 -0.569352 56
-2.627657 16.156647 -0.317157 41
-3.147492 16.154970 -1.047032 52
-3.149795 16.181139 -0.794708 56
-2.603489 16.109552 -1.321561 71
-3.102515 16.037848 -1.544129 28
-3.116088 16.122396 -1.298110 68
-3.122195 16.168436 -0.540517 55
-2.575322 16.088223 -1.067902 54
-2.583131 16.154232 -0.820147 75
-2.571608 16.150679 -0.568241 63
-2.568731 16.149921 -0.316848 42
-3.089582 16.158018 -1.046524 49
-3.090294 16.176338 -0.793938 65
-2.539773 16.071285 -1.317687 78
-3.606192 16.160810 -0.766387 36
-3.050227 16.068140 -1.546011 33
-3.059048 16.129259 -1.297795 69
-3.064249 16.171379 -0.540254 62
-2.519765 16.101057 -1.068164 60
-2.524258 16.147362 -0.819346 68
-2.514106 16.151638 -0.567963 70
-3.025738 16.129480 -1.043985 52
-3.031493 16.175264 -0.793360 61
-2.482851 16.076143 -1.317364 80
-3.545951 16.157772 -0.765647 34
-2.998068 16.102259 -1.548270 44
-3.000797 16.132086 -1.297165 63
-3.005801 16.174213 -0.539992 72
-2.461732 16.101955 -1.067641 55
-2.466017 16.148275 -0.818945 70
-2.458913 16.168221 -0.568241 56
-2.970140 16.143869 -1.044238 50
-2.972123 16.170031 -0.792589 59
-2.423151 16.061058 -1.315427 89
-3.487684 16.148254 -1.019126 48
-3.482785 16.138805 -0.764168 34
-2.938267 16.093039 -1.546388 48
-2.940174 16.118925 -1.295273 72
-2.946457 16.168875 -0.539467 81
-2.403742 16.098608 -1.066856 59
-2.407866 16.144932 -0.818344 73
-3.445550 16.106676 -1.270273 3
-2.909517 16.130568 -1.042715 54
-2.913536 16.168510 -0.792012 66
-2.368235 16.077309 -1.316072 95
-3.427149 16.140804 -1.017894 47
-3.422282 16.131321 -0.763243 34
-2.880670 16.095358 -1.545635 48
-2.879679 16.105537 -1.293382 62
-2.886485 16.159384 -0.538811 78
-2.345230 16.091103 -1.065809 55
-2.346315 16.117659 -0.816542 75
-3.392815 16.121943 -1.270581 43
-2.853335 16.124386 -1.041699 54
-2.858697 16.170181 -0.791626 57
-2.314678 16.081078 -1.315749 78
-3.366015 16.112881 -1.015431 47
-3.370237 16.146357 -0.763428 38
-2.824563 16.085083 -1.543753 53
-2.825682 16.107002 -1.292751 71
-2.832387 16.160835 -0.538548 78
-2.288954 16.070982 -1.063978 57
-3.329979 16.088724 -1.521247 35
-3.329249 16.098537 -1.267812 36
-2.797033 16.134247 -1.041699 49
-2.800189 16.168251 -0.791049 63
-2.257422 16.081163 -1.315104 84
-3.304934 16.101067 -1.013954 43
-3.313856 16.158022 -0.763428 51
-2.766374 16.083071 -1.542624 50
-2.767415 16.104979 -1.291806 69
-2.774606 16.162743 -0.538286 83
-2.233391 16.082827 -1.064240 36
-3.268243 16.072927 -1.518666 47
-3.265094 16.070976 -1.264737 34
-3.285690 16.185991 -0.510384 14
-2.738024 16.128170 -1.040683 55
-2.739726 16.154293 -0.789893 63
-2.200734 16.084995 -1.314781 82
-3.248710 16.112505 -1.013954 44
-3.258223 16.173409 -0.763613 55
-2.709555 16.088701 -1.542247 53
-2.709197 16.102743 -1.290860 67
-2.717507 16.168388 -0.538155 79
-2.717884 16.186911 -0.286499 17
-3.209158 16.068583 -1.517191 48
-3.209075 16.082256 -1.264737 39
-3.221392 16.158146 -0.509148 40
-2.679008 16.121891 -1.039667 50
-2.679904 16.144075 -0.788930 67
-2.144833 16.096567 -1.315104 23
-3.192771 16.127752 -1.014200 54
-3.197356 16.165186 -0.762688 58
-2.648921 16.074581 -1.539988 43
-2.650394 16.100403 -1.289914 72
-2.659057 16.170000 -0.537892 76
-2.659307 16.188532 -0.286359 42
-3.144618 16.036694 -1.513134 49
-3.154452 16.101189 -1.265352 45
-3.161898 16.153597 -0.508654 35
-2.622716 16.131145 -1.039667 54
-2.622253 16.145445 -0.788545 69
-3.138741 16.150557 -1.014939 53
-3.139386 16.168404 -0.762318 64
-2.590259 16.068003 -1.538483 7
-2.592909 16.101683 -1.289284 67
-2.601962 16.175236 -0.537761 81
-2.596438 16.158228 -0.285661 34
-3.673100 16.216875 -0.737610 2
-3.088620 16.047573 -1.513134 49
-3.097476 16.108185 -1.265044 42
-3.103983 16.156683 -0.508407 32
-2.560123 16.100777 -1.037128 60
-2.562745 16.134769 -0.787582 69
-3.077110 16.133963 -1.013215 51
-3.079189 16.159637 -0.761394 64
-2.532346 16.083061 -1.287077 77
-2.544242 16.176321 -0.537498 78
-2.542502 16.182997 -0.285940 19
-3.607779 16.190594 -0.735837 33
-3.033282 16.062178 -1.513503 52
-3.041942 16.122822 -1.265352 44
-3.049779 16.179209 -0.508777 39
-2.503927 16.109612 -1.037128 60
-2.506447 16.143610 -0.787582 62
-3.579007 16.212023 -0.992179 1
-3.018690 16.132809 -1.012476 56
-3.022165 16.166334 -0.761209 61
-2.476359 16.091778 -1.287077 69
-2.484301 16.161367 -0.536711 71
-3.550604 16.199137 -0.735660 34
-2.976470 16.068752 -1.513134 50
-2.977661 16.090206 -1.261969 46
-2.990377 16.174030 -0.508283 50
-2.447080 16.114307 -1.036874 55
-2.447683 16.136461 -0.786811 72
-3.514771 16.189301 -0.990031 36
-2.957313 16.115761 -1.010752 61
-2.963554 16.164995 -0.760654 58
-2.418987 16.092438 -1.286447 83
-3.486459 16.176273 -0.734064 38
-2.916803 16.059450 -1.511290 53
-2.920766 16.096577 -1.261661 46
-2.928908 16.156832 -0.507418 56
-2.387888 16.103008 -1.035604 58
-2.391927 16.148859 -0.787004 69
-3.437363 16.090494 -1.237149 19
-3.456571 16.193661 -0.989554 28
-2.901748 16.129915 -1.010998 64
-2.902162 16.147713 -0.759359 71
-2.361642 16.092892 -1.285816 84
-3.427487 16.176619 -0.733532 38
-2.858565 16.041599 -1.508708 52
-2.863829 16.086552 -1.260123 49
-2.875996 16.170395 -0.507542 59
-2.335087 16.114782 -1.035858 55
-2.332708 16.117151 -0.785078 16
-3.382443 16.093977 -1.236549 24
-3.398056 16.181561 -0.988122 29
-2.844987 16.119753 -1.009767 70
-2.846760 16.145399 -0.758805 64
-2.305733 16.080856 -1.284240 95
-3.366407 16.137001 -1.494396 4
-3.373398 16.183903 -0.733355 45
-2.800497 16.039709 -1.507602 52
-2.806289 16.088593 -1.259508 58
-2.816102 16.160643 -0.506924 63
-2.278822 16.122835 -1.035858 51
-3.326244 16.105686 -1.236549 24
-3.335902 16.165951 -0.986452 32
-2.785301 16.109915 -1.008536 60
-2.786304 16.131613 -0.757695 66
-2.244064 16.049314 -1.281088 93
-3.301259 16.105726 -1.490424 48
-3.316083 16.191664 -0.733178 58
-2.745833 16.057240 -1.508340 54
-2.746754 16.078634 -1.257970 55
-2.758328 16.162491 -0.506677 64
-3.263659 16.085926 -1.234150 29
-3.272313 16.142277 -0.984305 37
-2.727050 16.107731 -1.007797 71
-2.729311 16.137300 -0.757510 70
-2.189105 16.064953 -1.281718 100
-3.237157 16.078098 -1.486812 36
-3.256392 16.187469 -0.732469 68
-2.686639 16.047056 -1.506496 54
-2.689397 16.080240 -1.257355 53
-2.700615 16.164127 -0.506430 70
-3.204943 16.085526 -1.233250 34
-3.218014 16.165403 -0.985020 45
-2.665785 16.089655 -1.006073 58
-2.671143 16.138931 -0.757140 64
-3.177163 16.073818 -1.485368 34
-3.195168 16.179300 -0.731582 80
-3.190358 16.169342 -0.477631 8
-2.629320 16.048477 -1.505758 58
-2.631962 16.081657 -1.256740 53
-2.643530 16.169510 -0.506306 66
-2.643669 16.187567 -0.254800 14
-3.146478 16.084871 -1.232350 33
-3.160801 16.172619 -0.984782 54
-2.609605 16.098864 -1.006073 67
-2.612236 16.132380 -0.756400 67
-3.123312 16.096542 -1.486451 40
-3.137151 16.182508 -0.731228 74
-3.130856 16.164679 -0.477168 33
-2.570763 16.041826 -1.504283 53
-2.575810 16.090748 -1.256740 50
-2.582021 16.147057 -0.505318 73
-2.584625 16.180899 -0.254552 28
-3.647733 16.174862 -0.703650 23
-3.091816 16.103592 -1.232950 34
-3.103576 16.179632 -0.984543 56
-2.554644 16.115761 -1.006565 77
-2.554033 16.129560 -0.755845 69
-3.067851 16.111259 -1.486812 53
-3.077657 16.177658 -0.730519 81
-3.072171 16.163725 -0.476820 29
-2.513475 16.042839 -1.503545 25
-2.515901 16.076004 -1.254894 58
-2.525014 16.152021 -0.505195 65
-3.589542 16.179688 -0.703311 29
-3.032687 16.098597 -1.231750 27
-3.044937 16.178581 -0.983827 58
-2.496661 16.112724 -1.005826 67
-2.495408 16.122561 -0.755106 81
-3.558002 16.153147 -0.956608 30
-3.010333 16.114000 -1.486090 54
-3.022121 16.192190 -0.730696 76
-3.015235 16.170376 -0.476704 30
-2.460372 16.088631 -1.255202 57
-2.468014 16.156786 -0.505071 73
-3.524523 16.153074 -0.701615 30
-2.972850 16.089472 -1.230251 27
-2.985545 16.173407 -0.982873 60
-2.438012 16.105551 -1.004841 60
-2.437920 16.123272 -0.754736 82
-3.499060 16.153759 -0.955915 39
-2.951913 16.112656 -1.485007 68
-2.958387 16.163332 -0.728923 62
-2.958771 16.180801 -0.476704 37
-2.406417 16.092756 -1.254894 41
-3.470099 16.160765 -0.701446 32
-2.917344 16.087467 -1.229351 32
-2.929760 16.171431 -0.982157 56
-2.384590 16.113548 -1.004841 62
-2.383855 16.127316 -0.754551 77
-3.443890 16.144527 -1.209358 35
-3.442975 16.153557 -0.955222 35
-2.898465 16.122356 -1.485007 58
-2.904771 16.173054 -0.728923 71
-2.902979 16.178719 -0.476357 45
-2.348427 16.089230 -1.253972 38
-3.411252 16.161036 -0.700937 35
-2.857135 16.073963 -1.227552 30
-2.869303 16.157936 -0.980725 61
-2.325238 16.098017 -1.003363 62
-3.382208 16.129030 -1.207312 34
-3.386219 16.161470 -0.954991 39
-2.838582 16.108738 -1.482840 42
-2.843363 16.151505 -0.727505 59
-2.846447 16.184700 -0.476241 49
-2.289440 16.077587 -1.252434 39
-3.344129 16.107908 -1.459564 46
-3.355631 16.176758 -0.701106 48
-2.797587 16.064190 -1.226052 31
-2.812200 16.163919 -0.980487 54
-2.267917 16.098129 -1.002871 53
-3.317835 16.101667 -1.204389 30
-3.328979 16.169281 -0.954760 42
-2.781657 16.114622 -1.482479 46
-2.787646 16.165268 -0.727683 51
-2.788577 16.186657 -0.476009 55
-2.230562 16.065729 -1.250896 39
-3.279918 16.080444 -1.456030 39
-3.296749 16.176624 -0.700598 57
-2.742166 16.077789 -1.226352 30
-2.758443 16.189381 -0.981441 54
-3.258444 16.097509 -1.203220 33
-3.270143 16.169060 -0.954067 49
-2.723398 16.112450 -1.481395 51
-2.727210 16.151258 -0.726619 53
-2.732058 16.196293 -0.476009 53
-2.176173 16.085260 -1.251819 33
-3.222179 16.083986 -1.455323 38
-3.237824 16.176294 -0.700089 58
-2.683192 16.071562 -1.225152 30
-2.697702 16.175325 -0.980009 64
-3.203211 16.116726 -1.203805 39
-3.209929 16.164837 -0.953143 58
-2.662475 16.098402 -1.479228 39
-2.671291 16.168703 -0.726974 60
-2.670709 16.182207 -0.475314 51
-3.167553 16.102955 -1.456030 47
-3.179026 16.175734 -0.699580 59
-2.624503 16.065083 -1.223953 36
-2.638008 16.164940 -0.978816 53
-3.147698 16.131725 -1.204097 44
-3.151956 16.168104 -0.952681 53
-2.604356 16.095800 -1.478145 46
-2.612922 16.166094 -0.726442 61
-2.612931 16.183538 -0.475082 57
-3.109058 16.102177 -1.454969 57
-3.120272 16.174961 -0.699071 59
-2.567151 16.066269 -1.223353 30
-2.580936 16.170107 -0.978578 56
-3.637183 16.170397 -0.671492 57
-3.091368 16.142614 -1.204097 39
-3.093998 16.171164 -0.952220 69
-2.545666 16.089054 -1.476701 87
-2.551486 16.143539 -0.725024 65
-2.552060 16.164913 -0.474271 53
-3.604404 16.173349 -0.926414 1
-3.049872 16.097273 -1.453555 65
-3.060841 16.170042 -0.698393 66
-3.060497 16.183119 -0.445664 23
-2.508031 16.055418 -1.221853 30
-2.523317 16.171116 -0.978100 59
-3.580838 16.182968 -0.671492 97
-3.031472 16.133675 -1.202636 44
-3.035493 16.170057 -0.951527 60
-2.484821 16.066317 -1.473812 85
-2.495339 16.152313 -0.725024 67
-2.495855 16.173687 -0.474271 64
-3.541085 16.154623 -0.924627 38
-2.991479 16.096067 -1.452495 70
-3.004379 16.180628 -0.698393 66
-2.994507 16.142593 -0.444258 25
-2.450166 16.052246 -1.220954 37
-2.460836 16.140354 -0.975714 52
-3.514978 16.152411 -0.669711 81
-2.971522 16.124542 -1.201174 42
-2.977584 16.172701 -0.951065 67
-2.426938 16.063076 -1.472728 59
-2.437749 16.153023 -0.724669 73
-3.478098 16.123211 -1.176524 24
-3.480466 16.147366 -0.923511 44
-2.935275 16.106413 -1.452495 65
-2.945016 16.175291 -0.697714 66
-2.933848 16.129345 -0.443609 26
-2.391766 16.044920 -1.219754 31
-2.403893 16.144896 -0.975476 58
-3.456066 16.152857 -0.669225 75
-2.914509 16.130890 -1.200882 43
-2.921113 16.182997 -0.951065 64
-2.381932 16.165386 -0.724846 46
-3.422837 16.126875 -1.175955 50
-3.423512 16.143208 -0.922618 41
-2.877657 16.092522 -1.450374 77
-2.890018 16.177088 -0.697375 62
-2.879750 16.135029 -0.443500 27
-2.338123 16.048794 -1.219454 35
-2.347664 16.132994 -0.974283 60
-3.397053 16.136782 -0.668091 91
-2.856551 16.112894 -1.198836 45
-2.861635 16.157122 -0.948986 64
-3.368475 16.093452 -1.426940 29
-3.359190 16.103573 -1.173394 35
-3.364697 16.143330 -0.921948 37
-2.821466 16.102468 -1.450374 71
-2.827329 16.151648 -0.695849 54
-2.821344 16.133167 -0.443176 35
-2.280965 16.048960 -1.218854 34
-2.289652 16.129230 -0.973567 55
-3.337466 16.132885 -0.667444 99
-2.796875 16.103115 -1.197375 47
-2.801122 16.143404 -0.947600 69
-3.315490 16.120726 -1.428323 33
-3.304560 16.123018 -1.173963 37
-3.307524 16.151064 -0.921725 48
-2.761871 16.092585 -1.448606 77
-2.772283 16.169296 -0.696188 56
-2.768387 16.162622 -0.443717 42
-2.224383 16.052874 -1.218554 31
-3.277947 16.128771 -0.666796 100
-2.740648 16.112780 -1.197375 45
-2.742747 16.141273 -0.946908 62
-3.256830 16.120483 -1.427286 45
-3.245272 16.118776 -1.172825 45
-3.249651 16.154659 -0.921278 52
-2.702356 16.082485 -1.446839 71
-2.711770 16.155243 -0.695171 50
-2.712466 16.176155 -0.443825 46
-3.218043 16.124527 -0.666148 101
-2.681844 16.110538 -1.196498 52
-2.684436 16.142977 -0.946446 66
-3.198102 16.124111 -1.426594 51
-3.184344 16.106522 -1.171117 51
-3.189372 16.146315 -0.920162 57
-2.643615 16.076094 -1.445425 78
-2.657953 16.180384 -0.695849 57
-2.655337 16.181580 -0.443717 50
-3.160970 16.131741 -0.665986 101
-2.624309 16.111927 -1.195914 47
-2.624864 16.132542 -0.945291 66
-3.137229 16.111708 -1.424519 53
-3.127342 16.113623 -1.170832 59
-3.138313 16.184793 -0.921725 60
-2.584952 16.069489 -1.444011 75
-2.598286 16.169834 -0.695001 61
-2.598203 16.186802 -0.443609 51
-3.103131 16.134827 -0.665663 101
-2.563031 16.089474 -1.193576 53
-2.566652 16.129774 -0.944598 74
-3.077229 16.102989 -1.422790 53
-3.068751 16.112698 -1.169978 67
-3.075773 16.164274 -0.919938 64
-2.528236 16.074476 -1.443657 82
-2.536290 16.143267 -0.693475 63
-2.536183 16.160210 -0.442635 44
-3.601776 16.204178 -0.640595 6
-3.044068 16.129805 -0.665015 101
-3.055499 16.205250 -0.414546 1
-2.506545 16.094332 -1.193283 53
-2.506376 16.110962 -0.942981 76
-3.567957 16.166859 -0.893737 35
-3.017575 16.077929 -1.673191 68
-3.019267 16.101795 -1.421752 54
-3.008092 16.099781 -1.168271 62
-3.017864 16.167059 -0.919492 56
-2.469689 16.067451 -1.442243 80
-2.478711 16.144121 -0.693135 55
-2.484001 16.196629 -0.443392 6
-3.540923 16.197128 -0.639824 51
-2.986290 16.132473 -0.664691 101
-2.996732 16.204020 -0.414245 49
-2.450950 16.106928 -1.193576 48
-2.451323 16.127508 -0.943443 74
-3.510880 16.163305 -1.147902 8
-3.506420 16.155794 -0.892443 41
-2.956392 16.060970 -1.670342 53
-2.963043 16.112236 -1.421752 47
-2.951155 16.106258 -1.167986 70
-2.957817 16.157852 -0.918375 54
-2.410630 16.056273 -1.440476 86
-2.422342 16.152676 -0.693135 65
-3.475123 16.166405 -0.638128 46
-2.927104 16.127068 -0.664043 101
-2.931590 16.167166 -0.413038 64
-2.392952 16.103546 -1.192699 51
-2.393253 16.124117 -0.942750 71
-3.445271 16.132536 -1.144856 27
-3.448337 16.160124 -0.892012 37
-2.903247 16.102871 -1.420023 52
-2.891389 16.096827 -1.166563 62
-2.899281 16.156286 -0.917706 64
-2.352836 16.052763 -1.439415 43
-3.413312 16.139736 -1.399767 3
-3.412886 16.151062 -0.637048 36
-2.869393 16.129318 -0.663719 101
-2.874439 16.173365 -0.412938 53
-2.332718 16.084166 -1.190653 51
-2.336383 16.128420 -0.942519 62
-3.392216 16.160086 -1.145964 36
-3.384528 16.136879 -0.890072 36
-2.846327 16.108984 -1.419677 36
-2.833108 16.095032 -1.165710 65
-2.840792 16.154509 -0.917036 58
-3.344787 16.093018 -1.394694 35
-3.358926 16.174616 -0.637510 47
-2.810328 16.123486 -0.663072 101
-2.813850 16.159662 -0.412335 51
-2.274883 16.080360 -1.189776 52
-3.331755 16.152287 -1.144579 41
-3.330598 16.160332 -0.890719 39
-2.786000 16.095261 -1.417602 39
-2.777587 16.108755 -1.165994 75
-2.778284 16.128904 -0.915026 61
-3.289795 16.096758 -1.648570 38
-3.283010 16.077261 -1.392327 31
-3.300847 16.178410 -0.637202 47
-2.748649 16.101679 -0.661776 101
-2.759441 16.181211 -0.412636 62
-2.220918 16.104012 -1.190945 51
-3.271390 16.144264 -1.143194 42
-3.267034 16.136627 -0.888778 43
-2.728468 16.097031 -1.416911 42
-2.718061 16.098675 -1.164571 64
-2.719336 16.122746 -0.914133 68
-3.224948 16.065224 -1.644177 35
-3.226831 16.088631 -1.392327 40
-3.244299 16.189844 -0.637202 59
-2.695601 16.130907 -0.662586 100
-2.700171 16.174992 -0.412234 71
-3.213274 16.147795 -1.142640 48
-3.213601 16.163643 -0.889640 53
-2.668116 16.082907 -1.414835 40
-2.658597 16.088383 -1.163148 74
-2.663040 16.132141 -0.914133 61
-3.162693 16.045143 -1.640983 30
-3.174503 16.119349 -1.394018 46
-3.185451 16.189306 -0.636739 62
-2.636698 16.124439 -0.661938 100
-2.644983 16.192211 -0.412435 78
-3.152297 16.135414 -1.140979 42
-3.150273 16.139479 -0.887700 59
-2.610683 16.084255 -1.414144 40
-2.602422 16.097565 -1.163148 65
-2.604802 16.129509 -0.913463 58
-3.102885 16.036549 -1.638986 26
-3.118973 16.134245 -1.394356 49
-3.127404 16.192476 -0.636431 59
-2.578503 16.121706 -0.661453 100
-2.585291 16.181602 -0.411933 94
-3.095955 16.146320 -1.140979 53
-3.092413 16.142532 -0.887269 60
-2.549525 16.061785 -1.411377 100
-2.543100 16.086845 -1.161725 65
-2.545992 16.122725 -0.912570 68
-3.046146 16.043371 -1.638586 30
-3.055207 16.105875 -1.390974 46
-3.068630 16.191513 -0.635968 56
-2.520360 16.118763 -0.660967 100
-2.526940 16.178675 -0.411631 80
-3.035148 16.133499 -1.139317 49
-3.036047 16.153229 -0.887269 66
-2.489778 16.046959 -1.409302 101
-2.482057 16.064081 -1.159449 69
-2.488479 16.123619 -0.912123 66
-2.991583 16.061733 -1.639385 38
-2.998968 16.116442 -1.390974 49
-3.011362 16.198196 -0.635814 51
-2.461665 16.111658 -0.660319 101
-2.975917 16.128298 -1.138209 44
-2.976022 16.144087 -0.886191 68
-2.434345 16.059492 -1.409648 101
-2.427754 16.084482 -1.160302 65
-2.430396 16.120359 -0.911454 60
-2.936214 16.075993 -1.639784 39
-2.942693 16.126812 -1.390974 46
-2.949783 16.181084 -0.634734 62
-2.948460 16.189262 -0.382050 6
-2.404230 16.112247 -0.659995 100
-2.918890 16.134661 -1.137932 43
-2.916099 16.134726 -0.885112 72
-2.373021 16.032413 -1.406535 101
-2.369849 16.081017 -1.159449 67
-2.372948 16.120844 -0.911007 51
-2.879379 16.082226 -1.639385 32
-2.880768 16.105598 -1.388269 53
-2.892580 16.187347 -0.634580 66
-2.884201 16.156153 -0.381028 18
-2.856979 16.113319 -1.135717 41
-2.859761 16.144806 -0.885112 62
-2.315334 16.028767 -1.405498 101
-2.311430 16.073395 -1.158310 64
-2.316093 16.125074 -0.910784 49
-2.883059 16.433231 -1.674130 12
-2.822467 16.103779 -1.387254 54
-2.831922 16.173723 -0.633654 62
-2.829855 16.177938 -0.381307 18
-2.802081 16.131056 -1.136271 47
-2.802704 16.150755 -0.884897 68
-2.260481 16.044643 -1.406189 96
-2.256451 16.069118 -1.157456 67
-2.821126 16.399555 -1.669737 13
-2.762974 16.077696 -1.384210 51
-2.776919 16.175146 -0.633346 49
-2.776867 16.191175 -0.381400 18
-2.743884 16.112722 -1.134332 54
-2.745112 16.136333 -0.883603 66
-2.201893 16.088766 -1.158310 20
-2.708888 16.099022 -1.385225 45
-2.716564 16.161074 -0.632420 64
-2.716487 16.177086 -0.380843 22
-2.685985 16.110340 -1.133501 49
-2.687816 16.137878 -0.883172 67
-2.648142 16.080851 -1.382858 43
-2.657539 16.154682 -0.631803 58
-2.655463 16.158848 -0.380193 24
-2.629091 16.115679 -1.133224 51
-2.625044 16.107740 -0.881016 70
-2.592627 16.093933 -1.383196 44
-2.599863 16.155968 -0.631495 64
-2.601580 16.183811 -0.380564 22
-2.569048 16.101114 -1.131563 54
-2.571316 16.132584 -0.881878 67
-2.536984 16.106833 -1.383534 45
-2.540247 16.145218 -0.630724 73
-2.545566 16.196766 -0.380657 16
-2.512499 16.110035 -1.131563 46
-2.510324 16.113890 -0.880369 70
-2.474682 16.076197 -1.380152 44
-2.481445 16.138184 -0.630107 73
-2.455047 16.110819 -1.131009 55
-2.453459 16.118607 -0.880153 61
-2.418550 16.084738 -1.380152 42
-2.425097 16.146748 -0.630107 48
-2.394683 16.091661 -1.129070 54
-2.395418 16.115219 -0.879506 70
-2.358877 16.069427 -1.378123 44
-2.339458 16.107847 -1.129624 48
-2.336080 16.103748 -0.878428 75
-2.302205 16.073618 -1.377785 42
-2.280978 16.100111 -1.128517 45
-2.244981 16.073662 -1.377108 47
-2.222035 16.088211 -1.127132 35
-2.190050 16.089283 -1.377785 23