# This PCD file was generated using the MATLAB® pcwrite function
# from Computer Vision Toolbox®.
# .PCD v.7 - Point Cloud Data file format
VERSION .7
FIELDS x y z intensity
SIZE 4 4 4 1
TYPE F F F U
COUNT 1 1 1 1
WIDTH 1465
HEIGHT 1
VIEWPOINT 0 0 0 1 0 0 0
POINTS 1465
DATA ascii
-0.834762 4.989222 -0.679451 101
-1.021054 5.100907 -0.140765 101
-1.204454 5.161403 0.355747 101
-1.340027 5.021604 -0.440999 101
-0.524740 5.125196 -0.010790 101
-0.842997 5.043601 -0.384491 101
-1.021178 5.105942 0.099071 101
-1.345064 5.043848 -0.201449 101
-0.522622 5.112907 0.068178 101
-0.850265 5.092292 -0.308535 101
-1.026176 5.135379 0.180131 101
-1.165294 5.001115 -0.616867 64
-1.347952 5.058058 -0.121532 101
-0.679993 5.076927 -0.315983 101
-0.851081 5.112891 0.088664 101
-1.174722 5.052991 -0.210175 101
-1.362337 5.122313 0.284275 100
-0.677063 5.061449 -0.236352 101
-0.853185 5.130805 0.168908 101
-0.992926 4.986253 -0.637771 100
-1.178093 5.071315 -0.130878 101
-1.354052 5.094576 0.363993 53
-0.512095 5.051476 -0.479952 100
-0.685949 5.134381 -0.000904 101
-0.848845 5.109959 0.407673 200
-1.008097 5.066843 -0.378472 101
-1.183692 5.099269 0.109655 101
-0.517959 5.117808 -0.406645 100
-0.686602 5.145797 0.078834 101
-1.011383 5.087781 -0.300008 101
-1.189549 5.128376 0.191201 101
-1.327090 4.999836 -0.603107 101
-0.516030 5.107232 -0.168493 100
-0.687703 5.160595 0.319338 101
-0.830703 5.011068 -0.539251 100
-1.015272 5.111795 -0.060946 101
-1.336130 5.037273 -0.361679 101
-0.515379 5.109290 -0.089636 100
-0.691378 5.194774 0.402321 101
-0.835681 5.046297 -0.463703 101
-1.012927 5.104433 0.019074 101
-1.338604 5.049993 -0.282029 101
-0.518803 5.151822 0.148249 101
-0.665384 5.005840 -0.741377 101
-0.839397 5.073979 -0.228143 101
-1.021710 5.153184 0.261534 101
-1.157382 5.001040 -0.525034 101
-1.340694 5.061279 -0.041123 101
-0.519256 5.164939 0.228458 101
-0.667261 5.026361 -0.548142 101
-0.842937 5.100646 -0.149825 101
-1.019951 5.148806 0.342188 101
-1.166311 5.043442 -0.449247 101
-1.343950 5.076982 0.039415 101
-0.515827 5.165154 0.308393 101
-0.663917 5.026657 -0.469466 101
-0.839188 5.098925 -0.070353 101
-1.159009 5.027014 -0.367984 101
-1.343341 5.088285 0.120345 101
-0.516019 5.175794 0.389273 95
-0.668117 5.064954 -0.394000 101
-0.841011 5.115318 0.009048 101
-1.169168 5.074931 -0.291165 101
-1.341864 5.086122 0.201155 100
-0.671548 5.097501 -0.158885 101
-0.846971 5.156928 0.250109 101
-0.989969 5.023653 -0.533644 101
-1.169194 5.078911 -0.050940 101
-0.500846 5.040598 -0.557438 80
-0.669895 5.091500 -0.079776 101
-0.849916 5.180246 0.332111 101
-0.992909 5.042994 -0.456003 101
-1.172870 5.098759 0.029221 101
-0.504375 5.084717 -0.325055 101
-0.676630 5.149312 0.158678 101
-0.998928 5.078022 -0.219626 101
-1.183004 5.146735 0.273066 101
-1.315366 4.995795 -0.518373 101
-0.503962 5.089169 -0.246541 101
-0.676936 5.158286 0.238975 101
-0.817341 4.992105 -0.679451 101
-1.002471 5.100516 -0.140656 101
-1.186430 5.165576 0.355747 101
-1.323504 5.030105 -0.441337 101
-0.506059 5.119035 -0.010774 101
-0.821524 5.022894 -0.382691 101
-1.002578 5.105551 0.098995 101
-1.335581 5.079437 -0.202683 101
-0.505557 5.122661 0.068284 101
-0.833772 5.103110 -0.309012 101
-1.006705 5.131084 0.179856 101
-1.155820 5.039990 -0.621161 64
-1.331304 5.066600 -0.121625 101
-0.660719 5.067393 -0.315244 101
-0.832585 5.111884 0.088596 101
-1.155294 5.049269 -0.209851 101
-1.339383 5.107719 0.283204 100
-0.660939 5.075668 -0.236907 101
-0.836554 5.141644 0.169168 101
-0.977038 4.997479 -0.638767 100
-1.162166 5.083192 -0.131079 101
-1.338284 5.106992 0.364544 70
-0.494459 5.053232 -0.479952 100
-0.667507 5.132778 -0.000903 101
-0.829723 5.105019 0.407046 200
-0.987345 5.054670 -0.377303 101
-1.164104 5.095572 0.109487 101
-0.496603 5.083867 -0.403807 100
-0.668121 5.144196 0.078773 101
-0.993617 5.091280 -0.300008 101
-1.169861 5.124702 0.190911 101
-1.308624 5.000594 -0.602644 101
-0.496648 5.093086 -0.167968 100
-0.670712 5.170883 0.319828 101
-0.814480 5.021790 -0.540095 100
-0.997423 5.115308 -0.060946 101
-1.316519 5.034185 -0.361125 101
-0.498704 5.123000 -0.089845 100
-0.673753 5.201110 0.402627 101
-0.818698 5.053116 -0.464065 101
-0.995103 5.107937 0.019074 101
-1.316928 5.039176 -0.281166 101
-0.501204 5.157581 0.148363 101
-0.647907 5.008132 -0.741377 101
-0.821681 5.076879 -0.228143 101
-1.002953 5.152798 0.261336 101
-1.141686 5.012810 -0.525848 101
-1.324030 5.069798 -0.041154 100
-0.502382 5.178653 0.228986 100
-0.651750 5.044436 -0.549862 101
-0.825765 5.107505 -0.149941 101
-1.003497 5.160172 0.342709 100
-1.147815 5.043597 -0.448902 101
-1.328240 5.089383 0.039475 101
-0.498201 5.170896 0.308630 101
-0.650452 5.060544 -0.472416 101
-0.822044 5.105768 -0.070407 101
-1.140596 5.027133 -0.367699 101
-1.319552 5.069717 0.119796 100
-0.649940 5.063298 -0.393692 101
-0.821260 5.106372 0.009027 101
-1.145279 5.051713 -0.289602 101
-1.324117 5.090771 0.201155 101
-0.653247 5.095848 -0.158761 101
-0.830872 5.171687 0.250683 101
-0.971677 5.023171 -0.533230 101
-1.149697 5.075158 -0.050862 101
-0.483624 5.046274 -0.557875 80
-0.653131 5.101742 -0.079901 101
-0.833722 5.195006 0.332868 100
-0.976808 5.054254 -0.456710 101
-1.158594 5.118428 0.029310 101
-0.485850 5.078500 -0.324547 101
-0.660159 5.163541 0.159045 101
-0.980426 5.077557 -0.219456 101
-1.165900 5.154732 0.273272 101
-1.301907 5.015769 -0.519971 101
-0.484653 5.074990 -0.245770 101
-0.658398 5.156657 0.238791 101
-0.800516 4.998846 -0.679984 101
-0.982367 5.092210 -0.140332 101
-1.165730 5.158012 0.354944 101
-1.305917 5.034700 -0.441337 101
-0.489674 5.136702 -0.010807 101
-0.804585 5.029675 -0.382991 101
-0.984719 5.109026 0.098995 101
-1.184684 5.245985 -1.546409 60
-1.308785 5.049253 -0.201295 101
-0.488390 5.132361 0.068390 101
-0.814023 5.094168 -0.308296 101
-0.989503 5.138500 0.179994 101
-1.132935 5.020759 -0.618298 64
-1.313570 5.071227 -0.121625 101
-0.642959 5.069677 -0.315244 101
-0.813410 5.106870 0.088459 101
-1.136717 5.049387 -0.209689 101
-1.319478 5.104647 0.282776 100
-0.641634 5.066062 -0.236352 101
-0.817267 5.136649 0.168908 101
-0.958764 4.996976 -0.638269 100
-1.140828 5.071630 -0.130676 101
-1.321370 5.115516 0.364820 87
-0.477854 5.066829 -0.481082 100
-0.650503 5.143024 -0.000905 101
-0.812438 5.111836 0.407360 175
-0.972614 5.073774 -0.378472 101
-1.147978 5.107428 0.109655 101
-0.482496 5.125278 -0.406960 100
-0.650064 5.146509 0.078773 101
-0.972739 5.079048 -0.299084 101
-1.149242 5.117076 0.190476 101
-1.290074 5.001308 -0.602181 101
-0.478762 5.094799 -0.167968 100
-0.651053 5.161323 0.319093 101
-0.796843 5.024619 -0.540095 100
-0.977953 5.110922 -0.060853 101
-1.299831 5.042641 -0.361402 101
-0.479210 5.108792 -0.089566 100
-0.653982 5.191574 0.401708 101
-0.800318 5.052026 -0.463703 101
-0.977153 5.111402 0.019074 101
-1.300214 5.047640 -0.281382 101
-0.483073 5.159310 0.148363 101
-0.631782 5.022159 -0.743120 101
-0.803207 5.075788 -0.227966 101
-0.982587 5.144519 0.260739 101
-1.123190 5.012908 -0.525441 101
-1.303211 5.062799 -0.041060 101
-0.633511 5.042750 -0.549432 101
-0.807799 5.110377 -0.149941 101
-0.986093 5.167589 0.342969 100
-1.129201 5.043714 -0.448556 101
-1.306349 5.078527 0.039355 101
-0.631194 5.042913 -0.470572 101
-0.802617 5.092663 -0.070189 101
-0.985616 5.177921 0.425012 2
-1.123919 5.030887 -0.367699 101
-1.303727 5.077939 0.119887 101
-0.633641 5.069383 -0.394000 101
-0.804944 5.113019 0.009034 101
-1.128521 5.055484 -0.289602 101
-1.309215 5.102877 0.201461 101
-0.637831 5.109888 -0.159132 101
-0.813097 5.170467 0.250492 101
-0.955757 5.030274 -0.533644 101
-1.133731 5.082846 -0.050901 101
-0.467620 5.055768 -0.558751 80
-0.636209 5.103880 -0.079901 101
-0.814632 5.185912 0.332111 101
-0.957813 5.045722 -0.455650 101
-1.136393 5.098817 0.029176 101
-0.469007 5.080083 -0.324547 101
-0.640070 5.141897 0.158312 101
-0.963582 5.080780 -0.219456 101
-1.146195 5.146873 0.272653 101
-1.282305 5.008491 -0.518773 101
-0.469654 5.096462 -0.246733 101
-0.642280 5.166742 0.239158 101
-0.783321 4.997556 -0.679451 101
-0.968452 5.111155 -0.140765 101
-1.147752 5.157954 0.354676 101
-1.286250 5.027419 -0.440323 101
-0.470806 5.118381 -0.010765 101
-0.788519 5.036255 -0.383291 101
-0.966284 5.104404 0.098843 101
-1.169785 5.261142 -1.549726 74
-1.295994 5.069056 -0.201912 101
-0.472464 5.145902 0.068549 101
-0.799594 5.112619 -0.309251 101
-0.972458 5.141753 0.179994 101
-1.118863 5.036119 -0.619729 64
-1.297736 5.079429 -0.121717 101
-0.626633 5.075744 -0.315491 101
-0.795239 5.101636 0.088322 101
-1.119101 5.049226 -0.209527 101
-1.306490 5.124476 0.283632 100
-0.625809 5.076094 -0.236722 101
-0.801459 5.147231 0.169168 101
-0.942188 5.000128 -0.638269 100
-1.123139 5.071482 -0.130576 101
-1.316221 5.166274 0.368126 90
-0.459606 5.052523 -0.479576 100
-0.631489 5.129273 -0.000902 101
-0.795482 5.114502 0.407360 200
-0.954307 5.069130 -0.377888 101
-1.129306 5.103397 0.109487 101
-0.461170 5.079195 -0.403177 100
-0.632994 5.148636 0.078773 101
-0.955891 5.082246 -0.299084 101
-1.129678 5.109149 0.190040 101
-1.271523 4.997858 -0.601254 101
-0.463669 5.116266 -0.168624 100
-0.635394 5.175342 0.319828 101
-0.778956 5.019372 -0.539251 100
-0.961737 5.118068 -0.060899 101
-1.282119 5.043056 -0.361125 101
-0.463347 5.122303 -0.089775 100
-0.636762 5.193714 0.401708 101
-0.781730 5.042842 -0.462620 101
-0.958722 5.106751 0.019044 101
-1.279534 5.036439 -0.280519 101
-0.614644 5.020298 -0.742540 101
-0.786371 5.078424 -0.227966 101
-0.968468 5.163455 0.261534 101
-1.109132 5.028263 -0.526662 101
-1.284446 5.059340 -0.040997 101
-0.616303 5.040876 -0.549002 101
-0.787792 5.093271 -0.149361 101
-0.968216 5.166907 0.342709 101
-1.111612 5.043539 -0.448210 101
-1.291468 5.090586 0.039415 101
-0.614068 5.049039 -0.470941 101
-0.787271 5.111246 -0.070407 101
-0.968999 5.189169 0.425655 20
-1.107207 5.038677 -0.367984 101
-1.285013 5.078582 0.119796 101
-0.615461 5.067605 -0.393692 101
-0.786483 5.111844 0.009027 101
-1.112580 5.067194 -0.290049 101
-1.287475 5.091916 0.200850 100
-0.619509 5.108114 -0.159008 101
-0.793830 5.165375 0.250109 101
-0.938192 5.033579 -0.533644 101
-1.114268 5.078959 -0.050823 101
-0.448912 5.045489 -0.557438 80
-0.617428 5.098129 -0.079776 101
-0.794102 5.172940 0.331100 101
-0.936547 5.029450 -0.453882 101
-1.117732 5.098845 0.029154 101
-0.451977 5.089642 -0.325055 101
-0.623077 5.152038 0.158556 101
-0.945110 5.080184 -0.219287 101
-1.127367 5.146940 0.272446 101
-1.263841 5.009078 -0.518373 101
-0.451156 5.090111 -0.246348 101
-0.623282 5.161019 0.238791 101
-0.764671 4.992423 -0.678386 101
-0.946952 5.094848 -0.140224 101
-1.128887 5.158030 0.354408 101
-1.268693 5.031878 -0.440323 101
-0.770934 5.038977 -0.383291 101
-0.949920 5.115610 0.098995 101
-1.141558 5.220128 -1.536461 67
-1.279269 5.077425 -0.202066 101
-0.781743 5.115379 -0.309251 101
-0.953775 5.141186 0.179856 101
-1.099581 5.032234 -0.618775 64
-1.277068 5.072295 -0.121439 101
-0.609387 5.081864 -0.315737 101
-0.778028 5.108335 0.088390 101
-1.101470 5.053102 -0.209527 101
-1.287621 5.125131 0.283418 100
-0.606661 5.066345 -0.236167 101
-0.784088 5.153950 0.169298 101
-0.925450 5.007289 -0.638767 100
-1.108833 5.091000 -0.130978 101
-1.288462 5.132133 0.365371 99
-0.441966 5.054096 -0.479576 100
-0.614531 5.139390 -0.000903 101
-0.777025 5.113305 0.407046 200
-0.935883 5.068508 -0.377595 101
-1.109785 5.099493 0.109319 101
-0.447252 5.124471 -0.406645 100
-0.614070 5.142872 0.078652 101
-0.936696 5.077697 -0.298622 101
-1.115234 5.128686 0.190621 101
-1.255036 5.006120 -0.601718 101
-0.446500 5.125819 -0.168887 99
-0.617797 5.181492 0.320073 101
-0.761431 5.022061 -0.539251 100
-0.944591 5.125327 -0.060946 101
-1.266447 5.055243 -0.361679 101
-0.620987 5.215707 0.403239 101
-0.764122 5.045540 -0.462620 101
-0.942338 5.117934 0.019074 101
-1.262916 5.044749 -0.280735 101
-0.596649 5.018483 -0.741958 101
-0.768041 5.077187 -0.227789 101
-0.947547 5.151088 0.260739 101
-1.088199 5.016549 -0.525034 101
-1.266778 5.063792 -0.040997 101
-0.599172 5.046946 -0.549432 101
-0.771204 5.103897 -0.149593 101
-0.950174 5.170256 0.342709 101
-1.095688 5.055178 -0.448902 101
-1.269810 5.079541 0.039295 101
-0.598284 5.066977 -0.472416 101
-0.768211 5.106056 -0.070298 101
-0.950855 5.192524 0.425655 32
-1.087060 5.030817 -0.367130 101
-1.266286 5.079162 0.119704 101
-0.597753 5.069724 -0.393692 101
-0.768620 5.114560 0.009027 101
-1.094028 5.067146 -0.289825 101
-1.271611 5.104139 0.201155 101
-0.599331 5.090393 -0.158391 101
-0.774009 5.156262 0.249536 101
-0.919180 5.028997 -0.532815 101
-1.094840 5.074999 -0.050745 101
-0.431639 5.050986 -0.557875 80
-0.599631 5.100252 -0.079776 101
-0.776043 5.175680 0.331100 101
-0.921852 5.048366 -0.455296 101
-1.099087 5.098805 0.029131 101
-0.433882 5.087210 -0.324801 101
-0.605568 5.158151 0.158678 101
-0.929536 5.095244 -0.219795 101
-1.109407 5.150841 0.272446 101
-1.250201 5.028905 -0.519971 101
-0.434424 5.103596 -0.246926 101
-0.607146 5.179035 0.239525 101
-0.747848 4.998979 -0.678919 101
-0.932768 5.117787 -0.140765 101
-1.115096 5.181443 0.355747 101
-1.253064 5.044007 -0.440999 101
-0.751602 5.029799 -0.382392 101
-0.930656 5.111020 0.098843 101
-1.124977 5.231591 -1.538672 61
-1.257716 5.066334 -0.201449 101
-0.762154 5.106223 -0.308535 101
-0.935148 5.140543 0.179719 101
-1.076209 5.008853 -0.615436 64
-1.258432 5.072830 -0.121346 101
-0.590788 5.076021 -0.315244 101
-0.759083 5.103097 0.088254 101
-1.083054 5.052994 -0.209366 101
-1.265952 5.114069 0.282561 101
-0.589972 5.076361 -0.236537 101
-0.764996 5.148735 0.169038 101
-0.907333 5.006570 -0.638269 100
-1.090295 5.090913 -0.130878 101
-1.270618 5.136580 0.365371 99
-0.425406 5.067506 -0.480705 100
-0.595291 5.129573 -0.000901 101
-0.759258 5.115973 0.407046 200
-0.918270 5.071728 -0.377595 101
-1.092900 5.107228 0.109403 101
-0.426794 5.094204 -0.404123 100
-0.596671 5.148946 0.078713 101
-0.921193 5.092708 -0.299315 101
-1.100764 5.148163 0.191201 101
-1.240505 5.022019 -0.603107 101
-0.598436 5.171707 0.319338 101
-0.742251 5.012869 -0.537984 100
-0.924666 5.116766 -0.060806 101
-1.243159 5.036362 -0.360018 101
-0.600146 5.194058 0.401402 101
-0.746035 5.044219 -0.462259 101
-0.923871 5.117236 0.019059 101
-1.242542 5.037465 -0.280088 101
-0.578795 5.016590 -0.741377 101
-0.751604 5.087725 -0.228143 101
-0.926848 5.138615 0.259943 101
-1.071632 5.024183 -0.525441 101
-1.250174 5.072037 -0.041029 101
-0.581227 5.045041 -0.549002 101
-0.752348 5.098627 -0.149361 101
-0.929423 5.157804 0.341668 100
-1.074844 5.043354 -0.447518 101
-1.249333 5.072258 0.039205 101
-0.576061 5.029463 -0.468729 101
-0.748058 5.092878 -0.070080 101
-0.927088 5.164417 0.423083 28
-1.067835 5.026775 -0.366561 101
-1.246641 5.075784 0.119522 101
-0.579600 5.067817 -0.393385 101
-0.750762 5.117212 0.009027 101
-1.076334 5.070934 -0.289825 101
-1.250928 5.096901 0.200697 101
-0.583373 5.108343 -0.158885 101
-0.756585 5.162886 0.249727 101
-0.902322 5.036091 -0.533230 101
-1.078777 5.086616 -0.050823 101
-0.414330 5.056425 -0.558313 62
-0.582731 5.110262 -0.079901 101
-0.758550 5.182307 0.331353 101
-0.904926 5.055475 -0.455650 101
-1.084599 5.118263 0.029221 101
-0.586202 5.148316 0.158312 101
-0.910337 5.090590 -0.219456 101
-1.093075 5.162498 0.272859 101
-1.232640 5.033239 -0.519971 101
-0.585905 5.153331 0.238240 101
-0.730966 5.005482 -0.679451 101
-0.909976 5.093458 -0.140007 101
-1.088742 5.146258 0.353068 101
-1.229765 5.025122 -0.438970 101
-0.735768 5.044232 -0.383291 101
-0.913512 5.118175 0.098919 101
-1.102733 5.216680 -1.533145 65
-1.240023 5.070694 -0.201449 101
-0.745476 5.116755 -0.309012 101
-0.917900 5.147712 0.179856 101
-1.058718 5.012580 -0.615436 64
-1.242616 5.084961 -0.121532 101
-0.572171 5.070118 -0.314752 101
-0.742414 5.113632 0.088390 101
-1.064585 5.052833 -0.209204 101
-1.244308 5.102934 0.281704 101
-0.571801 5.074419 -0.236352 101
-0.746445 5.147418 0.168908 101
-0.891240 5.017522 -0.639265 100
-1.072518 5.094687 -0.130878 101
-1.252680 5.140984 0.365371 100
-0.408992 5.084838 -0.482211 100
-0.578723 5.143545 -0.000903 101
-0.739680 5.106753 0.406104 200
-0.899864 5.070974 -0.377303 101
-1.075066 5.111012 0.109403 101
-0.578694 5.150997 0.078713 101
-0.903411 5.095892 -0.299315 101
-1.079498 5.136327 0.190621 101
-1.217332 5.003156 -0.600328 101
-0.580380 5.173765 0.319338 101
-0.727024 5.031176 -0.539673 100
-0.907497 5.123901 -0.060853 101
-1.230285 5.060058 -0.361402 101
-0.581124 5.188194 0.400790 101
-0.730699 5.062564 -0.463703 101
-0.905306 5.116490 0.019044 101
-1.229665 5.061178 -0.281166 101
-0.562600 5.030379 -0.743120 101
-0.734410 5.094273 -0.228320 101
-0.913078 5.165423 0.261137 101
-1.051638 5.016209 -0.524220 101
-1.231518 5.072483 -0.040997 101
-0.563613 5.047039 -0.549002 101
-0.736255 5.113095 -0.149709 101
-0.912801 5.168878 0.342188 101
-1.058867 5.054875 -0.448210 101
-1.233506 5.084363 0.039265 101
-0.558941 5.035402 -0.469097 101
-0.730843 5.099417 -0.070135 101
-0.909055 5.167622 0.423083 44
-1.053543 5.046094 -0.367699 101
-1.227035 5.072331 0.119339 101
-0.560149 5.053954 -0.392155 101
-0.732328 5.115842 0.009020 101
-1.055364 5.059022 -0.288932 101
-1.234068 5.105122 0.200850 101
-0.563339 5.090479 -0.158267 101
-0.737993 5.161540 0.249536 101
-0.881297 5.019618 -0.531157 101
-1.057751 5.074687 -0.050667 101
-0.398542 5.081624 -0.560938 18
-0.564011 5.104314 -0.079776 101
-0.741020 5.188876 0.331605 101
-0.884520 5.042905 -0.454236 101
-1.062649 5.102438 0.029109 101
-0.569982 5.166227 0.158800 101
-0.891183 5.085863 -0.219117 101
-1.073421 5.158461 0.272446 101
-1.210397 5.018166 -0.517974 101
-0.569225 5.167260 0.238791 101
-0.712930 5.004078 -0.678919 101
-0.894259 5.108420 -0.140332 101
-1.074021 5.165657 0.354140 101
-1.212217 5.029384 -0.438970 101
-0.717032 5.038872 -0.382691 101
-0.895641 5.121332 0.098919 101
-1.089208 5.243081 -1.539777 59
-1.218572 5.059448 -0.200832 101
-0.725925 5.107466 -0.308296 101
-0.897862 5.139071 0.179444 101
-1.042022 5.020133 -0.615913 64
-1.220180 5.069829 -0.121068 101
-0.555771 5.083991 -0.315491 101
-0.722878 5.104312 0.088185 101
-1.045320 5.048690 -0.208880 101
-1.229286 5.118898 0.282347 101
-0.554518 5.080356 -0.236537 101
-0.729592 5.157908 0.169168 101
-0.873040 5.016693 -0.638767 100
-1.054728 5.098400 -0.130878 101
-1.234727 5.145325 0.365371 99
-0.560765 5.145534 -0.000903 101
-0.723523 5.121150 0.407046 200
-0.880791 5.066224 -0.376719 101
-1.058028 5.118649 0.109487 101
-1.257617 5.244558 -1.301274 3
-0.560710 5.152986 0.078713 101
-0.885617 5.099014 -0.299315 101
-1.061563 5.140063 0.190621 101
-1.197083 4.995783 -0.598938 101
-0.561454 5.167820 0.318848 101
-0.707237 5.017929 -0.537984 100
-0.888238 5.119156 -0.060759 101
-1.205181 5.033276 -0.359187 101
-0.563871 5.198121 0.401402 101
-0.713023 5.065084 -0.463703 101
-0.888124 5.123560 0.019059 101
-1.208273 5.049901 -0.280304 101
-0.544185 5.024443 -0.741958 101
-0.714398 5.080977 -0.227611 101
-0.894360 5.164643 0.260938 101
-1.034122 5.019849 -0.524220 101
-1.214734 5.080641 -0.041029 101
-0.545564 5.045022 -0.548572 101
-0.718959 5.119593 -0.149825 101
-0.893392 5.164166 0.341668 101
-1.034788 5.027315 -0.445443 101
-1.216680 5.092528 0.039295 101
-0.544364 5.065041 -0.471679 101
-0.711955 5.094011 -0.070026 101
-0.887650 5.151114 0.421475 46
-1.031938 5.030194 -0.366276 101
-1.213053 5.092138 0.119704 100
-0.544646 5.075704 -0.393692 101
-0.716140 5.130250 0.009041 101
-1.040921 5.078321 -0.289825 101
-1.214404 5.101618 0.200544 101
-0.546850 5.104340 -0.158638 101
-0.720529 5.168041 0.249727 101
-0.863775 5.022663 -0.531157 101
-1.044048 5.097940 -0.050862 101
-0.379313 5.063159 -0.558751 15
-0.546612 5.110229 -0.079839 101
-0.722900 5.191431 0.331605 101
-0.867583 5.049890 -0.454589 101
-1.047234 5.117873 0.029176 101
-0.549809 5.148309 0.158190 101
-0.871384 5.077129 -0.218608 101
-1.049794 5.134783 0.271000 101
-1.191021 5.014618 -0.517175 101
-0.551586 5.173191 0.238975 101
-0.693801 4.994759 -0.677321 101
-0.871670 5.083927 -0.139574 101
-1.052766 5.153738 0.353068 101
-1.190951 5.018078 -0.437617 101
-0.699408 5.041348 -0.382691 101
-0.877728 5.124433 0.098919 101
-1.073943 5.261924 -1.544199 62
-1.200873 5.063678 -0.200832 101
-0.706956 5.102064 -0.307819 101
-0.881226 5.150061 0.179719 101
-1.024452 5.023748 -0.615913 64
-1.204280 5.081849 -0.121253 101
-0.538793 5.093847 -0.315983 101
-0.707176 5.122662 0.088459 101
-1.028420 5.056239 -0.209042 101
-1.212261 5.127061 0.282561 101
-0.536284 5.078295 -0.236352 101
-0.710959 5.156474 0.169038 101
-0.854780 5.015810 -0.638269 100
-1.037644 5.105985 -0.130978 101
-1.211176 5.126320 0.363718 100
-0.543133 5.151447 -0.000904 101
-0.704468 5.115755 0.406418 200
-0.863015 5.069283 -0.376719 101
-1.035293 5.098814 0.108984 101
-1.243681 5.267859 -1.305965 80
-0.542204 5.150944 0.078652 101
-0.863701 5.078470 -0.297929 101
-1.041134 5.132005 0.190185 101
-1.180456 5.003820 -0.599401 101
-0.542888 5.165790 0.318603 101
-0.689072 5.016440 -0.537562 100
-0.866909 5.102527 -0.060525 101
-1.186585 5.033593 -0.358910 101
-0.545190 5.196103 0.401096 101
-0.691435 5.039930 -0.461176 101
-0.868112 5.114818 0.019015 101
-1.189610 5.050227 -0.280088 101
-0.524872 5.010580 -0.739634 101
-0.695993 5.079497 -0.227434 101
-0.872863 5.148060 0.259943 101
-1.016472 5.023453 -0.524220 101
-1.194120 5.073199 -0.040935 101
-0.528233 5.050864 -0.549002 101
-0.699325 5.110206 -0.149477 101
-0.877893 5.183018 0.342709 101
-1.020262 5.046547 -0.446827 101
-1.196933 5.088988 0.039235 101
-0.523386 5.035218 -0.468729 101
-0.694169 5.096466 -0.070026 101
-0.866347 5.134523 0.419868 53
-1.012796 5.025943 -0.365707 101
-1.190705 5.076875 0.119247 101
-0.525279 5.061707 -0.392462 101
-0.697689 5.128755 0.009034 101
-1.018458 5.058433 -0.288486 101
-1.197501 5.109718 0.200697 101
-0.529854 5.114171 -0.158885 101
-0.700871 5.158648 0.249153 101
-0.846238 5.025647 -0.531157 101
-1.022303 5.081947 -0.050667 101
-0.527124 5.096193 -0.079590 101
-0.700480 5.162277 0.329585 101
-0.847968 5.041100 -0.453529 101
-1.023845 5.094047 0.029020 101
-0.533477 5.166105 0.158678 101
-0.855643 5.091963 -0.219117 101
-1.035796 5.157999 0.272033 101
-1.176228 5.030372 -0.518373 101
-0.533115 5.171111 0.238791 101
-0.676893 5.001079 -0.677854 101
-0.859214 5.118485 -0.140440 101
-1.035555 5.161294 0.353336 101
-1.174334 5.026085 -0.437956 101
-0.682340 5.047712 -0.382991 101
-0.859173 5.123521 0.098843 101
-1.059347 5.284487 -1.549726 51
-1.184099 5.071731 -0.200986 101
-0.690211 5.112415 -0.308296 101
-0.861262 5.141277 0.179306 101
-1.008469 5.035082 -0.616867 64
-1.184716 5.078233 -0.121068 101
-0.520603 5.091725 -0.315737 101
-0.688224 5.117171 0.088322 101
-1.008415 5.048040 -0.208556 101
-1.192546 5.123481 0.282133 101
-0.518960 5.084111 -0.236537 101
-0.691359 5.147038 0.168649 101
-0.836614 5.014848 -0.637771 100
-1.018249 5.101733 -0.130777 101
-1.195986 5.142178 0.364544 100
-0.524337 5.145353 -0.000903 101
-0.686076 5.114231 0.406104 200
-0.844659 5.068329 -0.376426 101
-1.019835 5.114163 0.109236 101
-1.217363 5.238081 -1.297521 94
-0.525030 5.160764 0.078773 101
-0.845968 5.081454 -0.297929 101
-1.024775 5.143448 0.190476 101
-1.162982 5.007910 -0.599401 101
-0.525256 5.171625 0.318848 101
-0.670502 5.010930 -0.536717 100
-0.853029 5.129195 -0.060806 101
-1.168106 5.033817 -0.358633 101
-0.528256 5.209878 0.402014 101
-0.674366 5.046262 -0.461537 101
-0.852219 5.129655 0.019059 101
-1.171974 5.054349 -0.280088 101
-0.508973 5.028131 -0.741958 101
-0.679315 5.089818 -0.227789 101
-0.856850 5.162899 0.260540 101
-0.998931 5.026971 -0.524220 101
-1.179113 5.089026 -0.041029 101
-0.510999 5.056634 -0.549432 101
-0.682011 5.116579 -0.149593 101
-0.857837 5.174238 0.341928 101
-1.005744 5.065712 -0.448210 101
-1.179162 5.093135 0.039235 101
-0.508592 5.064755 -0.471310 101
-0.677953 5.110752 -0.070189 101
-0.852967 5.165052 0.422118 60
-0.999893 5.052931 -0.367415 101
-1.176574 5.096586 0.119613 101
-0.508005 5.067477 -0.392770 101
-0.678206 5.119263 0.009013 101
-1.000795 5.061957 -0.288486 101
-1.176962 5.102182 0.200238 101
-0.510804 5.104055 -0.158514 101
-0.684432 5.172945 0.249727 101
-0.829984 5.036422 -0.531986 101
-1.005332 5.089408 -0.050706 101
-0.510923 5.113921 -0.079839 101
-0.688731 5.212182 0.332616 100
-0.832955 5.059755 -0.454943 101
-1.009156 5.113287 0.029109 101
-0.515838 5.171914 0.158800 101
-0.835918 5.083088 -0.218608 101
-1.014694 5.145906 0.271207 101
-1.151520 5.003418 -0.515178 101
-0.515457 5.176916 0.238975 101
-0.660468 5.011272 -0.678919 101
-0.836805 5.093834 -0.139683 101
-1.015989 5.157046 0.352800 101
-1.155889 5.026270 -0.437617 101
-0.665757 5.057972 -0.383591 101
-0.841284 5.126489 0.098843 101
-1.164598 5.068043 -0.200678 101
-0.671841 5.110834 -0.308057 101
-0.847190 5.167922 0.180131 101
-0.990888 5.038571 -0.616867 64
-1.165193 5.074542 -0.120882 101
-0.502826 5.093512 -0.315737 101
-0.669838 5.115577 0.088254 101
-0.991557 5.055451 -0.208718 101
-1.171979 5.115932 0.281490 101
-0.501210 5.085892 -0.236537 101
-0.673907 5.153384 0.168779 101
-0.819743 5.021655 -0.638269 100
-0.995820 5.081712 -0.130174 101
-1.178920 5.150211 0.364820 100
-0.505590 5.139190 -0.000901 101
-0.669253 5.124503 0.406732 200
-0.827604 5.075184 -0.376719 101
-1.002746 5.121616 0.109319 101
-1.192135 5.211974 -1.290016 64
-0.505840 5.150624 0.078591 101
-0.829509 5.092259 -0.298391 101
-1.002978 5.127379 0.189750 101
-1.149035 5.027432 -0.601254 101
-0.508369 5.185348 0.319583 101
-0.656090 5.036906 -0.539251 100
-0.834478 5.128194 -0.060759 101
-1.152304 5.045644 -0.359187 101
-0.508902 5.199783 0.401096 52
-0.655719 5.040684 -0.460814 101
-0.833025 5.124702 0.019030 101
-1.150770 5.042833 -0.279225 101
-0.491419 5.029878 -0.741958 101
-0.661544 5.092158 -0.227789 101
-0.840103 5.173746 0.260938 101
-0.982902 5.038238 -0.525034 101
-1.158674 5.081411 -0.040935 101
-0.493345 5.058387 -0.549432 101
-0.664661 5.122893 -0.149709 101
-0.838492 5.169321 0.341408 100
-0.986530 5.061369 -0.447518 101
-1.162265 5.101120 0.039265 101
-0.488605 5.042713 -0.469097 101
-0.657036 5.089287 -0.069863 101
-0.833024 5.156190 0.421154 94
-0.978445 5.036808 -0.365992 101
-1.154347 5.081164 0.119156 101
-0.491465 5.081129 -0.393692 101
-0.661866 5.133501 0.009034 101
-0.983119 5.065420 -0.288486 101
-1.157375 5.098464 0.199933 101
-0.494137 5.117745 -0.158885 101
-0.665861 5.171340 0.249536 101
-0.813031 5.043216 -0.532401 101
-0.988322 5.096814 -0.050745 101
-0.492685 5.111692 -0.079776 101
-0.668497 5.198717 0.331605 100
-0.814654 5.058698 -0.454589 101
-0.989779 5.108924 0.029064 101
-0.495484 5.149805 0.158067 101
-0.817535 5.082030 -0.218439 101
-0.995207 5.141573 0.270794 101
-1.136685 5.019053 -0.516376 101
-0.497383 5.178684 0.238975 101
-0.643476 5.017479 -0.679451 101
-0.819653 5.100672 -0.139791 101
-0.996466 5.152724 0.352265 101
-1.139217 5.034161 -0.437956 101
-0.646071 5.044439 -0.382392 101
-0.819581 5.105702 0.098387 101
-1.146019 5.068178 -0.200524 101
-0.654503 5.117109 -0.308296 101
-0.825348 5.147165 0.179306 101
-0.974046 5.045899 -0.617344 64
-1.148354 5.082479 -0.120975 101
-0.484665 5.091261 -0.315491 101
-0.652483 5.121851 0.088322 101
-0.971638 5.047108 -0.208232 101
-1.154114 5.119992 0.281490 101
-0.485722 5.111477 -0.237647 101
-0.657932 5.171568 0.169298 101
-0.801583 5.020566 -0.637771 100
-0.981097 5.100864 -0.130576 101
-1.159181 5.146509 0.364269 100
-0.487648 5.140924 -0.000901 101
-0.650356 5.118896 0.406104 200
-0.808627 5.070163 -0.376134 101
-0.982598 5.113303 0.109068 101
-1.166251 5.181962 -1.281572 63
-0.488989 5.164303 0.078773 101
-0.809844 5.083292 -0.297699 101
-0.985828 5.134774 0.189895 101
-1.128864 5.019784 -0.599865 101
-0.636503 5.023381 -0.537562 100
-0.813429 5.111325 -0.060525 101
-1.133810 5.045743 -0.358910 101
-0.640621 5.062703 -0.462620 101
-0.815131 5.127579 0.019030 101
-1.133160 5.046819 -0.279225 101
-0.474229 5.035502 -0.742540 100
-0.644266 5.098401 -0.227966 101
-0.820785 5.168755 0.260540 101
-0.963812 5.033822 -0.524220 101
-1.139178 5.077620 -0.040872 100
-0.474941 5.052160 -0.548572 101
-0.644772 5.109315 -0.149245 101
-0.818567 5.160389 0.340627 100
-0.968108 5.060868 -0.447172 101
-1.140077 5.085630 0.039115 101
-0.473592 5.072148 -0.471679 101
-0.641759 5.111392 -0.070135 101
-0.816887 5.170881 0.422118 101
-0.961605 5.044112 -0.366276 101
-1.137476 5.089065 0.119247 101
-0.471875 5.062959 -0.392155 101
-0.640957 5.111966 0.008992 101
-0.962442 5.053128 -0.287592 101
-1.138700 5.098572 0.199780 101
-0.476270 5.119439 -0.158885 101
-0.647805 5.173633 0.249536 101
-0.794183 5.038163 -0.531571 101
-0.969030 5.092374 -0.050667 101
-0.475209 5.117363 -0.079839 101
-0.646879 5.173290 0.329838 101
-0.795752 5.053639 -0.453882 101
-0.970445 5.104489 0.029020 101
-0.476398 5.139559 0.157701 41
-0.797927 5.073009 -0.217930 101
-0.977999 5.148940 0.271000 101
-1.119159 5.022989 -0.516376 101
-0.625467 5.015761 -0.678919 101
-0.801223 5.099552 -0.139683 101
-0.980706 5.167934 0.353068 101
-1.117307 5.018655 -0.436265 101
-0.627965 5.042706 -0.382092 101
-0.803614 5.120384 0.098615 101
-1.002519 5.287736 -1.547515 41
-1.126584 5.064344 -0.200215 101
-0.635651 5.111438 -0.307819 101
-0.807376 5.150014 0.179306 101
-0.952731 5.029758 -0.614958 64
-1.131473 5.090360 -0.121068 101
-0.467255 5.096898 -0.315737 101
-0.634600 5.124098 0.088322 101
-0.951789 5.038687 -0.207746 101
-1.138829 5.135688 0.282133 101
-0.464964 5.081309 -0.236167 101
-0.637913 5.157963 0.168779 101
-0.782829 5.015491 -0.636775 100
-0.959578 5.084611 -0.130073 101
-1.140346 5.146627 0.363993 101
-0.470063 5.146578 -0.000902 101
-0.633461 5.129050 0.406732 200
-0.790924 5.072954 -0.376134 101
-0.964743 5.116702 0.109068 101
-1.148155 5.186001 -1.281572 65
-0.471322 5.169962 0.078834 57
-0.793939 5.097926 -0.298391 101
-0.966418 5.130328 0.189604 101
-1.108760 5.012056 -0.598475 101
-0.620423 5.037416 -0.538829 100
-0.799271 5.137846 -0.060806 101
-1.119635 5.065255 -0.360018 101
-0.622458 5.060955 -0.462259 101
-0.795999 5.122488 0.019000 101
-1.118982 5.066344 -0.280088 101
-0.456649 5.037127 -0.742540 100
-0.626466 5.100618 -0.227966 101
-0.802125 5.167641 0.260341 101
-0.944766 5.029334 -0.523406 101
-1.121447 5.081565 -0.040872 101
-0.457302 5.053787 -0.548572 101
-0.626933 5.111535 -0.149245 101
-0.800549 5.163215 0.340627 101
-0.946761 5.044633 -0.445443 101
-1.125763 5.105204 0.039235 101
-0.453555 5.037988 -0.468360 101
-0.623835 5.105552 -0.070026 101
-0.800345 5.177502 0.422440 101
-0.944138 5.043351 -0.365992 101
-1.119734 5.088904 0.119156 101
-0.456510 5.080384 -0.393385 101
-0.625455 5.125975 0.009013 101
-0.948617 5.071994 -0.288486 101
-1.120070 5.094512 0.199474 101
-0.458219 5.109044 -0.158514 101
-0.630162 5.171787 0.249345 101
-0.775046 5.025041 -0.529913 101
-0.953607 5.103423 -0.050745 101
-0.458236 5.118911 -0.079839 101
-0.632613 5.199183 0.331353 101
-0.777169 5.044436 -0.452822 101
-0.954247 5.111611 0.029042 101
-0.783532 5.091426 -0.218608 101
-0.959454 5.144301 0.270587 101
-1.103348 5.030561 -0.516776 101
-0.607876 5.009937 -0.677854 101
-0.784915 5.106133 -0.139791 101
-0.964294 5.175081 0.353336 101
-1.101511 5.026226 -0.436603 101
-0.609800 5.032881 -0.381192 101
-0.786629 5.123021 0.098615 101
-0.978647 5.257018 -1.537566 63
-1.108074 5.060244 -0.199907 101
-0.617739 5.105589 -0.307342 101
-0.790900 5.156615 0.179444 101
-0.938952 5.048508 -0.616867 64
-1.114587 5.094084 -0.121068 101
-0.451053 5.106373 -0.316229 101
-0.617604 5.126174 0.088322 101
-0.940176 5.069323 -0.208880 101
-1.123496 5.147241 0.282561 101
-0.449164 5.094763 -0.236722 101
-0.621760 5.167988 0.169038 101
-0.767391 5.025907 -0.637771 100
-0.947083 5.111356 -0.130676 101
-1.124974 5.158178 0.364544 100
-0.615498 5.123204 0.406104 200
-0.774097 5.075549 -0.376134 101
-0.947770 5.119873 0.109068 101
-1.128468 5.178382 -1.278757 62
-0.777029 5.100531 -0.298391 101
-0.947946 5.125643 0.189314 101
-1.092979 5.019587 -0.598938 101
-0.601350 5.019698 -0.536717 100
-0.778618 5.116744 -0.060525 101
-1.096893 5.041646 -0.358079 101
-0.603779 5.047169 -0.460814 101
-0.778407 5.121145 0.018986 101
-1.100478 5.062221 -0.279657 101
-0.439943 5.038614 -0.742540 94
-0.608126 5.090764 -0.227434 101
-0.780187 5.138674 0.258750 101
-0.928804 5.036353 -0.523813 101
-1.104590 5.085256 -0.040872 101
-0.440886 5.059237 -0.549002 101
-0.610453 5.117556 -0.149361 101
-0.782824 5.161895 0.340367 101
-0.934360 5.071259 -0.447518 101
-1.105434 5.093273 0.039115 100
-0.439032 5.075256 -0.471679 101
-0.606457 5.111673 -0.070080 101
-0.782242 5.180268 0.422440 101
-0.926504 5.046620 -0.365992 101
-1.101940 5.092787 0.119156 101
-0.437387 5.066054 -0.392155 101
-0.608955 5.140046 0.009034 101
-0.932333 5.083134 -0.288932 101
-1.105643 5.114021 0.200085 101
-0.442780 5.138496 -0.159379 86
-0.612569 5.177923 0.249536 101
-0.758681 5.035585 -0.530742 101
-0.934339 5.098853 -0.050667 101
-0.613059 5.189466 0.330595 101
-0.761931 5.062878 -0.454236 101
-0.937842 5.122779 0.029087 101
-0.766955 5.102033 -0.218947 101
-0.942223 5.151546 0.270794 101
-1.081599 5.014926 -0.514779 101
-0.590869 5.015963 -0.678386 101
-0.766515 5.104884 -0.139683 101
-0.944094 5.166634 0.352533 101
-1.083981 5.030035 -0.436603 101
-0.591793 5.031014 -0.380892 101
-0.768773 5.125731 0.098615 101
-0.956180 5.237706 -1.530934 66
-1.091276 5.067981 -0.200061 101
-0.599487 5.103745 -0.307103 101
-0.771751 5.151431 0.179169 101
-0.921363 5.051747 -0.616867 64
-1.091792 5.074479 -0.120510 101
-0.431944 5.091998 -0.315244 101
-0.599310 5.124318 0.088254 101
-0.921113 5.064697 -0.208556 101
-1.103075 5.139401 0.281919 101
-0.433476 5.120183 -0.237831 52
-0.603331 5.166147 0.168908 101
-0.748748 5.020692 -0.636775 100
-0.926453 5.098879 -0.130274 101
-1.104529 5.150352 0.363718 100
-0.598159 5.129272 0.406418 200
-0.755286 5.070316 -0.375550 101
-0.930693 5.127069 0.109152 101
-1.106399 5.163260 -1.274067 62
-0.758140 5.095298 -0.297929 101
-0.932998 5.144636 0.189895 101
-1.073881 5.015582 -0.598012 101
-0.584386 5.025706 -0.537139 100
-0.762034 5.127327 -0.060619 101
-1.081896 5.057128 -0.358910 101
-0.587189 5.057147 -0.461537 101
-0.761227 5.127770 0.019000 101
-1.082079 5.062102 -0.279441 101
-0.420160 5.012502 -0.738472 62
-0.591395 5.100780 -0.227789 101
-0.762369 5.141348 0.258750 101
-0.912756 5.047373 -0.524627 101
-1.086119 5.085143 -0.040840 101
-0.423686 5.064697 -0.549432 101
-0.592259 5.115668 -0.149245 101
-0.766104 5.172473 0.340887 101
-0.911824 5.047016 -0.445097 101
-1.090285 5.108808 0.039205 101
-0.419666 5.056911 -0.469835 101
-0.589067 5.117733 -0.070135 101
-0.765900 5.194800 0.423404 101
-0.908176 5.045897 -0.365707 101
-1.084988 5.100513 0.119247 101
-0.420688 5.079474 -0.393077 101
-0.591009 5.142140 0.009034 101
-0.913877 5.082427 -0.288709 101
-1.087785 5.117850 0.200085 101
-0.593580 5.172091 0.249153 101
-0.739361 5.026394 -0.529498 101
-0.915121 5.094210 -0.050589 101
-0.592668 5.171744 0.329332 101
-0.742516 5.053680 -0.453176 101
-0.918542 5.118148 0.029042 101
-0.748561 5.100725 -0.218778 101
-0.923530 5.150871 0.270587 101
-1.064087 5.018671 -0.514779 101
-0.572006 5.006178 -0.676789 101
-0.749851 5.115441 -0.139899 101
-0.928164 5.181683 0.353336 101
-1.065591 5.029890 -0.436265 101
-0.576037 5.048901 -0.382092 101
-0.751456 5.132340 0.098691 101
-0.932474 5.210739 -1.522091 67
-1.075234 5.079581 -0.200369 101
-0.582572 5.113740 -0.307580 101
-0.752607 5.146183 0.178894 101
-0.903025 5.051023 -0.616390 64
-1.072417 5.070434 -0.120325 101
-0.581870 5.130353 0.088322 101
-0.903428 5.067882 -0.208556 101
-1.081831 5.127587 0.281062 101
-0.586194 5.176167 0.169168 101
-0.731789 5.027203 -0.637273 100
-0.906545 5.090272 -0.129973 101
-1.085721 5.150271 0.363442 100
-0.577563 5.107554 0.404535 200
-0.738730 5.080817 -0.376134 101
-0.912090 5.126349 0.109068 101
-1.089972 5.174701 -1.275943 92
-0.740350 5.097913 -0.297929 101
-0.913635 5.139990 0.189604 101
-1.054730 5.011524 -0.597085 101
-0.568177 5.039573 -0.538406 100
-0.742983 5.122039 -0.060525 101
-1.061773 5.049159 -0.358079 101
-0.569533 5.059166 -0.461537 101
-0.745044 5.142272 0.019044 101
-1.063581 5.061939 -0.279225 101
-0.405511 5.049442 -0.743702 42
-0.572248 5.090901 -0.227257 101
-0.744989 5.147932 0.258949 101
-0.893049 5.038774 -0.523406 101
-1.070828 5.100646 -0.040935 101
-0.406640 5.074074 -0.550291 32
-0.575290 5.125651 -0.149477 101
-0.747473 5.171165 0.340627 101
-0.896980 5.065864 -0.446481 101
-1.070803 5.104753 0.039145 101
-0.400119 5.034523 -0.467622 20
-0.568982 5.099883 -0.069863 101
-0.746059 5.185603 0.422440 101
-0.891250 5.052966 -0.365992 101
-1.063904 5.088613 0.118881 101
-0.570842 5.124294 0.008999 101
-0.894745 5.077719 -0.288262 101
-1.068279 5.113791 0.199780 101
-0.575522 5.174132 0.249153 101
-0.723507 5.040759 -0.530742 101
-0.897333 5.097373 -0.050589 101
-0.575493 5.181717 0.329838 101
-0.725436 5.060185 -0.453529 101
-0.900670 5.121323 0.029042 101
-0.727919 5.083527 -0.217930 101
-0.909692 5.177670 0.271826 101
-1.047374 5.026251 -0.515178 101
-0.555401 5.016025 -0.677854 101
-0.730292 5.106153 -0.139574 101
-0.906621 5.165237 0.351997 101
-1.045589 5.021873 -0.435250 101
-0.557971 5.046916 -0.381792 101
-0.732970 5.130973 0.098615 101
-0.913615 5.210175 -1.520986 61
-1.055869 5.075477 -0.200061 101
-0.564280 5.111774 -0.307342 101
-0.738027 5.172523 0.179719 101
-0.881961 5.034585 -0.614004 64
-1.058780 5.093723 -0.120789 101
-0.563522 5.128377 0.088254 101
-0.884357 5.063130 -0.208232 101
-1.063925 5.131332 0.281062 101
-0.566378 5.162285 0.168649 101
-0.713121 5.021868 -0.636277 100
-0.890146 5.101284 -0.130174 101
-1.068546 5.157938 0.363718 100
-0.561033 5.121431 0.405477 200
-0.719870 5.075466 -0.375550 101
-0.896251 5.141321 0.109319 101
-1.071114 5.174666 -1.275005 96
-0.722550 5.100467 -0.297929 101
-0.894316 5.135272 0.189314 101
-1.033207 4.995721 -0.594769 101
-0.550150 5.037571 -0.537984 100
-0.723979 5.116681 -0.060432 101
-0.904001 5.196001 0.435460 5
-1.044142 5.052834 -0.358079 101
-0.549711 5.041322 -0.459731 101
-0.725411 5.132960 0.019000 101
-1.046713 5.069532 -0.279441 101
-0.556203 5.108757 -0.227966 101
-0.727574 5.154457 0.259148 101
-0.876816 5.049702 -0.524220 101
-1.049784 5.088684 -0.040809 101
-0.388622 5.071497 -0.549862 29
-0.556098 5.115703 -0.149129 101
-0.728861 5.169791 0.340367 101
-0.876567 5.053258 -0.445097 101
-1.052977 5.108460 0.039145 101
-0.552060 5.109788 -0.069972 101
-0.726869 5.180275 0.421797 101
-0.872271 5.048178 -0.365423 101
-1.046963 5.096207 0.118973 101
-0.553396 5.130231 0.009006 101
-0.874991 5.069002 -0.287592 101
-1.049634 5.113570 0.199627 101
-0.556180 5.164191 0.248580 101
-0.704259 5.031433 -0.529498 101
-0.878860 5.096531 -0.050550 101
-0.558679 5.195602 0.330595 101
-0.707765 5.062687 -0.453529 101
-0.882785 5.124436 0.029042 101
-0.709052 5.078122 -0.217591 101
-0.884825 5.141448 0.269761 101
-1.027415 5.018182 -0.513980 101
-0.538289 5.021877 -0.678386 101
-0.711337 5.100753 -0.139358 101
-0.889916 5.176240 0.352533 101
-1.029629 5.033306 -0.435926 101
-0.539471 5.040905 -0.381192 101
-0.713921 5.125583 0.098463 101
-0.897994 5.228493 -1.525407 71
-1.037314 5.075222 -0.199907 101
-0.547666 5.125628 -0.308057 101
-0.716622 5.151317 0.178894 101
-0.862999 5.029811 -0.613050 64
-1.038553 5.085641 -0.120510 101
-0.545549 5.130321 0.088254 101
-0.866610 5.066198 -0.208232 101
-1.045142 5.131115 0.280848 101
-0.548699 5.168215 0.168779 101
-0.694967 5.020405 -0.635780 100
-0.873604 5.112256 -0.130375 101
-1.052049 5.169472 0.364269 99
-0.541805 5.111471 0.404535 175
-0.700971 5.070056 -0.374965 101
-0.875520 5.128665 0.108984 101
-1.050633 5.166960 -1.272190 78
-0.704100 5.099015 -0.297699 101
-0.877633 5.146259 0.189604 101
-1.021206 5.026571 -0.598012 101
-0.532041 5.035516 -0.537562 100
-0.708741 5.139003 -0.060666 101
-0.878387 5.155915 0.431839 31
-1.024013 5.044737 -0.357248 101
-0.531579 5.039260 -0.459370 101
-0.706283 5.127551 0.018971 101
-1.025722 5.057520 -0.278579 101
-0.537407 5.102733 -0.227611 101
-0.710542 5.164897 0.259546 101
-0.859729 5.056675 -0.524627 101
-1.032687 5.096262 -0.040840 101
-0.537687 5.113651 -0.149014 101
-0.711220 5.176276 0.340627 101
-0.860126 5.064167 -0.445789 101
-1.032626 5.100370 0.039055 101
-0.533804 5.107706 -0.069917 101
-0.710403 5.194632 0.422761 101
-0.853313 5.043324 -0.364853 101
-1.028377 5.095911 0.118881 101
-0.535069 5.128153 0.008999 101
-0.857957 5.075963 -0.287816 101
-1.030988 5.113284 0.199474 101
-0.538564 5.170075 0.248771 101
-0.687767 5.041744 -0.530327 101
-0.861731 5.103512 -0.050589 101
-0.540539 5.197521 0.330595 101
-0.686324 5.037492 -0.451055 101
-0.863561 5.119598 0.028997 101
-0.694555 5.104326 -0.218608 101
-0.872183 5.176019 0.271413 101
-1.013031 5.037345 -0.515578 101
-0.519530 5.011896 -0.676789 101
-0.690297 5.079432 -0.138709 101
-0.872505 5.183251 0.352800 101
-1.009698 5.025146 -0.434912 101
-0.521872 5.042757 -0.381192 101
-0.698176 5.143895 0.098767 101
-0.884837 5.261924 -1.534250 74
-1.018805 5.074893 -0.199752 101
-0.527719 5.107649 -0.306864 101
-0.697562 5.145864 0.178619 101
-0.845437 5.032793 -0.613050 64
-1.020794 5.089236 -0.120510 101
-0.527228 5.128215 0.088185 101
-0.846280 5.053425 -0.207584 101
-1.025657 5.126898 0.280419 101
-0.530247 5.166121 0.168649 101
-0.677438 5.022800 -0.635780 100
-0.853774 5.103443 -0.130073 101
-1.027741 5.141809 0.362064 101
-0.524772 5.121265 0.405163 113
-0.682203 5.064565 -0.374381 101
-0.857612 5.131690 0.108984 101
-1.034113 5.178223 -1.274067 98
-0.684700 5.089569 -0.297006 101
-0.857689 5.137463 0.189169 101
-1.002876 5.026209 -0.597549 101
-0.513652 5.029428 -0.536717 100
-0.689200 5.129553 -0.060525 101
-0.863007 5.174678 0.433156 41
-1.007957 5.056108 -0.357802 101
-0.515602 5.056938 -0.460814 101
-0.688912 5.133950 0.018986 101
-1.008062 5.061070 -0.278579 101
-0.519187 5.100602 -0.227434 101
-0.691978 5.163387 0.259347 101
-0.839460 5.043945 -0.522999 101
-1.014110 5.095913 -0.040809 101
-0.520642 5.123452 -0.149245 101
-0.693147 5.178727 0.340627 101
-0.842444 5.067139 -0.445789 101
-1.014816 5.103943 0.039055 101
-0.515972 5.109538 -0.069917 101
-0.691740 5.193128 0.422440 101
-0.835704 5.046272 -0.364853 101
-1.009805 5.095547 0.118790 101
-0.519171 5.149889 0.009034 101
-0.840886 5.082868 -0.288039 101
-1.017791 5.140378 0.200391 101
-0.521314 5.179874 0.249153 101
-0.670688 5.048058 -0.530742 101
-0.841954 5.094650 -0.050471 101
-0.521595 5.191432 0.330090 101
-0.670832 5.055656 -0.452469 101
-0.845034 5.118635 0.028975 101
-0.674108 5.086910 -0.217760 101
-0.852160 5.167207 0.270794 101
-0.992357 5.025232 -0.513980 101
-0.502822 5.021568 -0.677854 101
-0.676759 5.113523 -0.139574 101
-0.853758 5.182327 0.352533 101
-0.995237 5.044281 -0.436265 101
-0.504663 5.048517 -0.381492 101
-0.679168 5.138371 0.098615 101
-0.877701 5.333258 -1.554147 42
-1.001858 5.082339 -0.199907 101
-0.509490 5.105487 -0.306626 101
-0.680642 5.156194 0.178894 101
-0.827864 5.035714 -0.613050 64
-0.999932 5.077074 -0.120139 101
-0.508929 5.126044 0.088117 101
-0.831221 5.072124 -0.208232 101
-1.007755 5.130447 0.280419 101
-0.511028 5.156006 0.168259 101
-0.659384 5.021200 -0.635282 100
-0.836601 5.110338 -0.130174 101
-1.008249 5.137533 0.361513 100
-0.508071 5.134970 0.406104 101
-0.665558 5.074826 -0.374965 101
-0.838403 5.126759 0.108817 101
-1.019024 5.197064 -1.277819 101
-0.669523 5.111725 -0.298160 101
-0.842973 5.160151 0.189895 101
-0.985325 5.029679 -0.597549 101
-0.495703 5.027233 -0.536295 100
-0.671809 5.135894 -0.060572 101
-0.848791 5.201265 0.435130 42
-0.990302 5.059595 -0.357802 101
-0.497167 5.050778 -0.460092 101
-0.672023 5.144256 0.019015 101
-0.993455 5.080238 -0.279441 101
-0.501770 5.106360 -0.227611 101
-0.671883 5.149925 0.258551 101
-0.822488 5.050772 -0.523406 101
-0.994782 5.091571 -0.040746 101
-0.502365 5.121259 -0.149129 101
-0.675065 5.181115 0.340627 101
-0.822832 5.058249 -0.444752 101
-0.996994 5.107455 0.039055 101
-0.498612 5.107243 -0.069863 101
-0.671411 5.171673 0.420511 101
-0.817025 5.037205 -0.364000 101
-0.992878 5.098872 0.118790 101
-0.500912 5.139640 0.009013 101
-0.821456 5.069861 -0.287146 101
-0.996144 5.120186 0.199474 101
-0.504515 5.185552 0.249345 101
-0.652916 5.042364 -0.529913 101
-0.825689 5.101364 -0.050510 101
-0.504380 5.193132 0.330090 82
-0.654066 5.057852 -0.452469 101
-0.830612 5.137203 0.029064 101
-0.659807 5.108933 -0.218608 101
-0.835670 5.173946 0.271000 101
-0.978732 5.044121 -0.515578 101
-0.485425 5.015314 -0.676789 101
-0.657774 5.099874 -0.139142 101
-0.834683 5.173306 0.351729 101
-0.973216 5.020160 -0.433897 101
-0.487182 5.042219 -0.380892 101
-0.660624 5.128692 0.098387 101
-0.981989 5.069932 -0.199290 101
-0.491447 5.095222 -0.305910 101
-0.663580 5.158418 0.178894 101
-0.810569 5.034504 -0.612573 64
-0.983890 5.084280 -0.120232 101
-0.493524 5.143622 0.088390 101
-0.815097 5.078788 -0.208394 101
-0.988534 5.121982 0.279776 101
-0.495911 5.177563 0.168908 101
-0.642302 5.019412 -0.634784 100
-0.817828 5.101227 -0.129872 101
-0.997329 5.172180 0.363718 100
-0.649823 5.084908 -0.375550 101
-0.823381 5.141343 0.109068 101
-0.998930 5.185124 -1.274067 97
-0.651147 5.102022 -0.297468 101
-0.821533 5.135273 0.188879 101
-0.965731 5.017295 -0.595696 101
-0.481019 5.048637 -0.538406 100
-0.654880 5.138080 -0.060572 101
-0.831645 5.204034 0.435130 53
-0.972869 5.058913 -0.357525 101
-0.480905 5.056354 -0.460453 101
-0.654570 5.142473 0.019000 101
-0.970687 5.052103 -0.277716 101
-0.484202 5.100028 -0.227257 101
-0.657444 5.171925 0.259546 101
-0.806482 5.057382 -0.523813 101
-0.978769 5.098746 -0.040777 101
-0.484757 5.114923 -0.148898 101
-0.656507 5.171429 0.339846 101
-0.805558 5.056993 -0.444406 101
-0.979430 5.106779 0.039025 101
-0.480407 5.104970 -0.069808 101
-0.652854 5.170030 0.420189 101
-0.800062 5.043966 -0.364284 101
-0.975074 5.102307 0.118790 101
-0.482594 5.137375 0.009006 101
-0.805004 5.080587 -0.287592 101
-0.980514 5.135411 0.199933 101
-0.635311 5.044612 -0.529913 101
-0.807877 5.104215 -0.050510 101
-0.636407 5.060104 -0.452469 101
-0.810801 5.128219 0.028997 101
-0.640974 5.103275 -0.218269 101
-0.813242 5.149211 0.269554 101
-0.958141 5.031868 -0.513980 101
-0.468283 5.020925 -0.677321 101
-0.641461 5.114041 -0.139466 101
-0.815376 5.168303 0.351193 101
-0.960900 5.050935 -0.436265 101
-0.469948 5.047861 -0.381192 101
-0.645203 5.150808 0.098767 101
-0.965778 5.081182 -0.199598 101
-0.474028 5.100882 -0.306149 101
-0.646066 5.164670 0.179031 101
-0.797313 5.064764 -0.615913 64
-0.965391 5.083755 -0.120139 101
-0.475566 5.145313 0.088390 100
-0.793027 5.053964 -0.207261 101
-0.967676 5.109704 0.278920 101
-0.624777 5.021624 -0.634784 100
-0.801254 5.111951 -0.130073 101
-0.975559 5.156025 0.362340 100
-0.631577 5.083187 -0.375257 101
-0.806048 5.148137 0.109152 101
-0.979380 5.180938 -1.272190 100
-0.633334 5.104263 -0.297468 101
-0.804220 5.142058 0.189024 101
-0.947474 5.016731 -0.595232 101
-0.463029 5.046325 -0.537984 100
-0.636449 5.136365 -0.060525 101
-0.814090 5.210844 0.435460 72
-0.957424 5.074041 -0.358356 101
-0.463615 5.061969 -0.460814 101
-0.636124 5.140757 0.018986 101
-0.955266 5.067235 -0.278363 101
-0.467852 5.117605 -0.227966 101
-0.638407 5.166258 0.259148 101
-0.787598 5.052302 -0.522999 101
-0.961706 5.106062 -0.040809 101
-0.467990 5.128530 -0.149245 101
-0.640895 5.193497 0.341147 101
-0.789127 5.067649 -0.445097 101
-0.963817 5.121960 0.039115 101
-0.464389 5.126533 -0.070080 101
-0.638204 5.199978 0.422440 101
-0.783673 5.054614 -0.364853 101
-0.957994 5.109610 0.118881 101
-0.465019 5.143012 0.009013 85
-0.787264 5.083366 -0.287592 101
-0.960374 5.127016 0.199474 101
-0.617698 5.046800 -0.529913 101
-0.790055 5.107004 -0.050510 101
-0.618740 5.062295 -0.452469 101
-0.791063 5.119158 0.028930 101
-0.622672 5.101514 -0.218099 101
-0.797091 5.163863 0.270174 101
-0.940570 5.035182 -0.513980 101
-0.450045 5.014632 -0.676256 101
