# This PCD file was generated using the MATLAB® pcwrite function
# from Computer Vision Toolbox®.
# .PCD v.7 - Point Cloud Data file format
VERSION .7
FIELDS x y z intensity
SIZE 4 4 4 1
TYPE F F F U
COUNT 1 1 1 1
WIDTH 960
HEIGHT 1
VIEWPOINT 0 0 0 1 0 0 0
POINTS 960
DATA ascii
-3.293961 15.091793 -0.804141 0
-3.237837 14.918956 -1.502251 24
-3.241524 14.948080 -1.268271 23
-3.267412 15.079705 -0.565779 43
-3.227416 15.026366 -1.036978 57
-3.238746 15.091482 -0.803517 43
-3.184079 14.922381 -1.501467 57
-3.189326 14.959305 -1.268271 51
-3.221416 15.122295 -0.566951 62
-3.174251 15.021371 -1.035901 69
-3.175489 15.039602 -0.800190 50
-3.129050 14.905545 -1.498725 51
-3.137473 14.958047 -1.267279 57
-3.160848 15.081982 -0.565046 58
-3.113683 14.993284 -1.033208 58
-3.126218 15.066240 -0.801021 42
-3.073784 14.900783 -1.497158 50
-3.081217 14.949387 -1.265627 73
-3.100120 15.053771 -0.563580 55
-3.061327 15.004062 -1.033208 54
-3.072012 15.069233 -0.800605 43
-3.025705 14.930928 -1.499117 58
-3.032970 14.979586 -1.267279 92
-3.052309 15.088009 -0.564460 57
-3.006609 15.002912 -1.032400 64
-3.014671 15.056366 -0.799358 53
-2.975588 14.953174 -1.500292 72
-2.980309 14.990152 -1.267279 100
-3.003119 15.118255 -0.565193 68
-2.954221 15.013315 -1.032400 88
-2.962096 15.066797 -0.799358 74
-2.923373 14.963470 -1.500292 95
-2.929493 15.008289 -1.267940 100
-2.955683 15.156109 -0.566219 70
-2.903310 15.031373 -1.032939 100
-2.913269 15.096657 -0.800397 77
-2.871124 14.973582 -1.500292 100
-2.875586 15.010593 -1.267279 100
-2.902761 15.166334 -0.566219 73
-2.853043 15.053181 -1.033747 101
-2.858331 15.094958 -0.799774 78
-2.818215 14.979580 -1.499900 100
-2.825510 15.032269 -1.268271 100
-2.848472 15.168489 -0.565925 85
-2.799751 15.059124 -1.033478 101
-2.806351 15.108771 -0.799982 78
-3.262209 14.974608 -1.241163 4
-2.765909 14.989326 -1.499900 100
-2.773020 15.042040 -1.268271 100
-2.793335 15.166547 -0.565486 67
-3.246555 15.011999 -1.006685 23
-3.253663 15.057126 -0.772280 52
-3.252172 15.096350 -0.536572 54
-2.745736 15.060953 -1.032939 101
-2.750732 15.102756 -0.799150 78
-3.203891 14.945493 -1.474475 66
-3.209083 14.982005 -1.240841 64
-2.712861 14.994972 -1.499509 100
-2.719787 15.047705 -1.267940 100
-2.741797 15.184072 -0.565779 75
-3.190814 15.007624 -1.005638 40
-3.203574 15.080114 -0.772881 70
-3.190346 15.064590 -0.535044 48
-2.695955 15.086161 -1.034016 101
-2.700805 15.127995 -0.799982 78
-3.146776 14.933209 -1.472171 93
-3.154302 14.981412 -1.239872 72
-2.660503 15.004351 -1.499509 100
-2.665854 15.049256 -1.267279 100
-2.689475 15.197486 -0.565925 77
-3.140040 15.026484 -1.006162 44
-3.146833 15.071652 -0.771879 53
-3.138741 15.067260 -0.534766 43
-2.643846 15.083224 -1.033208 101
-2.649935 15.132933 -0.799774 78
-3.098047 14.947461 -1.472555 74
-3.100562 14.972269 -1.238257 59
-2.610050 15.009169 -1.499117 100
-2.612523 15.038377 -1.265627 100
-2.635646 15.186629 -0.565193 81
-3.090194 15.036815 -1.006162 56
-3.089604 15.046784 -0.770077 45
-3.083723 15.066376 -0.534349 51
-2.589153 15.080562 -1.032400 101
-2.595069 15.130280 -0.799150 78
-3.043468 14.946480 -1.471403 81
-3.049075 14.986908 -1.238580 69
-2.556974 15.014264 -1.498725 100
-2.561350 15.055264 -1.266288 100
-2.585967 15.215441 -0.565925 93
-3.036107 15.039685 -1.005638 65
-3.039432 15.069226 -0.770678 57
-3.031790 15.080989 -0.534488 56
-2.538455 15.101319 -1.033208 101
-2.543578 15.147122 -0.799566 78
-2.995323 14.976505 -1.473323 100
-2.999270 15.009151 -1.239549 80
-2.504205 15.019119 -1.498333 100
-2.509136 15.064054 -1.266288 100
-2.530616 15.208536 -0.565339 79
-2.984931 15.053994 -1.005900 73
-2.987420 15.079623 -0.770678 74
-2.986097 15.126778 -0.535738 68
-2.484430 15.102212 -1.032670 101
-2.490041 15.151967 -0.799358 78
-2.937656 14.959521 -1.470634 101
-2.946092 15.015617 -1.239226 98
-2.452404 15.031698 -1.498725 100
-2.455255 15.064852 -1.265627 100
-2.476228 15.209386 -0.565046 85
-2.932364 15.064322 -1.005900 82
-2.938577 15.109567 -0.771679 85
-2.932516 15.133184 -0.535599 80
-2.430430 15.102912 -1.032131 101
-2.437770 15.164511 -0.799566 78
-2.888434 14.985322 -1.472171 101
-2.895168 15.033640 -1.239872 100
-2.400546 15.044098 -1.499117 100
-2.403281 15.077268 -1.265957 100
-2.423751 15.221885 -0.565193 93
-2.879762 15.074467 -1.005900 72
-2.883570 15.107960 -0.771078 98
-2.879038 15.139380 -0.535461 75
-2.379584 15.123126 -1.032939 101
-2.384185 15.168983 -0.799358 78
-2.836706 14.999252 -1.472555 101
-2.841008 15.035853 -1.239226 100
-2.345866 15.040635 -1.497942 100
-2.349669 15.081681 -1.265627 100
-2.372660 15.246114 -0.565779 81
-2.822149 15.060994 -1.004330 77
-2.830207 15.118048 -0.771078 100
-2.829552 15.152774 -0.535599 72
-2.326992 15.115156 -1.031862 101
-2.335083 15.184703 -0.799774 78
-2.783316 14.989004 -1.470634 101
-2.790405 15.041272 -1.238903 100
-2.296577 15.052267 -1.498333 100
-2.300244 15.093330 -1.265957 100
-2.318480 15.230187 -0.564899 81
-3.259415 14.977107 -1.448892 3
-3.262934 15.005426 -1.213944 3
-3.278158 15.087662 -0.506792 8
-2.772189 15.070270 -1.004330 79
-2.782224 15.139137 -0.771679 100
-2.775921 15.158626 -0.535461 72
-2.275996 15.135027 -1.032670 101
-2.280878 15.184861 -0.799358 78
-3.235131 15.020497 -0.977450 50
-3.246308 15.084723 -0.743859 60
-2.733118 15.010380 -1.471787 101
-2.737884 15.050920 -1.238903 100
-2.241674 15.044442 -1.496767 100
-2.245784 15.089439 -1.264965 100
-2.265890 15.242141 -0.565046 83
-3.197950 14.945559 -1.444751 43
-3.200531 14.969932 -1.210162 54
-3.230484 15.122471 -0.507579 47
-2.723817 15.103423 -1.005900 74
-2.724403 15.121235 -0.770277 100
-2.720800 15.156432 -0.535044 65
-2.221975 15.134985 -1.032131 101
-2.227290 15.188776 -0.799150 78
-3.179409 15.016069 -0.976434 47
-3.185428 15.056861 -0.741933 58
-2.673101 14.976697 -1.467562 101
-2.683349 15.048590 -1.237935 100
-2.189918 15.056086 -1.497158 100
-2.195045 15.108989 -1.265957 100
-2.211781 15.242008 -0.564753 85
-3.145193 14.952681 -1.444374 41
-3.150177 14.988758 -1.210792 55
-3.165663 15.074903 -0.505611 42
-2.667275 15.089191 -1.004330 84
-2.671996 15.130584 -0.770277 100
-2.672033 15.189460 -0.535877 67
-2.166867 15.126846 -1.031054 101
-2.175955 15.208322 -0.799774 78
-3.124534 15.015351 -0.975672 50
-3.127971 15.044417 -0.740777 54
-2.623550 15.001624 -1.469098 101
-2.629431 15.050010 -1.237289 100
-2.137908 15.067579 -1.497550 100
-2.140614 15.104718 -1.264965 100
-2.159683 15.257552 -0.565046 65
-3.087337 14.936269 -1.441739 40
-3.093805 14.980137 -1.209216 52
-3.109790 15.070199 -0.505086 35
-2.615269 15.102343 -1.004592 76
-2.621888 15.155564 -0.771078 100
-2.617638 15.190816 -0.535599 70
-2.117916 15.161985 -1.032939 101
-2.121199 15.203956 -0.799150 78
-3.072102 15.026167 -0.975672 49
-3.075437 15.055244 -0.740777 58
-2.572513 15.018539 -1.469866 101
-2.578225 15.066957 -1.237935 100
-2.085845 15.078894 -1.497942 100
-2.087330 15.108150 -1.264635 100
-2.106957 15.268957 -0.565193 59
-3.038351 14.962565 -1.443245 44
-3.039910 14.983029 -1.208585 54
-3.055578 15.073127 -0.504823 36
-2.559867 15.095639 -1.003546 82
-2.566300 15.148870 -0.770277 100
-2.564546 15.183652 -0.535044 75
-2.069772 15.184744 -1.034016 41
-2.069158 15.199031 -0.798526 36
-3.022277 15.036267 -0.975672 58
-3.026317 15.069270 -0.740970 68
-2.525383 15.042686 -1.471403 101
-2.528973 15.079344 -1.238257 100
-2.989637 14.976436 -1.443622 55
-2.991143 14.996907 -1.208901 68
-3.008093 15.094904 -0.505217 44
-2.511305 15.111886 -1.004069 86
-2.516923 15.161201 -0.770477 100
-2.512182 15.196456 -0.535183 68
-2.970545 15.050642 -0.975926 71
-2.976789 15.095422 -0.741740 87
-2.471568 15.043551 -1.470634 101
-2.475675 15.084146 -1.237935 100
-2.933511 14.967241 -1.441739 64
-2.942608 15.026823 -1.210477 94
-2.956151 15.109236 -0.505348 53
-2.457258 15.112680 -1.003546 77
-2.462064 15.158064 -0.769876 100
-2.455930 15.185401 -0.534488 70
-2.917231 15.057000 -0.975672 78
-2.925597 15.113566 -0.742126 93
-2.417146 15.040294 -1.469482 101
-2.423638 15.096632 -1.238257 101
-2.884257 14.993032 -1.443245 74
-2.890136 15.037003 -1.210477 96
-2.907162 15.139093 -0.506004 70
-2.405744 15.129049 -1.004069 77
-2.411644 15.182348 -0.770678 100
-2.404309 15.201754 -0.534766 72
-2.863085 15.059263 -0.975164 79
-2.869703 15.108011 -0.741355 93
-2.365055 15.052604 -1.469866 101
-2.370674 15.105040 -1.238257 100
-2.829889 14.995283 -1.442492 92
-2.836294 15.043194 -1.210162 100
-2.852160 15.141416 -0.505742 88
-2.352145 15.137476 -1.004069 76
-2.355960 15.178960 -0.770077 100
-2.353063 15.221906 -0.535183 68
-2.809036 15.061316 -0.974656 81
-2.818413 15.125793 -0.741740 100
-2.310684 15.048962 -1.468714 101
-2.316120 15.101400 -1.237289 100
-3.291876 15.063186 -0.951151 1
-3.288645 15.060623 -0.713494 1
-2.779703 15.016817 -1.443622 93
-2.782316 15.045160 -1.209531 100
-2.797110 15.139485 -0.505348 100
-2.298692 15.141647 -1.003807 76
-2.302961 15.187092 -0.770077 100
-3.239295 14.907233 -1.649155 0
-2.298123 15.218168 -0.534766 68
-3.233444 14.924428 -1.413930 29
-3.240194 14.967826 -1.181077 33
-3.259249 15.068182 -0.476407 38
-2.757882 15.078884 -0.975164 92
-2.764879 15.131608 -0.741548 93
-2.260501 15.072685 -1.470250 101
-2.262801 15.105450 -1.236966 100
-3.229210 15.027745 -0.948196 33
-3.229343 15.040757 -0.712015 50
-2.727268 15.026429 -1.443622 93
-2.731205 15.062628 -1.210162 100
-2.743534 15.145223 -0.505217 100
-2.244068 15.137734 -1.003022 77
-2.248764 15.187134 -0.769676 100
-3.193886 14.949562 -1.652594 17
-2.244907 15.226110 -0.534766 72
-3.179589 14.927849 -1.413193 67
-3.190368 14.990758 -1.182000 58
-3.204118 15.067739 -0.476037 43
-2.705272 15.088411 -0.975164 81
-2.712116 15.141153 -0.741548 100
-2.206247 15.068650 -1.469098 101
-2.209040 15.105347 -1.236320 100
-3.174483 15.027160 -0.947457 60
-3.171301 15.024517 -0.710720 47
-2.673690 15.027966 -1.442869 96
-2.676833 15.060236 -1.209216 100
-2.691699 15.158582 -0.505348 100
-2.193339 15.157267 -1.003807 81
-2.196180 15.194827 -0.769676 100
-3.130675 14.906041 -1.646575 8
-2.193452 15.245724 -0.535183 67
-3.126646 14.934958 -1.412824 65
-3.133938 14.982285 -1.180462 59
-3.153138 15.086658 -0.476284 40
-2.651206 15.089899 -0.974656 79
-2.657174 15.138723 -0.740970 93
-2.154760 15.084143 -1.469866 101
-2.156299 15.112967 -1.236320 100
-3.122821 15.042058 -0.947703 65
-3.122082 15.051146 -0.711460 43
-2.619848 15.029361 -1.442116 100
-2.624931 15.073416 -1.209531 100
-2.639454 15.171824 -0.505480 100
-2.139301 15.156926 -1.003284 77
-2.144242 15.210313 -0.770077 100
-3.093093 14.986984 -1.654314 4
-2.138555 15.241411 -0.534766 65
-3.066469 14.906769 -1.409136 54
-3.080818 14.989226 -1.180154 50
-3.100456 15.097573 -0.476284 40
-2.599193 15.102996 -0.974910 91
-2.602960 15.140031 -0.740585 100
-2.102093 15.091573 -1.469866 101
-2.105180 15.132248 -1.237289 100
-3.067104 15.037220 -0.946718 61
-3.070323 15.065866 -0.711645 53
-2.570051 15.054115 -1.443622 100
-2.572969 15.086418 -1.209846 100
-2.585807 15.177004 -0.505348 100
-2.086380 15.164302 -1.003284 71
-2.091135 15.217705 -0.770077 100
-3.031277 14.950919 -1.649155 3
-2.083173 15.232940 -0.534210 29
-3.014416 14.917382 -1.409136 61
-3.026899 14.992070 -1.179539 59
-3.050900 15.123981 -0.476778 53
-2.545795 15.108040 -0.974656 99
-2.551422 15.156904 -0.740970 98
-2.048330 15.090927 -1.469098 74
-2.055559 15.163209 -1.239226 16
-3.012243 15.036090 -0.945979 60
-3.015362 15.064738 -0.711090 56
-2.512891 15.035501 -1.440987 100
-2.519636 15.091374 -1.209531 101
-2.534129 15.193824 -0.505611 100
-2.980623 14.969210 -1.650015 3
-2.973467 14.970269 -1.413193 70
-2.977943 15.005938 -1.179847 67
-2.996842 15.114406 -0.476160 63
-2.494380 15.108522 -0.974149 100
-2.501146 15.165282 -0.740970 91
-2.962365 15.045997 -0.945979 70
-2.963846 15.066813 -0.710720 62
-2.464948 15.055541 -1.442116 100
-2.468290 15.091776 -1.208901 100
-2.483086 15.198198 -0.505480 100
-2.924858 14.947789 -1.646575 2
-2.920430 14.976648 -1.412824 78
-2.927832 15.027985 -1.180770 71
-2.944829 15.128699 -0.476284 70
-2.444172 15.132900 -0.975164 100
-2.446285 15.162087 -0.740392 100
-2.907554 15.044486 -0.945240 93
-2.912750 15.084914 -0.711090 75
-2.411750 15.060122 -1.441739 93
-2.414335 15.092425 -1.208270 100
-2.428757 15.198878 -0.505217 100
-2.878663 14.989151 -1.650015 2
-2.866606 14.978933 -1.412086 70
-2.873091 15.026365 -1.179847 74
-2.891994 15.138887 -0.476284 80
-2.392596 15.149223 -0.975672 95
-2.392128 15.162636 -0.740007 91
-2.857341 15.066295 -0.945979 91
-2.862408 15.106749 -0.711645 88
-2.358046 15.060562 -1.440987 100
-2.362378 15.104681 -1.208585 101
-2.377677 15.219091 -0.505611 100
-2.821340 14.971720 -1.647005 2
-2.817242 15.004506 -1.413561 76
-2.821357 15.040222 -1.180154 67
-2.836922 15.137101 -0.475913 93
-2.336656 15.137757 -0.974402 100
-2.341012 15.182740 -0.740585 95
-2.805462 15.080102 -0.946225 100
-2.809659 15.116648 -0.711645 91
-2.306062 15.072638 -1.441363 93
-2.310843 15.120719 -1.209216 100
-2.322728 15.215443 -0.505217 100
-3.259731 14.922276 -1.621553 1
-3.290275 15.086181 -0.684961 1
-3.297279 15.130387 -0.448779 1
-2.761964 14.998581 -1.412086 85
-2.765231 15.030367 -1.178617 82
-2.787681 15.166574 -0.476531 77
-2.283801 15.145822 -0.974402 100
-2.285025 15.171065 -0.739622 93
-3.229760 14.939726 -1.149274 25
-3.255069 15.068936 -0.921309 45
-2.752089 15.085875 -0.945979 100
-2.754725 15.114571 -0.711090 100
-2.254024 15.084534 -1.441739 100
-2.257460 15.124749 -1.208901 100
-2.269603 15.223457 -0.505217 100
-3.209293 14.941341 -1.622398 32
-3.214165 14.976160 -1.388582 63
-3.231729 15.070224 -0.683720 48
-3.243606 15.137895 -0.448663 44
-2.711786 15.019876 -1.413193 82
-2.716332 15.059545 -1.180154 78
-2.732612 15.164404 -0.476160 87
-2.230880 15.153707 -0.974402 86
-2.234314 15.194770 -0.740392 95
-3.176671 14.947026 -1.148974 33
-3.195695 15.048986 -0.919400 47
-2.697807 15.087565 -0.945487 100
-2.702423 15.128068 -0.711275 100
-2.200526 15.088407 -1.441363 98
-2.203793 15.128633 -1.208585 100
-2.214986 15.223420 -0.504955 100
-3.151061 14.925275 -1.619442 91
-3.159890 14.979564 -1.387860 60
-3.181214 15.093220 -0.684252 42
-3.177170 15.086608 -0.446809 28
-2.657796 15.005255 -1.410980 70
-2.664294 15.056688 -1.179232 84
-2.682310 15.173383 -0.476160 87
-2.179480 15.153118 -0.973895 97
-2.182210 15.190231 -0.739814 98
-3.130353 14.973096 -1.150174 40
-3.143324 15.047775 -0.918684 39
-2.646381 15.088564 -0.944994 100
-2.651552 15.133011 -0.711090 100
-2.148232 15.079851 -1.439857 100
-2.154174 15.139805 -1.208901 100
-2.165616 15.238598 -0.505217 100
-3.101550 14.935642 -1.619442 100
-3.107771 14.978258 -1.386777 74
-3.126278 15.080209 -0.683188 50
-3.125501 15.089231 -0.446577 26
-2.605402 15.014441 -1.410980 81
-2.612401 15.069826 -1.179539 73
-2.630693 15.190532 -0.476407 87
-2.128236 15.172494 -0.974656 73
-2.129727 15.201713 -0.740007 100
-3.078871 14.987839 -1.150474 39
-3.091581 15.062567 -0.918923 40
-2.595723 15.109514 -0.945733 100
-2.600064 15.150051 -0.711460 98
-2.097224 15.099092 -1.440987 98
-2.100765 15.143282 -1.208585 100
-2.113507 15.253984 -0.505480 100
-3.052576 14.961967 -1.621131 101
-3.053081 14.977304 -1.385693 77
-3.071227 15.079283 -0.682657 51
-3.076000 15.115721 -0.447041 31
-2.553532 15.027390 -1.411349 76
-2.557043 15.063137 -1.178309 89
-2.578295 15.203568 -0.476531 87
-2.073698 15.167956 -0.973895 30
-2.082157 15.248627 -0.741933 34
-3.029832 15.014106 -1.151673 42
-3.036012 15.057573 -0.917968 47
-2.543278 15.118430 -0.945733 100
-2.546196 15.151093 -0.711090 100
-2.999245 14.964635 -1.620286 101
-3.002866 14.995579 -1.386416 93
-3.018354 15.085879 -0.682479 58
-3.026179 15.138006 -0.447388 36
-2.499100 15.024425 -1.410242 83
-2.507716 15.091642 -1.179847 86
-2.522589 15.196699 -0.476037 93
-2.973528 15.005027 -1.150174 46
-2.987310 15.087664 -0.919161 64
-2.489841 15.123276 -0.945487 98
-2.495239 15.171718 -0.711645 100
-2.943150 14.955500 -1.618175 101
-2.951272 15.009878 -1.386777 100
-2.967987 15.108088 -0.683011 62
-2.974089 15.152400 -0.447504 41
-2.446640 15.033056 -1.410242 72
-2.453101 15.088494 -1.178924 89
-2.470169 15.209359 -0.476160 82
-2.918848 15.003569 -1.149274 47
-2.937674 15.113677 -0.920116 71
-2.433862 15.112167 -0.944255 100
-2.441629 15.176390 -0.711460 100
-2.892436 14.973493 -1.619020 101
-2.897350 15.012265 -1.386055 101
-2.918258 15.134050 -0.683720 71
-2.388725 14.942103 -1.635827 1
-2.920423 15.158764 -0.447388 50
-2.395513 15.049355 -1.410980 88
-2.397981 15.081200 -1.177694 82
-2.416463 15.213936 -0.476037 96
-2.863323 14.998021 -1.148074 47
-2.886210 15.131720 -0.920593 88
-2.382025 15.128508 -0.944748 100
-2.385179 15.165140 -0.710535 100
-2.838933 14.979680 -1.618597 101
-2.845150 15.026300 -1.386416 101
-2.863359 15.136399 -0.683366 76
-2.352526 15.056532 -1.647435 0
-2.864652 15.157194 -0.447041 51
-2.344368 15.049344 -1.410242 87
-2.351023 15.108772 -1.179232 80
-2.362928 15.202112 -0.475419 90
-2.812838 15.003513 -1.147774 47
-2.830135 15.109810 -0.918684 100
-2.333668 15.148161 -0.945487 100
-2.334876 15.172967 -0.710535 98
-2.788515 14.985102 -1.618175 101
-2.790208 15.008237 -1.383888 101
-2.812419 15.141883 -0.683188 84
-2.295373 15.017076 -1.642276 0
-2.815103 15.170542 -0.447156 50
-2.293021 15.065311 -1.410980 81
-2.298269 15.116887 -1.179232 80
-2.311049 15.218173 -0.475666 90
-3.249640 14.931705 -1.592641 20
-3.260409 14.993326 -1.361294 5
-3.273682 15.066570 -0.654298 23
-2.761891 15.021087 -1.148374 47
-2.779539 15.131378 -0.919400 92
-2.279588 15.148319 -0.944994 98
-2.282492 15.184976 -0.710720 100
-3.237525 14.997416 -1.124019 41
-3.249207 15.063812 -0.891248 56
-2.738333 15.006483 -1.619442 101
-2.741375 15.037480 -1.385693 101
-2.760263 15.155539 -0.683366 80
-2.762130 15.180276 -0.447156 50
-2.239762 15.069295 -1.410611 85
-2.244857 15.120879 -1.178924 86
-2.258482 15.230105 -0.475790 90
-3.195817 14.935181 -1.591811 78
-3.202231 14.977340 -1.358819 65
-3.221107 15.077897 -0.654298 52
-2.708824 15.026694 -1.148074 49
-2.725407 15.133108 -0.918923 97
-2.227479 15.160105 -0.945240 92
-2.231442 15.204678 -0.711275 100
-3.188721 15.024180 -1.125188 50
-3.190259 15.043751 -0.889400 47
-2.681338 14.988487 -1.616486 101
-2.685699 15.027290 -1.383888 101
-2.707709 15.165016 -0.683366 92
-2.708816 15.185819 -0.447041 67
-2.188291 15.084905 -1.411349 99
-2.190918 15.120728 -1.178309 84
-2.205878 15.241853 -0.475913 85
-3.142845 14.942352 -1.591397 90
-3.145834 14.968930 -1.357052 60
-3.163528 15.065582 -0.653280 53
-2.659131 15.051770 -1.149274 44
-2.673954 15.150393 -0.919400 100
-2.175679 15.175692 -0.945733 99
-2.177788 15.208418 -0.711090 100
-3.132999 15.019599 -1.124019 49
-3.135282 15.043067 -0.888707 50
-2.629689 15.001674 -1.616908 101
-2.633227 15.036573 -1.383888 101
-2.652002 15.158630 -0.682657 94
-2.140060 15.052046 -1.643566 0
-2.655102 15.191243 -0.446925 69
-2.133947 15.080620 -1.410242 88
-2.138682 15.132234 -1.178617 73
-2.152661 15.249459 -0.475913 90
-3.092278 14.961024 -1.592226 95
-3.092757 14.975918 -1.356699 55
-3.103652 15.041308 -0.651754 49
-2.602493 15.037378 -1.147474 47
-2.620373 15.155701 -0.919161 100
-2.121035 15.171331 -0.944994 75
-2.125240 15.219885 -0.711275 100
-3.077348 15.014812 -1.122850 51
-3.078748 15.034359 -0.887553 53
-2.577307 15.010761 -1.616908 101
-2.580050 15.041747 -1.383527 101
-2.599072 15.167795 -0.682657 92
-2.603408 15.208301 -0.447156 63
-2.079187 15.072185 -1.408767 90
-2.085891 15.139601 -1.178617 80
-2.099435 15.256879 -0.475913 70
-3.036885 14.956128 -1.590567 100
-3.038868 14.978815 -1.355992 63
-3.052679 15.059892 -0.652093 58
-2.551228 15.054252 -1.148074 49
-2.567334 15.164775 -0.919161 92
-2.068940 15.186583 -0.945487 18
-3.022302 15.013781 -1.121973 57
-3.029118 15.060730 -0.888476 58
-2.526565 15.031486 -1.618175 101
-2.525215 15.038932 -1.382443 101
-2.542440 15.157132 -0.681770 96
-2.549911 15.217361 -0.447156 67
-2.989609 14.977820 -1.591811 100
-2.990739 14.996625 -1.356699 72
-3.008970 15.101286 -0.653450 65
-2.501946 15.066565 -1.148374 48
-2.516378 15.169266 -0.918923 96
-2.976370 15.043287 -1.123434 62
-2.981481 15.082445 -0.889169 67
-2.475412 15.031932 -1.617330 100
-2.477916 15.062947 -1.383888 101
-2.494756 15.181252 -0.682479 90
-2.498787 15.221788 -0.447041 66
-2.936543 14.984261 -1.591397 100
-2.937607 15.003063 -1.356345 82
-2.957005 15.115620 -0.653620 84
-2.446780 15.059458 -1.147174 48
-2.462773 15.174016 -0.918684 100
-2.922320 15.045753 -1.122850 67
-2.925011 15.073159 -0.888015 93
-2.421028 15.028700 -1.616063 101
-2.424689 15.067572 -1.383527 101
-2.439845 15.178032 -0.681948 96
-2.444370 15.222523 -0.446809 72
-2.881949 14.982703 -1.590153 100
-2.885980 15.017137 -1.356699 94
-2.905015 15.129767 -0.653789 92
-2.395541 15.075770 -1.147774 48
-2.408658 15.174615 -0.918207 94
-2.870037 15.055814 -1.122850 67
-2.874155 15.091070 -0.888476 100
-2.370099 15.044869 -1.616908 100
-2.373034 15.079826 -1.383888 101
-2.389076 15.198241 -0.682479 96
-2.392853 15.238800 -0.447041 67
-2.828894 14.988762 -1.589738 100
-2.837235 15.046696 -1.358466 94
-2.852924 15.143743 -0.653959 91
-2.341678 15.076158 -1.147174 47
-2.356287 15.186875 -0.918446 90
-2.816731 15.061819 -1.122557 70
-2.821460 15.101010 -0.888476 100
-2.316358 15.045188 -1.616063 100
-2.320987 15.091955 -1.384249 101
-2.336617 15.210438 -0.682657 86
-3.276932 14.941063 -1.564521 0
-2.336613 15.227300 -0.446461 63
-3.279943 15.026171 -0.859874 2
-2.776556 14.998546 -1.589738 100
-2.779622 15.029082 -1.355992 97
-2.800771 15.157538 -0.654128 75
-2.287243 15.072410 -1.146275 47
-2.300268 15.175269 -0.917253 92
-3.267464 15.077354 -0.625020 100
-2.764858 15.075483 -1.122850 65
-2.770889 15.122551 -0.889169 101
-2.266192 15.068916 -1.617753 100
-2.267108 15.092086 -1.383527 101
-2.279951 15.194791 -0.681593 100
-3.220564 14.932961 -1.562486 88
-2.285224 15.247226 -0.446809 71
-3.224433 14.962986 -1.328375 43
-3.221823 14.998894 -1.094276 52
-3.232519 15.060953 -0.861214 60
-2.724192 15.008144 -1.589738 100
-2.727851 15.042615 -1.356345 97
-2.744266 15.147564 -0.653280 79
-2.237499 15.100036 -1.147774 48
-2.249568 15.199013 -0.918207 94
-3.206398 15.049598 -0.623401 101
-2.709282 15.069357 -1.121680 72
-2.716548 15.124292 -0.888707 100
-2.212864 15.072819 -1.617330 100
-2.210797 15.076281 -1.381360 101
-2.227894 15.210588 -0.681948 100
-3.169085 14.948039 -1.562893 82
-2.233549 15.267004 -0.447156 71
-3.167057 14.950795 -1.326300 49
-3.169448 15.010049 -1.094276 62
-3.179103 15.068237 -0.860991 64
-2.674575 15.033230 -1.591397 100
-2.674628 15.048122 -1.355992 89
-2.692073 15.160986 -0.653450 86
-2.184206 15.103806 -1.147474 48
-2.197071 15.210725 -0.918446 81
-3.149749 15.041139 -0.622591 100
-2.658048 15.086580 -1.122265 81
-2.661661 15.121884 -0.888015 100
-2.159109 15.072577 -1.616486 100
-2.162107 15.111510 -1.383888 101
-2.174785 15.218272 -0.681948 96
-3.116888 14.959010 -1.562893 87
-2.178549 15.262833 -0.446809 72
-3.117287 14.973463 -1.327338 51
-3.109738 14.985861 -1.091714 48
-3.116756 15.032315 -0.858311 60
-2.617300 15.015039 -1.588494 100
-2.622084 15.057367 -1.355992 87
-2.639135 15.170291 -0.653450 77
-2.129799 15.099489 -1.146575 43
-2.144519 15.222256 -0.918684 85
-3.098838 15.059872 -0.622915 99
-2.606727 15.103629 -1.122850 77
-2.608181 15.127148 -0.887784 100
-2.104281 15.064264 -1.614797 101
-2.106592 15.099237 -1.382082 101
-2.126614 15.261391 -0.683543 90
-3.066248 14.977595 -1.563707 78
-2.125259 15.270345 -0.446809 66
-3.062605 14.972541 -1.326300 58
-3.057488 14.996609 -1.091714 52
-3.063517 15.039180 -0.858088 64
-2.562882 15.012316 -1.587250 100
-2.567487 15.054646 -1.354931 100
-2.588807 15.195176 -0.654128 73
-2.079149 15.122652 -1.147774 42
-2.091235 15.229667 -0.918684 90
-3.042066 15.051055 -0.622105 100
-2.553702 15.112684 -1.122850 85
-2.559696 15.163777 -0.889400 100
-2.053483 15.087330 -1.616486 31
-2.054568 15.114446 -1.382804 100
-3.011973 14.980487 -1.562893 89
-3.011455 14.991042 -1.326992 58
-3.001988 14.991541 -1.090576 67
-3.012568 15.057614 -0.858535 70
-2.511120 15.025094 -1.587665 100
-2.516233 15.071378 -1.355638 99
-2.530491 15.172585 -0.652772 77
-2.990288 15.065502 -0.622267 101
-2.500934 15.121507 -1.122850 83
-2.503495 15.152920 -0.888246 100
-2.961204 14.998717 -1.563707 95
-2.956795 14.989734 -1.325954 67
-2.950409 15.005843 -1.090861 82
-2.962299 15.079795 -0.859205 83
-2.456731 15.021989 -1.586421 100
-2.461682 15.068273 -1.354578 100
-2.477513 15.181325 -0.652772 80
-2.938445 15.079771 -0.622429 101
-2.446860 15.122269 -1.122265 81
-2.449949 15.157624 -0.888015 100
-2.904288 14.985523 -1.561265 100
-2.907483 15.015613 -1.327338 81
-2.900199 15.027819 -1.091714 100
-2.910349 15.093975 -0.859428 86
-2.404889 15.034405 -1.586836 100
-2.412852 15.100378 -1.356699 93
-2.424548 15.189874 -0.652772 92
-2.886765 15.093819 -0.622591 101
-2.394970 15.134612 -1.122557 87
-2.396096 15.158145 -0.887553 100
-2.853111 14.999401 -1.561672 99
-2.853257 15.013842 -1.326300 86
-2.849952 15.049611 -1.092568 100
-2.858386 15.107965 -0.859651 78
-2.351780 15.038777 -1.586421 101
-2.356438 15.085089 -1.354578 100
-2.374591 15.217988 -0.653620 80
-2.837009 15.119516 -0.623239 101
-2.340906 15.134995 -1.121973 87
-2.345608 15.182202 -0.888476 100
-2.798547 14.997534 -1.560451 95
-2.800831 15.023710 -1.326300 87
-2.796673 15.055545 -1.092284 101
-2.807818 15.129632 -0.860321 83
-2.299270 15.046895 -1.586421 101
-2.302564 15.085345 -1.353871 100
-2.317240 15.198528 -0.652433 96
-3.252559 14.929067 -1.533154 5
-3.261470 14.982013 -1.301016 4
-3.279287 15.075987 -0.595401 18
-2.781321 15.113605 -0.622591 101
-2.288656 15.147018 -1.122265 83
-2.291406 15.182401 -0.888015 100
-3.246130 15.020268 -1.066483 29
-3.255124 15.074092 -0.832502 49
-2.745462 15.003297 -1.560044 95
-2.747655 15.029475 -1.325954 82
-2.743427 15.061283 -1.091999 100
-2.750008 15.111832 -0.858758 79
-2.249091 15.070567 -1.588079 101
-2.250474 15.097232 -1.354224 100
-2.264152 15.206528 -0.652433 91
-3.200407 14.940333 -1.533154 52
-3.202444 14.962134 -1.298310 52
-3.233278 15.118622 -0.596635 61
-2.728436 15.123241 -0.622591 101
-2.233880 15.143097 -1.121388 71
-2.238819 15.194281 -0.888246 100
-3.190190 15.015932 -1.065375 66
-3.199809 15.073681 -0.831855 58
-2.692169 15.008909 -1.559637 100
-2.694255 15.035091 -1.325608 92
-2.693467 15.070298 -1.091999 101
-2.701284 15.128731 -0.859205 86
-2.197380 15.066133 -1.586836 101
-2.200972 15.108555 -1.354578 100
-2.217165 15.237681 -0.653450 100
-3.148383 14.939181 -1.531956 46
-3.152810 14.972672 -1.298310 52
-3.169958 15.066678 -0.594167 59
-2.676877 15.124334 -0.622267 101
-2.183651 15.150421 -1.121388 69
-2.188421 15.201621 -0.888246 100
-3.137113 15.010804 -1.064267 70
-3.144091 15.056840 -0.830345 48
-2.643073 15.021673 -1.560044 100
-2.646452 15.055717 -1.326646 97
-2.642910 15.091398 -1.092853 101
-2.647082 15.130199 -0.858758 87
-2.145337 15.077649 -1.587250 101
-2.144856 15.092477 -1.352457 101
-2.162277 15.233458 -0.652941 93
-3.091373 14.926696 -1.529560 45
-3.100527 14.983586 -1.298310 51
-3.114919 15.065909 -0.593704 65
-2.623384 15.129648 -0.622105 101
-2.132974 15.173753 -1.122557 63
-2.133678 15.197304 -0.887553 100
-3.087104 15.033390 -1.065098 80
-3.084288 15.032509 -0.828405 43
-2.591973 15.038651 -1.560858 100
-2.593881 15.064864 -1.326646 89
-2.588080 15.088754 -1.091999 101
-2.592834 15.131487 -0.858311 79
-2.090480 15.069287 -1.585592 100
-2.094911 15.119603 -1.354224 100
-2.108600 15.236945 -0.652772 91
-3.041689 14.949084 -1.530758 42
-3.049099 14.998203 -1.298648 62
-3.063248 15.080579 -0.593858 65
-2.569530 15.130780 -0.621782 101
-2.079311 15.173146 -1.121973 56
-2.081600 15.208555 -0.887784 48
-3.031932 15.028331 -1.063990 84
-3.033897 15.050910 -0.828836 48
-2.539364 15.043588 -1.560451 101
-2.541224 15.069795 -1.326300 94
-2.530120 15.082398 -1.090861 100
-2.537357 15.140888 -0.858311 79
-2.986877 14.960133 -1.530758 51
-2.994107 15.009278 -1.298648 67
-3.015767 15.130903 -0.595401 76
-2.515366 15.147982 -0.622105 101
-2.977605 15.043257 -1.064267 90
-2.977937 15.058010 -0.828620 59
-2.484210 15.052794 -1.560451 100
-2.487270 15.086871 -1.326992 100
-2.480042 15.106887 -1.091999 100
-2.485136 15.153594 -0.858535 87
-2.932341 14.958751 -1.529560 53
-2.938633 15.003993 -1.297296 71
-2.961397 15.133493 -0.595092 85
-2.461833 15.152724 -0.621944 101
-2.925076 15.053559 -1.064267 93
-2.928401 15.083997 -0.829483 69
-2.429114 15.045660 -1.558823 100
-2.433323 15.087593 -1.326300 89
-2.427476 15.115422 -1.091999 100
-2.429807 15.146385 -0.857642 83
-2.880013 14.968913 -1.529560 54
-2.885325 15.010277 -1.296957 84
-2.912088 15.163409 -0.595863 86
-2.409040 15.165255 -0.622105 101
-2.874716 15.079507 -1.065375 87
-2.873380 15.086443 -0.829052 79
-2.376277 15.058124 -1.559230 100
-2.378407 15.088279 -1.325608 84
-2.371604 15.104096 -1.090576 100
-2.380635 15.178448 -0.858981 89
-2.824791 14.963232 -1.527963 55
-2.831435 15.012424 -1.296281 81
-2.853959 15.145988 -0.594784 78
-2.356702 15.177521 -0.622267 101
-2.818393 15.069838 -1.063990 83
-2.823635 15.112086 -0.829914 88
-2.323093 15.062394 -1.558823 100
-2.325725 15.096489 -1.325608 94
-2.320898 15.107934 -1.090291 101
-2.327260 15.166521 -0.857865 85
-2.778783 14.992084 -1.529960 52
-2.784539 15.037406 -1.297634 84
-2.802263 15.147507 -0.594475 89
-2.302757 15.161544 -0.621296 101
-2.767684 15.075176 -1.063713 83
-2.772065 15.113509 -0.829483 98
-2.271351 15.058210 -1.557602 100
-2.275650 15.104118 -1.325608 89
-2.268987 15.140024 -1.091999 100
-2.273977 15.190755 -0.858758 79
-2.723852 15.002161 -1.529960 59
-2.729469 15.047500 -1.297634 90
-2.746817 15.157660 -0.594475 83
-2.248543 15.177759 -0.621620 101
-2.714836 15.096947 -1.064544 90
-2.716986 15.123507 -0.829483 100
-2.217662 15.074255 -1.558416 100
-2.220662 15.112301 -1.325608 78
-2.215547 15.143905 -1.091714 100
-2.219205 15.186744 -0.858088 83
-2.671468 15.011578 -1.529960 56
-2.674834 15.045163 -1.296619 95
-2.695289 15.175027 -0.594784 75
-2.197264 15.197383 -0.622105 101
-2.660043 15.094542 -1.063713 93
-2.661408 15.117165 -0.828620 100
-2.166160 15.089782 -1.559230 100
-2.169028 15.127850 -1.326300 86
-2.161544 15.143646 -1.091145 101
-2.166180 15.194398 -0.858088 78
-2.615633 15.001207 -1.527963 58
-2.622300 15.054408 -1.296619 86
-2.637505 15.156777 -0.593704 74
-2.141970 15.189130 -0.621458 101
-2.604622 15.088006 -1.062606 100
-2.609981 15.134235 -0.829052 98
-2.110716 15.077548 -1.557195 100
-2.114001 15.119543 -1.324917 91
-2.111753 15.154698 -1.091430 100
-2.114061 15.189641 -0.857418 85
-2.569284 15.029404 -1.529960 56
-2.573806 15.070862 -1.297296 86
-2.589389 15.177237 -0.594167 87
-2.095719 15.223822 -0.622591 101
-2.557053 15.108282 -1.063436 96
-2.560305 15.142718 -0.829052 92
-2.058038 15.060731 -1.554753 57
-2.066078 15.138232 -1.325954 25
-2.515492 15.030430 -1.529161 59
-2.521183 15.079755 -1.297296 84
-2.537711 15.194067 -0.594475 81
-2.506909 15.132863 -1.064544 98
-2.504823 15.135800 -0.828189 100
-2.464941 15.050902 -1.530359 54
-2.467242 15.080596 -1.296619 88
-2.484014 15.198888 -0.594321 69
-2.452793 15.133643 -1.063990 100
-2.451974 15.144452 -0.828189 98
-2.409812 15.043704 -1.528762 55
-2.414486 15.089133 -1.296619 73
-2.429539 15.199595 -0.594012 76
-2.398844 15.138248 -1.063713 100
-2.399194 15.156947 -0.828405 100
-2.356669 15.048092 -1.528362 64
-2.361184 15.093532 -1.296281 75
-2.376468 15.207984 -0.594012 90
-2.344155 15.134699 -1.062883 98
-2.348104 15.177071 -0.829052 100
-2.303525 15.052293 -1.527963 60
-2.307279 15.093801 -1.295605 76
-2.323971 15.220138 -0.594167 78
-2.290714 15.138844 -1.062606 96
-2.295708 15.189124 -0.829267 80
-2.249813 15.052366 -1.527164 64
-2.255203 15.105700 -1.295943 81
-2.270880 15.228149 -0.594167 74
-2.239779 15.158565 -1.063436 100
-2.238781 15.169357 -0.827758 100
-2.199555 15.075881 -1.528762 59
-2.202460 15.113481 -1.295943 79
-2.220589 15.255760 -0.594938 81
-2.184004 15.146544 -1.062052 100
-2.185817 15.177080 -0.827758 97
-2.145235 15.071646 -1.527563 59
-2.149691 15.121077 -1.295943 79
-2.163951 15.239675 -0.594012 78
-2.132787 15.165929 -1.062883 93
-2.133937 15.192528 -0.828189 100
-2.093138 15.082988 -1.527963 54
-2.097953 15.136389 -1.296619 77
-2.111786 15.255061 -0.594321 67
-2.077494 15.157492 -1.061775 83
-2.080703 15.199910 -0.828189 53