# This PCD file was generated using the MATLAB® pcwrite function
# from Computer Vision Toolbox®.
# .PCD v.7 - Point Cloud Data file format
VERSION .7
FIELDS x y z intensity
SIZE 4 4 4 1
TYPE F F F U
COUNT 1 1 1 1
WIDTH 1498
HEIGHT 1
VIEWPOINT 0 0 0 1 0 0 0
POINTS 1498
DATA ascii
-0.325363 3.838978 -0.423985 101
-0.458656 3.924815 -0.061386 62
-0.604508 4.050956 0.259122 64
-0.700151 3.849477 -0.347128 54
-0.854408 3.977197 0.022720 8
-0.084150 3.975039 -0.023594 100
-0.211888 4.017917 0.364751 101
-0.329383 3.894195 -0.248616 101
-0.468496 4.014872 0.123498 81
-0.708764 3.900561 -0.168238 72
-0.861835 4.015059 0.212339 52
-0.083815 3.990943 0.037623 88
-0.328674 3.893614 -0.188372 100
-0.468008 4.016562 0.185747 58
-0.566279 3.803544 -0.516511 101
-0.712057 3.922433 -0.107873 82
-0.864559 4.031053 0.276722 43
-0.083851 4.024918 0.223667 95
-0.201881 3.852805 -0.372172 101
-0.333772 3.961957 -0.008327 65
-0.472387 4.060086 0.410146 101
-0.568526 3.823048 -0.290618 81
-0.719379 3.966565 0.076701 84
-0.084247 4.076870 0.289435 95
-0.202755 3.881982 -0.314811 100
-0.334417 3.977616 0.052950 81
-0.580204 3.906098 -0.235994 100
-0.722693 3.988660 0.139430 72
-0.077668 3.852606 -0.379186 100
-0.203725 3.938703 -0.015832 99
-0.340232 4.071392 0.388360 101
-0.448181 3.874752 -0.240620 92
-0.586793 3.964220 0.068550 76
-0.829004 3.881196 -0.160789 1
-0.077207 3.861972 -0.320290 101
-0.204698 3.970471 0.045105 88
-0.450651 3.901857 -0.181795 98
-0.588242 3.978629 0.130609 91
-0.680994 3.772988 -0.480942 52
-0.834611 3.910667 -0.100520 0
-0.078115 3.940577 -0.144523 100
-0.208830 4.063920 0.233921 76
-0.322035 3.869314 -0.367022 101
-0.460559 3.993531 -0.000702 67
-0.585488 3.964609 0.315406 101
-0.698725 3.874955 -0.288457 85
-0.847378 3.973764 0.085110 53
-0.077487 3.942344 -0.083973 96
-0.209163 4.083793 0.298136 72
-0.323133 3.890424 -0.308609 101
-0.456631 3.965335 0.060614 72
-0.599001 4.060839 0.437225 0
-0.699485 3.882906 -0.228182 85
-0.843839 3.960431 0.147067 39
-0.078375 4.022001 0.099719 100
-0.193794 3.796233 -0.693944 91
-0.325622 3.928405 -0.129388 100
-0.464738 4.041723 0.249544 61
-0.565292 3.836786 -0.411722 101
-0.712704 3.960103 -0.047054 96
-0.865769 4.066715 0.343299 54
-0.077428 4.008020 0.161009 74
-0.195936 3.850914 -0.431826 101
-0.325086 3.929977 -0.068832 100
-0.466296 4.061290 0.313835 62
-0.566661 3.850567 -0.352834 100
-0.709958 3.948657 0.014705 85
-0.078128 4.079790 0.355566 100
-0.195684 3.858751 -0.253241 100
-0.330263 4.000746 0.114936 85
-0.436337 3.806005 -0.562424 101
-0.573587 3.902190 -0.174963 100
-0.722547 4.022561 0.203460 72
-0.197427 3.906102 -0.196074 100
-0.330718 4.014502 0.177279 100
-0.440530 3.848300 -0.418737 101
-0.574415 3.912397 -0.114599 78
-0.721938 4.023061 0.266465 58
-0.073076 3.982202 -0.827859 4
-0.196086 3.928736 -0.136678 100
-0.328576 4.019481 0.239598 80
-0.438327 3.850555 -0.358830 100
-0.577340 3.949657 -0.054344 85
-0.727016 4.066110 0.333065 101
-0.069216 3.806738 -0.433795 101
-0.196301 3.946379 -0.076558 100
-0.330156 4.047200 0.303896 80
-0.440502 3.875463 -0.300806 97
-0.577306 3.954072 0.006974 64
-0.828988 3.919026 -0.223956 0
-0.069941 3.882541 -0.262005 101
-0.197782 3.989676 0.106695 93
-0.308487 3.789439 -0.618782 101
-0.445455 3.924917 -0.122067 68
-0.584055 4.005005 0.193701 68
-0.685641 3.842163 -0.406764 68
-0.832064 3.936839 -0.039329 25
-0.069708 3.906088 -0.203375 101
-0.197795 4.003568 0.168705 82
-0.311961 3.840090 -0.423985 101
-0.447655 3.950236 -0.061758 69
-0.590364 4.053041 0.259122 72
-0.685311 3.844053 -0.346421 69
-0.831428 3.937105 0.022474 40
-0.070062 3.963311 -0.023523 100
-0.198254 4.026590 0.365473 101
-0.315465 3.891342 -0.248362 101
-0.454029 4.012510 0.123376 81
-0.695845 3.906945 -0.168408 80
-0.846165 4.010225 0.211926 58
-0.069813 3.987212 0.037585 90
-0.316370 3.910667 -0.189143 100
-0.453088 4.010230 0.185380 66
-0.551289 3.793728 -0.514913 101
-0.697660 3.920958 -0.107764 89
-0.851306 4.037951 0.276990 45
-0.069801 4.025187 0.223667 100
-0.188042 3.845533 -0.371403 101
-0.320584 3.971072 -0.008344 73
-0.455535 4.037980 0.407750 101
-0.556896 3.836851 -0.291517 88
-0.702029 3.949364 0.076320 94
-0.070084 4.081129 0.289718 89
-0.188815 3.874702 -0.314165 100
-0.321494 3.990719 0.053110 81
-0.568285 3.919955 -0.236710 100
-0.711562 4.006903 0.139980 75
-0.064286 3.856833 -0.379578 100
-0.190553 3.951376 -0.015880 101
-0.323159 4.036831 0.384953 101
-0.435988 3.888195 -0.241359 86
-0.571236 3.954369 0.068345 79
-0.818736 3.899712 -0.161437 2
-0.063725 3.862218 -0.320290 101
-0.190645 3.967166 0.045060 90
-0.437473 3.907377 -0.181980 100
-0.574350 3.980658 0.130609 91
-0.671968 3.798791 -0.483929 68
-0.817672 3.897903 -0.100118 22
-0.064294 3.936829 -0.144376 100
-0.193115 4.032713 0.232084 73
-0.308526 3.870414 -0.367022 101
-0.445282 3.983188 -0.000700 74
-0.573351 3.978469 0.316347 101
-0.686584 3.885228 -0.289042 92
-0.826939 3.945385 0.084440 51
-0.063919 3.954587 -0.084229 96
-0.195857 4.104423 0.299590 66
-0.308918 3.883579 -0.307978 100
-0.445449 3.990753 0.060978 72
-0.592756 4.118022 0.443157 0
-0.686621 3.889256 -0.228413 86
-0.838203 4.002477 0.148519 41
-0.064335 4.022250 0.099719 100
-0.180542 3.796886 -0.693944 88
-0.312223 3.933503 -0.129519 95
-0.447532 4.015545 0.247830 63
-0.551896 3.838736 -0.411722 101
-0.698181 3.958628 -0.047008 95
-0.848303 4.054105 0.341982 62
-0.063627 4.020255 0.161490 72
-0.182681 3.855545 -0.432272 101
-0.312629 3.947035 -0.069112 100
-0.452999 4.070820 0.314447 48
-0.553216 3.852522 -0.352834 100
-0.694782 3.943232 0.014675 83
-0.063762 4.072069 0.354871 100
-0.183155 3.879346 -0.254549 100
-0.315981 3.997889 0.114821 90
-0.421738 3.795705 -0.560681 101
-0.561097 3.912080 -0.175317 100
-0.707809 4.021124 0.203261 73
-0.796589 3.813363 -0.398456 0
-0.184166 3.914749 -0.196475 96
-0.317332 4.023599 0.177631 94
-0.427094 3.849814 -0.418737 101
-0.560755 3.914378 -0.114599 82
-0.710656 4.041281 0.267505 58
-0.059568 3.962843 -0.823788 15
-0.182677 3.921378 -0.136400 100
-0.315237 4.020550 0.239598 75
-0.423799 3.836153 -0.357355 100
-0.563666 3.947591 -0.054289 89
-0.712831 4.064573 0.332744 101
-0.799574 3.839667 -0.279759 0
-0.056587 3.806947 -0.433795 101
-0.183950 3.962988 -0.076868 98
-0.315484 4.032366 0.302702 89
-0.426769 3.868975 -0.300190 97
-0.563621 3.952005 0.006967 75
-0.815169 3.917845 -0.223733 6
-0.056888 3.870780 -0.261197 101
-0.185103 4.002293 0.107015 93
-0.295610 3.786505 -0.618140 101
-0.431122 3.914451 -0.121696 75
-0.571895 4.014831 0.194083 70
-0.671522 3.836578 -0.405935 88
-0.811675 3.904332 -0.038977 56
-0.056639 3.898309 -0.202959 101
-0.184703 4.008194 0.168873 81
-0.298917 3.837140 -0.423548 101
-0.432806 3.935797 -0.061510 72
-0.575796 4.047072 0.258617 68
-0.673247 3.850229 -0.346775 82
-0.819996 3.947673 0.022519 50
-0.057153 3.979520 -0.023618 95
-0.184904 4.027225 0.365473 101
-0.302564 3.892366 -0.248362 101
-0.440288 4.010019 0.123253 85
-0.683577 3.913167 -0.168578 82
-0.829619 3.997363 0.211099 57
-0.056769 3.999419 0.037699 97
-0.303407 3.911694 -0.189143 100
-0.440230 4.015682 0.185563 62
-0.539269 3.799459 -0.515446 100
-0.684661 3.923249 -0.107764 80
-0.832246 4.013395 0.275115 52
-0.056519 4.029389 0.223889 100
-0.175480 3.850112 -0.371787 101
-0.306807 3.964136 -0.008327 79
-0.441720 4.035511 0.407350 101
-0.540821 3.814980 -0.289718 100
-0.690313 3.959548 0.076472 84
-0.056454 4.073360 0.289152 82
-0.175979 3.875306 -0.314165 100
-0.307041 3.975811 0.052897 85
-0.558095 3.941583 -0.237903 100
-0.701028 4.024992 0.140530 62
-0.051784 3.876927 -0.381536 100
-0.177830 3.959977 -0.015912 100
-0.311926 4.065671 0.387603 101
-0.423978 3.897555 -0.241851 97
-0.558702 3.960198 0.068414 83
-0.799356 3.871088 -0.160141 55
-0.050733 3.846464 -0.318968 101
-0.178230 3.983758 0.045241 100
-0.424539 3.908804 -0.181980 98
-0.559500 3.970661 0.130219 87
-0.660749 3.808815 -0.484925 91
-0.797495 3.865341 -0.099214 64
-0.051216 3.933023 -0.144230 100
-0.180304 4.045299 0.232773 75
-0.295112 3.863472 -0.366270 101
-0.430807 3.972709 -0.000697 75
-0.556294 3.952703 0.314150 101
-0.673725 3.887478 -0.289042 97
-0.814688 3.952017 0.084524 55
-0.051042 3.970772 -0.084569 94
-0.181394 4.085121 0.298136 70
-0.297282 3.900483 -0.309239 101
-0.431384 3.984252 0.060857 71
-0.575255 4.092389 0.440191 2
-0.675795 3.903311 -0.229105 99
-0.823345 3.997398 0.148228 48
-0.050931 4.014443 0.099521 100
-0.166940 3.773875 -0.689634 67
-0.298910 3.930528 -0.129388 83
-0.435966 4.032880 0.248809 60
-0.538644 3.836601 -0.411300 101
-0.686449 3.968797 -0.047101 87
-0.830873 4.037365 0.340337 61
-0.050434 4.028436 0.161811 80
-0.169932 3.856128 -0.432272 101
-0.299577 3.948047 -0.069112 100
-0.438681 4.064365 0.313835 59
-0.542135 3.866165 -0.353917 100
-0.683102 3.953391 0.014705 89
-0.050252 4.068273 0.354524 100
-0.169980 3.871955 -0.254026 100
-0.303065 4.002899 0.114936 82
-0.408764 3.793143 -0.560100 101
-0.548162 3.913913 -0.175317 100
-0.693153 4.015568 0.202863 65
-0.780776 3.800384 -0.396828 0
-0.170704 3.903362 -0.195874 96
-0.304936 4.036580 0.178159 79
-0.413518 3.843296 -0.417878 101
-0.547261 3.912250 -0.114483 76
-0.696618 4.039674 0.267245 66
-0.793293 3.864591 -0.342383 1
-0.046006 3.986523 -0.828673 11
-0.168471 3.910011 -0.135983 100
-0.300008 4.005698 0.238649 94
-0.409558 3.829688 -0.356617 101
-0.547677 3.933689 -0.054071 92
-0.695264 4.047389 0.331136 101
-0.789365 3.858070 -0.280897 25
-0.043388 3.815069 -0.434700 101
-0.169601 3.951620 -0.076635 90
-0.300812 4.025487 0.302105 91
-0.414108 3.878373 -0.300806 97
-0.548721 3.946025 0.006953 64
-0.792689 3.877625 -0.221276 41
-0.043465 3.878937 -0.261735 101
-0.170789 3.994925 0.106801 88
-0.280924 3.767828 -0.614927 101
-0.416184 3.904005 -0.121326 77
-0.557877 4.016803 0.194083 65
-0.657453 3.834977 -0.405520 95
-0.798842 3.911060 -0.039017 60
-0.043252 3.918455 -0.203998 101
-0.170371 4.000829 0.168537 81
-0.285521 3.838160 -0.423548 101
-0.419911 3.945238 -0.061634 64
-0.563312 4.060920 0.259375 68
-0.659130 3.848628 -0.346421 81
-0.804612 3.942673 0.022474 52
-0.043174 3.971695 -0.023570 100
-0.171014 4.031826 0.365835 101
-0.289270 3.897380 -0.248616 101
-0.425866 4.007555 0.123131 88
-0.667218 3.899773 -0.167899 91
-0.814065 3.992407 0.210686 56
-0.042637 3.983595 0.037548 95
-0.287980 3.888823 -0.187987 101
-0.426631 4.021167 0.185747 64
-0.523830 3.785610 -0.513316 101
-0.672983 3.937439 -0.108089 79
-0.813451 3.992812 0.273507 43
-0.042454 4.029562 0.223889 89
-0.162207 3.854679 -0.372172 101
-0.292968 3.965183 -0.008327 77
-0.428469 4.044944 0.408149 101
-0.528047 3.820796 -0.290018 89
-0.675141 3.954049 0.076320 92
-0.042194 4.069542 0.288868 89
-0.162283 3.871913 -0.313843 100
-0.294043 3.988825 0.053056 89
-0.541057 3.919775 -0.236472 100
-0.682268 3.999829 0.139567 72
-0.038015 3.853201 -0.379186 100
-0.163510 3.948584 -0.015864 100
-0.298023 4.070707 0.387981 100
-0.409952 3.895041 -0.241605 74
-0.544875 3.962125 0.068414 83
-0.785839 3.873854 -0.160141 63
-0.037499 3.866548 -0.320621 100
-0.164488 3.988353 0.045287 93
-0.410892 3.910262 -0.181980 100
-0.547812 3.988432 0.130738 91
-0.646785 3.807186 -0.484427 100
-0.786380 3.879858 -0.099515 81
-0.037601 3.945169 -0.144669 101
-0.166183 4.045904 0.232773 73
-0.282782 3.880366 -0.367775 101
-0.418606 3.990102 -0.000700 79
-0.658816 3.881940 -0.288457 98
-0.807238 3.986193 0.085194 66
-0.037032 3.954930 -0.084229 100
-0.166644 4.073771 0.297263 72
-0.281641 3.873658 -0.307032 101
-0.417890 3.989712 0.060917 68
-0.560426 4.090432 0.439767 19
-0.660164 3.893835 -0.228413 80
-0.807008 3.988493 0.147793 56
-0.036992 4.022594 0.099719 100
-0.154087 3.782299 -0.691070 49
-0.285188 3.931547 -0.129388 100
-0.423131 4.046290 0.249544 53
-0.523631 3.826636 -0.410033 101
-0.669251 3.951452 -0.046867 100
-0.813615 4.024611 0.339020 63
-0.036336 4.024591 0.161651 74
-0.156309 3.852726 -0.431826 101
-0.286372 3.957047 -0.069251 100
-0.423248 4.053972 0.312916 65
-0.527018 3.856193 -0.352834 100
-0.667296 3.943919 0.014661 92
-0.036050 4.068423 0.354524 100
-0.156947 3.884489 -0.254811 100
-0.289955 4.015896 0.115279 66
-0.396752 3.806356 -0.561843 101
-0.535578 3.923722 -0.175672 91
-0.681130 4.029780 0.203460 63
-0.777739 3.853794 -0.402119 15
-0.157078 3.903934 -0.195874 100
-0.291131 4.041605 0.178335 83
-0.398865 3.832850 -0.416588 101
-0.533602 3.914137 -0.114483 79
-0.682513 4.042081 0.267245 60
-0.771134 3.824366 -0.338578 29
-0.032216 4.002325 -0.831929 13
-0.154822 3.910575 -0.135983 100
-0.287161 4.022652 0.239598 80
-0.396597 3.835056 -0.356986 101
-0.533942 3.935577 -0.054071 89
-0.679809 4.041927 0.330493 101
-0.769604 3.829509 -0.278621 61
-0.030040 3.811223 -0.434248 101
-0.155964 3.956184 -0.076713 100
-0.287609 4.038449 0.303000 82
-0.400158 3.875828 -0.300498 90
-0.536017 3.955844 0.006967 71
-0.773646 3.852959 -0.219713 43
-0.030017 3.891037 -0.262543 100
-0.157157 4.003488 0.107015 85
-0.268329 3.776662 -0.616212 101
-0.405013 3.929296 -0.122067 68
-0.544924 4.026644 0.194466 68
-0.644721 3.841173 -0.405935 100
-0.787546 3.925590 -0.039134 60
-0.029574 3.918582 -0.203998 100
-0.156872 4.013380 0.169041 88
-0.272403 3.843099 -0.423985 101
-0.405318 3.938722 -0.061510 76
-0.548598 4.058905 0.259122 62
-0.644374 3.843047 -0.345714 99
-0.792416 3.953302 0.022519 65
-0.029428 3.987821 -0.023665 84
-0.156630 4.024437 0.365112 101
-0.275664 3.898366 -0.248616 101
-0.412691 4.016972 0.123376 88
-0.654261 3.906020 -0.168069 87
-0.797770 3.983473 0.210067 63
-0.028904 4.007718 0.037774 98
-0.275810 3.909732 -0.188950 100
-0.412592 4.022632 0.185747 62
-0.512201 3.799202 -0.514913 101
-0.657915 3.931877 -0.107873 85
-0.799509 3.995627 0.273507 54
-0.028416 4.033679 0.224111 95
-0.148598 3.851243 -0.371787 100
-0.278844 3.962191 -0.008319 77
-0.414752 4.050375 0.408548 101
-0.516303 3.834475 -0.290917 84
-0.661335 3.956382 0.076320 92
-0.027988 4.069665 0.288868 87
-0.148461 3.864488 -0.313197 100
-0.279557 3.981847 0.052950 86
-0.527371 3.921639 -0.236472 85
-0.665010 3.982471 0.138880 81
-0.760028 3.804940 -0.466109 2
-0.024590 3.857291 -0.379578 100
-0.149423 3.941137 -0.015832 100
-0.282151 4.047888 0.385710 101
-0.394737 3.880560 -0.240620 86
-0.528917 3.948146 0.068140 77
-0.769188 3.860895 -0.159493 59
-0.023878 3.846725 -0.318968 100
-0.150112 3.976912 0.045151 86
-0.394818 3.887820 -0.180870 100
-0.531766 3.974470 0.130219 89
-0.632840 3.805505 -0.483929 100
-0.776736 3.902189 -0.100018 91
-0.023878 3.953271 -0.144963 100
-0.151909 4.042469 0.232543 69
-0.268408 3.869411 -0.366646 101
-0.403465 3.979600 -0.000698 70
-0.544531 4.075067 0.323565 46
-0.644607 3.880281 -0.288165 100
-0.794098 3.992909 0.085278 62
-0.023203 3.951036 -0.084144 96
-0.153019 4.090274 0.298426 75
-0.269219 3.890530 -0.308293 101
-0.403558 3.987167 0.060857 64
-0.547197 4.100248 0.440615 22
-0.645260 3.888236 -0.227951 100
-0.789186 3.971682 0.147067 52
-0.022927 4.018700 0.099620 100
-0.142347 3.822136 -0.698254 41
-0.271738 3.936507 -0.129519 100
-0.407399 4.031853 0.248564 54
-0.509219 3.820554 -0.409189 101
-0.654800 3.949818 -0.046821 98
-0.798785 4.023517 0.338691 84
-0.022265 4.020697 0.161490 74
-0.142565 3.845303 -0.430936 100
-0.272282 3.954032 -0.069181 101
-0.409895 4.063361 0.313528 56
-0.512503 3.850111 -0.352111 100
-0.653525 3.946225 0.014661 92
-0.021870 4.072509 0.354871 100
-0.142945 3.873047 -0.254026 100
-0.275387 4.008906 0.115050 74
-0.382670 3.799842 -0.560681 101
-0.520298 3.913684 -0.175140 100
-0.665103 4.020309 0.202863 68
-0.754999 3.809645 -0.397235 54
-0.143743 3.912444 -0.196274 100
-0.277021 4.042597 0.178335 85
-0.386279 3.842133 -0.417448 101
-0.523093 3.939757 -0.115178 78
-0.667748 4.040501 0.266985 57
-0.763972 3.858307 -0.341345 62
-0.018314 4.018077 -0.835185 13
-0.141168 3.911091 -0.135983 98
-0.272844 4.019647 0.239361 87
-0.384394 3.848307 -0.358092 101
-0.520199 3.937417 -0.054071 95
-0.665693 4.044276 0.330493 100
-0.754685 3.824343 -0.278051 76
-0.016804 3.827202 -0.436059 101
-0.142152 3.956704 -0.076713 100
-0.274317 4.051368 0.303896 89
-0.386229 3.873232 -0.300190 86
-0.524297 3.973553 0.006995 73
-0.757872 3.843882 -0.219044 44
-0.016400 3.883137 -0.262005 101
-0.143181 4.004012 0.107015 91
-0.255410 3.781515 -0.616855 101
-0.388918 3.906816 -0.121326 72
-0.529299 4.016638 0.193892 76
-0.632599 3.851252 -0.406764 101
-0.772291 3.920466 -0.039056 56
-0.942346 4.098064 0.355322 0
-0.015879 3.914667 -0.203790 101
-0.143005 4.017897 0.169209 76
-0.259788 3.855927 -0.425298 101
-0.392359 3.948073 -0.061634 70
-0.535469 4.068711 0.259627 66
-0.632246 3.853136 -0.346421 99
-0.776295 3.944269 0.022452 65
-0.015494 3.983900 -0.023641 100
-0.143428 4.048847 0.367279 101
-0.262591 3.907270 -0.249124 101
-0.398668 4.018388 0.123376 87
-0.641916 3.916167 -0.168408 96
-0.791569 4.025429 0.212132 71
-0.014827 3.983795 0.037548 85
-0.261361 3.898711 -0.188372 100
-0.396975 4.008142 0.185013 65
-0.497907 3.793105 -0.513848 100
-0.642896 3.926257 -0.107656 83
-0.791714 4.029722 0.275651 62
-0.014381 4.045735 0.224777 91
-0.135296 3.855718 -0.372172 100
-0.264748 3.959149 -0.008311 83
-0.400223 4.047836 0.408149 101
-0.502918 3.836253 -0.290917 89
-0.648814 3.966559 0.076472 83
-0.013786 4.069738 0.288868 72
-0.135113 3.868967 -0.313520 100
-0.264862 3.970826 0.052791 88
-0.512646 3.915538 -0.235994 97
-0.653042 3.996603 0.139292 70
-0.745216 3.799774 -0.465155 31
-0.011131 3.857353 -0.379578 100
-0.135809 3.945632 -0.015848 101
-0.267763 4.044874 0.385332 101
-0.382366 3.893834 -0.241359 77
-0.516690 3.961865 0.068345 76
-0.754945 3.859633 -0.159332 62
-0.010523 3.870702 -0.320952 101
-0.136373 3.981409 0.045196 88
-0.383981 3.917011 -0.182165 100
-0.520478 3.996123 0.130868 77
-0.620834 3.815525 -0.484925 100
-0.765418 3.916649 -0.100319 98
-0.921290 4.034288 0.285739 0
-0.010015 3.925349 -0.143936 101
-0.138077 4.050956 0.233003 75
-0.255693 3.882245 -0.367775 101
-0.389190 3.977002 -0.000697 73
-0.531854 4.088805 0.324507 43
-0.632347 3.890381 -0.288749 98
-0.776332 3.976030 0.084859 61
-0.009458 3.967089 -0.084484 100
-0.139156 4.102745 0.299299 75
-0.255907 3.895424 -0.308609 101
-0.390036 3.992531 0.060917 72
-0.531353 4.090299 0.439344 41
-0.632972 3.898347 -0.228413 100
-0.773796 3.966564 0.146776 62
-0.008909 4.018755 0.099620 100
-0.129943 3.850138 -0.703283 46
-0.256437 3.913495 -0.128732 100
-0.393333 4.033250 0.248564 61
-0.497937 3.838086 -0.410878 101
-0.641659 3.956026 -0.046867 93
-0.785508 4.030191 0.339020 100
-0.008225 4.012756 0.161169 72
-0.129152 3.845777 -0.430936 101
-0.257707 3.942986 -0.068972 100
-0.396880 4.076674 0.314447 62
-0.499583 3.855826 -0.352472 100
-0.639118 3.944532 0.014646 81
-0.007674 4.076546 0.355218 100
-0.129302 3.869533 -0.253764 100
-0.261143 4.005852 0.114936 72
-0.367884 3.785398 -0.558357 101
-0.505620 3.907548 -0.174786 96
-0.651715 4.026548 0.203062 63
-0.745508 3.831785 -0.399270 65
-0.130097 3.912921 -0.196274 96
-0.262662 4.039551 0.178159 78
-0.373645 3.851373 -0.418308 101
-0.504738 3.905869 -0.114136 80
-0.652379 4.034925 0.266465 53
-0.742908 3.821830 -0.337887 56
-0.004284 4.014201 -0.834371 14
-0.127905 3.923547 -0.136400 100
-0.259581 4.032528 0.240072 80
-0.370958 3.849625 -0.358092 101
-0.504412 3.923341 -0.053854 92
-0.652840 4.054448 0.331136 100
-0.744366 3.842623 -0.279190 96
-0.003427 3.807366 -0.433795 101
-0.128210 3.953179 -0.076635 98
-0.259662 4.044339 0.303299 80
-0.373470 3.882497 -0.300806 100
-0.508896 3.963457 0.006974 71
-0.747486 3.862188 -0.219937 55
-0.002849 3.887161 -0.262274 100
-0.128946 3.996494 0.106801 86
-0.242461 3.786324 -0.617497 101
-0.377571 3.932028 -0.122067 75
-0.514259 4.010536 0.193510 74
-0.617258 3.841652 -0.405520 101
-0.758601 3.923138 -0.039056 59
-0.920998 4.070229 0.352628 1
-0.002214 3.914699 -0.203790 100
-0.128851 4.014377 0.169041 76
-0.245313 3.840939 -0.423548 101
-0.377430 3.937475 -0.061448 83
-0.519742 4.058677 0.258869 61
-0.618161 3.851385 -0.346068 100
-0.759487 3.931246 0.022362 62
-0.001581 3.967930 -0.023546 98
-0.129294 4.049323 0.367279 101
-0.247936 3.892227 -0.248108 101
-0.382735 3.999855 0.122765 83
-0.625079 3.898654 -0.167560 89
-0.778270 4.032090 0.212339 79
-0.000925 3.999822 0.037699 97
-0.248004 3.903587 -0.188565 101
-0.383741 4.017459 0.185380 66
-0.486170 3.806618 -0.515446 101
-0.628555 3.924529 -0.107548 86
-0.783688 4.063812 0.277794 67
-0.000259 4.041767 0.224555 85
-0.121585 3.848207 -0.371403 101
-0.251432 3.968033 -0.008327 75
-0.387224 4.061095 0.409347 101
-0.488010 3.826116 -0.290018 91
-0.633069 3.956953 0.076244 85
0.000420 4.069761 0.288868 85
-0.121732 3.873400 -0.313843 100
-0.251504 3.979710 0.052897 81
-0.496957 3.901460 -0.235040 97
-0.635933 3.979121 0.138605 83
-0.737954 3.833551 -0.468971 49
0.002341 3.869311 -0.380753 100
-0.122653 3.966072 -0.015929 100
-0.254888 4.065655 0.387224 101
-0.367267 3.879246 -0.240374 83
-0.504871 3.979515 0.068619 86
-0.739961 3.854395 -0.159008 68
-0.892083 3.967091 0.218080 0
0.002992 3.874702 -0.321282 101
-0.122967 3.997852 0.045378 84
-0.369930 3.914349 -0.181980 100
-0.506526 3.997916 0.130868 89
-0.608136 3.821588 -0.485423 100
-0.749482 3.907515 -0.100018 100
-0.912451 4.060840 0.287392 2
0.003702 3.941350 -0.144523 100
-0.123692 4.043430 0.232543 75
-0.241396 3.871190 -0.366646 101
-0.375306 3.978337 -0.000697 66
-0.515076 4.070856 0.322938 39
-0.616258 3.876805 -0.287580 87
-0.755675 3.943366 0.084105 75
0.004363 3.943104 -0.083973 100
-0.124106 4.079280 0.297554 78
-0.241565 3.884354 -0.307663 101
-0.375722 3.989886 0.060857 73
-0.516075 4.084237 0.438496 40
-0.616856 3.884757 -0.227489 99
-0.767462 4.008502 0.148228 69
0.005119 4.018762 0.099620 100
-0.116622 3.854501 -0.704001 37
-0.244754 3.946288 -0.129782 101
-0.379625 4.038573 0.248809 57
-0.484536 3.839801 -0.410878 101
-0.629726 3.970093 -0.047008 93
-0.776678 4.060317 0.341324 101
0.005817 4.036741 0.162132 92
-0.115967 3.854151 -0.431826 100
-0.244436 3.951844 -0.069112 100
-0.381529 4.066123 0.313528 60
-0.487116 3.865452 -0.353195 100
-0.627223 3.958591 0.014690 92
0.006562 4.080533 0.355566 100
-0.116033 3.877940 -0.254287 100
-0.247158 4.006739 0.114936 70
-0.356513 3.806360 -0.561262 101
-0.493474 3.921184 -0.175317 94
-0.637032 4.024852 0.202863 73
-0.730635 3.826547 -0.398456 56
-0.115963 3.897378 -0.195473 98
-0.248559 4.040443 0.178159 81
-0.359829 3.848694 -0.417878 101
-0.493096 3.923476 -0.114599 72
-0.636420 4.025349 0.265684 54
-0.730309 3.828315 -0.338232 62
0.009756 4.025940 -0.836813 17
-0.113511 3.899994 -0.135567 100
-0.244776 4.021453 0.239361 92
-0.356414 3.838999 -0.356986 101
-0.492698 3.940953 -0.054071 95
-0.638063 4.052763 0.330815 101
-0.730948 3.845197 -0.279190 91
-0.887648 3.981178 0.093276 0
0.009946 3.839149 -0.437417 101
-0.114063 3.941610 -0.076403 98
-0.245302 4.041240 0.303000 82
-0.358444 3.867892 -0.299575 93
-0.494066 3.957271 0.006960 58
-0.734745 3.868697 -0.220160 57
-0.889174 3.991163 0.156369 1
0.010731 3.891138 -0.262543 100
-0.114994 3.996920 0.106801 86
-0.228289 3.771384 -0.614927 101
-0.362371 3.917397 -0.121573 81
-0.499762 4.008342 0.193319 79
-0.603844 3.843783 -0.405520 101
-0.741920 3.910044 -0.038899 78
-0.903320 4.057857 0.351281 36
0.011462 3.918677 -0.203998 100
-0.114608 4.006813 0.168705 85
-0.233102 3.861616 -0.425736 101
-0.362948 3.930803 -0.061324 77
-0.507051 4.072351 0.259627 55
-0.607184 3.869265 -0.347482 91
-0.751720 3.965313 0.022541 72
0.012307 3.979911 -0.023618 100
-0.114819 4.037803 0.366196 101
-0.235067 3.905023 -0.248870 101
-0.369137 4.005148 0.122887 90
-0.615180 3.924501 -0.168578 76
-0.767908 4.054407 0.213371 81
0.013063 4.007801 0.037774 91
-0.234376 3.904429 -0.188565 101
-0.370081 4.022753 0.185563 51
-0.471902 3.800423 -0.514381 101
-0.613615 3.918798 -0.107332 80
-0.765788 4.046916 0.276454 69
0.013891 4.053725 0.225220 91
-0.108375 3.856568 -0.372172 101
-0.237579 3.968887 -0.008327 77
-0.372318 4.054495 0.408548 101
-0.476124 3.839671 -0.290917 100
-0.621107 3.970992 0.076472 78
0.014583 4.057765 0.288019 84
-0.107988 3.865831 -0.313197 100
-0.237610 3.980564 0.052897 92
-0.484317 3.911096 -0.235517 100
-0.626359 4.008965 0.139567 72
-0.717197 3.797079 -0.464201 53
0.015831 3.865298 -0.380361 100
-0.108808 3.966476 -0.015929 100
-0.240224 4.058570 0.386467 101
-0.355535 3.900384 -0.241605 82
-0.488040 3.957437 0.068208 74
-0.726502 3.856954 -0.159008 85
-0.887720 4.013081 0.220436 4
0.016449 3.858722 -0.319960 101
-0.108575 3.982264 0.045196 90
-0.355902 3.911638 -0.181795 100
-0.491102 3.987756 0.130479 87
-0.592352 3.808001 -0.483431 100
-0.738796 3.925826 -0.100420 100
-0.889658 4.025036 0.284637 33
0.017460 3.941313 -0.144523 101
-0.109469 4.039845 0.232314 73
-0.227882 3.872009 -0.366646 101
-0.361416 3.979622 -0.000697 73
-0.502323 4.084502 0.323879 40
-0.603947 3.886817 -0.288165 92
-0.742644 3.949910 0.084189 86
0.018182 3.955061 -0.084229 100
-0.110510 4.103616 0.299299 68
-0.228706 3.897116 -0.308609 101
-0.362154 3.995157 0.060917 63
-0.499391 4.066274 0.436378 34
-0.602067 3.878994 -0.227027 100
-0.753465 4.011157 0.148228 77
0.019128 4.014721 0.099521 100
-0.106430 3.976825 -0.726270 24
-0.229810 3.927163 -0.129126 100
-0.364447 4.027945 0.248075 47
-0.469193 3.825676 -0.409189 101
-0.610348 3.936694 -0.046587 100
-0.760295 4.051249 0.340337 101
0.019809 4.016713 0.161330 80
-0.102512 3.854532 -0.431826 101
-0.229242 3.928718 -0.068693 100
-0.368768 4.083318 0.314753 66
-0.471683 3.851312 -0.351750 101
-0.612176 3.952850 0.014661 90
0.020786 4.076500 0.355218 100
-0.102601 3.882311 -0.254549 100
-0.233403 4.011569 0.115050 78
-0.343935 3.815465 -0.562424 101
-0.480753 3.930816 -0.175672 85
-0.624200 4.034948 0.203261 68
-0.715808 3.821252 -0.397642 68
-0.102672 3.909740 -0.196074 100
-0.234685 4.045276 0.178335 78
-0.346036 3.845966 -0.417448 101
-0.479882 3.929142 -0.114715 72
-0.624194 4.039381 0.266465 62
-0.711077 3.799504 -0.335466 56
-0.863642 3.926018 0.030169 0
0.023845 4.033714 -0.838441 18
-0.100521 3.924344 -0.136400 88
-0.231205 4.030255 0.239835 85
-0.344438 3.856088 -0.358461 101
-0.477502 3.930736 -0.053908 92
-0.622104 4.043142 0.329850 101
-0.720457 3.863413 -0.280328 100
-0.875470 3.992062 0.093459 1
0.023220 3.819220 -0.435153 101
-0.100513 3.949980 -0.076558 94
-0.230972 4.038089 0.302702 87
-0.346363 3.885009 -0.300806 88
-0.479293 3.951029 0.006946 73
-0.721974 3.875163 -0.220383 65
-0.874388 3.990337 0.156216 4
0.024236 3.879104 -0.261735 100
-0.101246 4.005291 0.107015 83
-0.214900 3.768216 -0.614284 101
-0.347988 3.910674 -0.121326 75
-0.485289 4.006095 0.193127 78
-0.593444 3.865529 -0.407593 101
-0.729733 3.920474 -0.038977 89
-0.888300 4.057091 0.350944 51
0.025091 3.910624 -0.203583 100
-0.100720 4.011184 0.168873 79
-0.218491 3.842558 -0.423548 101
-0.349577 3.936030 -0.061386 75
-0.489955 4.050317 0.258112 62
-0.590653 3.851669 -0.345714 93
-0.734947 3.952183 0.022452 84
0.026179 3.975844 -0.023594 100
-0.101016 4.050127 0.367279 101
-0.220977 3.897849 -0.248362 101
-0.355502 4.010396 0.123009 85
-0.600867 3.922675 -0.168408 92
-0.747908 4.025644 0.211719 89
0.027009 3.999731 0.037699 92
-0.220736 3.905224 -0.188565 101
-0.355323 4.016061 0.185196 68
-0.457675 3.794177 -0.513316 101
-0.599318 3.916965 -0.107223 92
-0.751647 4.049566 0.276454 72
0.027972 4.041670 0.224555 89
-0.095095 3.864884 -0.372940 100
-0.223711 3.969693 -0.008327 73
-0.356748 4.039913 0.406951 101
-0.462228 3.837351 -0.290618 99
-0.606624 3.969185 0.076396 78
0.028935 4.081628 0.289718 72
-0.094574 3.870170 -0.313520 100
-0.223697 3.981370 0.052897 86
-0.471121 3.916729 -0.235756 94
-0.611137 4.003225 0.139292 68
-0.703198 3.795658 -0.463724 46
0.029321 3.861238 -0.379970 100
-0.094454 3.946838 -0.015848 100
-0.225139 4.043482 0.384953 101
-0.341541 3.897627 -0.241359 74
-0.473718 3.955149 0.068140 69
-0.713006 3.859472 -0.159008 92
-0.863488 3.969326 0.217866 53
0.029951 3.858641 -0.319960 101
-0.094640 3.982619 0.045196 90
-0.341168 3.900917 -0.181240 100
-0.476196 3.981510 0.130219 91
-0.579024 3.810050 -0.483431 100
-0.722877 3.916590 -0.100118 100
-0.873026 4.016426 0.283810 42
0.031255 3.941227 -0.144523 100
-0.095705 4.056173 0.233232 69
-0.214328 3.872783 -0.366646 100
-0.347833 3.984848 -0.000698 56
-0.487551 4.082276 0.323565 45
-0.589740 3.884963 -0.287873 100
-0.728814 3.952486 0.084189 92
0.032029 3.954973 -0.084229 99
-0.096049 4.099989 0.299008 70
-0.214401 3.885948 -0.307663 101
-0.346775 3.980463 0.060674 71
-0.483267 4.052199 0.434683 25
-0.591476 3.900820 -0.228182 99
-0.739417 4.013770 0.148228 82
0.033287 4.026626 0.099818 98
-0.094515 4.063720 -0.742074 13
-0.216055 3.927944 -0.129126 101
-0.350684 4.033174 0.248319 56
-0.458614 3.850994 -0.411722 101
-0.599553 3.958580 -0.046821 96
-0.746824 4.057807 0.340666 101
0.033880 4.016619 0.161330 88
-0.088825 3.846919 -0.430936 101
-0.216354 3.945471 -0.068972 100
-0.352048 4.056771 0.312610 67
-0.458659 3.856896 -0.352111 101
-0.596530 3.943106 0.014617 94
0.035139 4.084372 0.355913 100
-0.089363 3.898609 -0.255595 100
-0.219781 4.020347 0.115279 78
-0.330222 3.812704 -0.561843 101
-0.466505 3.928508 -0.175495 82
-0.609460 4.033160 0.203062 67
-0.696662 3.792426 -0.394386 61
-0.846302 3.909320 -0.031416 0
-0.089149 3.918064 -0.196475 96
-0.220287 4.042083 0.178159 79
-0.332553 3.847155 -0.417448 101
-0.464694 3.918888 -0.114367 78
-0.608840 4.033650 0.265944 59
-0.702790 3.829410 -0.337887 57
-0.851566 3.936839 0.030230 2
0.037925 4.033606 -0.838441 14
-0.086645 3.916677 -0.136122 100
-0.216705 4.023064 0.239361 97
-0.330295 3.849330 -0.357724 101
-0.466121 3.952239 -0.054180 100
-0.608580 4.049232 0.330172 101
-0.704096 3.850205 -0.279190 100
-0.855629 3.967730 0.092819 25
0.036589 3.823089 -0.435606 101
-0.086900 3.958303 -0.076713 98
-0.217517 4.050819 0.303597 82
-0.331779 3.874273 -0.299883 100
-0.465966 3.956650 0.006953 90
-0.707725 3.873731 -0.220160 79
-0.856244 3.973828 0.155452 59
0.037738 3.875005 -0.261466 101
-0.087091 3.997625 0.106801 93
-0.202378 3.780770 -0.616212 101
-0.334335 3.911865 -0.121326 79
-0.473635 4.027605 0.194083 68
-0.576997 3.847905 -0.405520 101
-0.715325 3.919062 -0.038938 100
-0.873294 4.056270 0.350607 59
0.038742 3.910513 -0.203583 100
-0.086545 4.003520 0.168537 79
-0.204653 3.835357 -0.422673 101
-0.335836 3.937226 -0.061386 75
-0.476279 4.055967 0.258364 61
-0.576024 3.845827 -0.345007 100
-0.721865 3.958659 0.022474 99
0.039936 3.963729 -0.023523 100
-0.086536 4.034523 0.365835 101
-0.206946 3.890624 -0.247854 101
-0.340822 4.003644 0.122765 78
-0.583622 3.901034 -0.167390 91
-0.734567 4.032160 0.211926 96
0.040847 3.987614 0.037585 86
-0.207315 3.909961 -0.188758 101
-0.342317 4.029221 0.185747 58
-0.444889 3.799689 -0.513848 101
-0.587414 3.930897 -0.107548 80
-0.734648 4.036459 0.275383 71
0.041872 4.021580 0.223445 100
-0.081519 3.861212 -0.372556 100
-0.209641 3.966455 -0.008319 79
-0.341972 4.033202 0.406152 101
-0.448367 3.834979 -0.290318 89
-0.591585 3.963367 0.076244 89
-0.832763 3.880700 -0.153169 0
0.043098 4.073523 0.289152 84
-0.081064 3.870477 -0.313520 100
-0.210008 3.986120 0.052950 86
-0.457909 3.922316 -0.235994 91
-0.597160 4.005334 0.139292 72
-0.687105 3.782459 -0.461815 51
-0.850111 3.964793 -0.094143 0
0.042800 3.861113 -0.379970 100
-0.080840 3.955142 -0.015880 101
-0.211646 4.056173 0.386089 101
-0.327933 3.898795 -0.241359 97
-0.461756 3.972669 0.068414 69
-0.700242 3.865870 -0.159170 98
-0.849627 3.972316 0.217866 44
0.043196 3.838583 -0.318307 100
-0.080737 3.982925 0.045196 86
-0.327883 3.906066 -0.181425 93
-0.461834 3.979177 0.130089 81
-0.565138 3.808122 -0.482934 100
-0.710625 3.926960 -0.100319 98
-0.859001 4.019449 0.283810 47
0.044875 3.929103 -0.144083 101
-0.081305 4.044505 0.232543 81
-0.200808 3.873508 -0.366646 101
-0.334923 3.997996 -0.000700 67
-0.473757 4.087914 0.323879 48
-0.577345 3.894890 -0.288457 100
-0.716436 3.962876 0.084356 84
0.045881 3.958837 -0.084314 90
-0.081578 4.092322 0.298426 78
-0.201864 3.906584 -0.309239 101
-0.332879 3.981649 0.060674 64
-0.469119 4.053862 0.434683 40
-0.575516 3.887059 -0.227258 100
-0.721849 3.996658 0.147502 81
0.047248 4.018488 0.099620 85
-0.080563 4.075827 -0.744230 20
-0.202548 3.932667 -0.129257 100
-0.336271 4.030395 0.248075 50
-0.444713 3.848620 -0.411300 101
-0.585146 3.956693 -0.046774 100
-0.731239 4.052544 0.340007 101
0.048091 4.032462 0.161972 80
-0.075786 3.867078 -0.433162 100
-0.202990 3.954190 -0.069112 100
-0.339540 4.077848 0.314141 61
-0.445650 3.862431 -0.352472 100
-0.583347 3.949121 0.014631 87
-0.822138 3.859665 -0.213031 0
0.049396 4.084224 0.355913 100
-0.075521 3.886925 -0.254811 100
-0.205542 4.017097 0.115165 71
-0.317894 3.825665 -0.563586 101
-0.452332 3.926143 -0.175317 85
-0.593046 4.019454 0.202267 65
-0.686241 3.810500 -0.396014 66
-0.841810 3.955285 -0.031761 21
-0.075472 3.918351 -0.196475 96
-0.205973 4.038836 0.177983 79
-0.317150 3.824513 -0.414868 101
-0.451469 3.924458 -0.114483 72
-0.593593 4.027853 0.265424 74
-0.691536 3.843606 -0.338924 72
-0.841147 3.955438 0.030350 47
0.052510 4.072609 -0.846581 14
-0.073048 3.920953 -0.136261 100
-0.203063 4.031771 0.239835 80
-0.317183 3.854429 -0.358092 101
-0.451413 3.945895 -0.054071 89
-0.594442 4.051332 0.330172 101
-0.692764 3.864421 -0.280044 100
-0.830992 3.919837 0.091630 48
0.049934 3.822938 -0.435606 101
-0.072787 3.942588 -0.076403 100
-0.202776 4.039603 0.302702 84
-0.318253 3.875408 -0.299883 100
-0.452606 3.962227 0.006960 71
-0.697719 3.895834 -0.221276 82
-0.840711 3.968971 0.155146 62
0.051317 3.878841 -0.261735 100
-0.073063 3.993907 0.106695 88
-0.189377 3.785397 -0.616855 101
-0.320352 3.909023 -0.121202 76
-0.456857 4.005415 0.192936 79
-0.562986 3.845959 -0.405105 101
-0.703050 3.929410 -0.039017 100
-0.855828 4.043696 0.349260 67
0.052392 3.910354 -0.203583 100
-0.072642 4.007793 0.168705 77
-0.191462 3.840019 -0.423110 101
-0.322090 3.938375 -0.061386 81
-0.463925 4.073471 0.259375 59
-0.562596 3.847814 -0.345007 100
-0.708746 3.965092 0.022496 84
0.054151 3.991562 -0.023689 100
-0.072524 4.038784 0.366196 101
-0.193364 3.891323 -0.247854 100
-0.328146 4.020749 0.123253 80
-0.570002 3.903048 -0.167390 99
-0.716274 4.011105 0.210686 84
0.054766 3.987447 0.037585 92
-0.193072 3.898689 -0.188180 101
-0.327277 4.018444 0.185196 62
-0.431623 3.801219 -0.513848 101
-0.571380 3.917097 -0.107115 83
-0.719152 4.031141 0.274847 71
0.056409 4.057350 0.225442 89
-0.068111 3.865454 -0.372940 101
-0.196583 3.983143 -0.008352 81
-0.330148 4.062140 0.408948 101
-0.436775 3.852375 -0.291517 95
-0.578323 3.969365 0.076320 92
-0.825811 3.914871 -0.154403 2
0.057542 4.089306 0.290284 86
-0.067622 3.874722 -0.313843 100
-0.196486 3.994819 0.053056 81
-0.443766 3.919923 -0.235756 100
-0.582599 4.003438 0.139155 70
-0.682948 3.835664 -0.468017 62
-0.826369 3.920781 -0.093029 30
0.056393 3.868901 -0.380753 100
-0.067101 3.959399 -0.015896 100
-0.197293 4.052910 0.385710 101
-0.313360 3.887978 -0.240620 86
-0.446542 3.962334 0.068208 72
-0.689538 3.884032 -0.159817 96
-0.840686 3.998710 0.219151 58
0.057006 3.866310 -0.320621 101
-0.066901 3.987182 0.045241 86
-0.314247 3.907187 -0.181425 100
-0.448388 3.984738 0.130219 89
-0.551842 3.810072 -0.482934 100
-0.696913 3.929416 -0.100319 98
-0.844145 4.018517 0.283534 38
0.058769 3.940913 -0.144523 100
-0.067054 4.036778 0.232084 78
-0.187094 3.870208 -0.366270 101
-0.320325 3.991166 -0.000699 72
-0.458594 4.081617 0.323251 59
-0.563175 3.892933 -0.288165 100
-0.703296 3.969291 0.084440 92
0.059760 3.962651 -0.084399 94
-0.067292 4.092582 0.298426 70
-0.187459 3.891333 -0.307978 101
-0.318659 3.978800 0.060614 67
-0.458957 4.091049 0.438496 42
-0.564229 3.904854 -0.228182 100
-0.709287 4.007025 0.147793 87
0.061092 4.006303 0.099323 100
-0.066207 4.068215 -0.742793 20
-0.188628 3.929356 -0.129126 100
-0.321883 4.027565 0.247830 55
-0.429505 3.834337 -0.409611 101
-0.571331 3.958711 -0.046774 91
-0.715006 4.043295 0.339020 101
-0.807725 3.854811 -0.273336 0
0.061982 4.020280 0.161490 74
-0.061967 3.847446 -0.430936 101
-0.188231 3.934900 -0.068762 101
-0.323401 4.055154 0.312304 59
-0.429508 3.840209 -0.350306 101
-0.568988 3.947174 0.014617 81
-0.810297 3.870330 -0.213462 2
0.063714 4.088011 0.356260 100
-0.062270 3.907119 -0.256119 100
-0.191518 4.017790 0.115165 83
-0.303282 3.810971 -0.561262 101
-0.439511 3.935640 -0.175672 100
-0.581289 4.037317 0.203062 57
-0.675702 3.828547 -0.397642 87
-0.814076 3.891643 -0.031227 52
-0.061542 3.902613 -0.195674 98
-0.191874 4.039531 0.177983 81
-0.306002 3.853347 -0.417878 101
-0.436438 3.914089 -0.114136 76
-0.578961 4.025949 0.265163 65
-0.678807 3.849921 -0.339270 87
-0.821607 3.930943 0.030139 52
0.066586 4.064569 -0.844953 16
-0.059250 3.913190 -0.135983 100
-0.188812 4.028467 0.239598 75
-0.302486 3.839629 -0.356617 93
-0.438969 3.959371 -0.054235 83
-0.582002 4.065221 0.331136 101
-0.678590 3.862884 -0.279759 100
-0.819762 3.934456 0.091905 49
0.063272 3.822741 -0.435606 101
-0.059390 3.966811 -0.076868 92
-0.189425 4.056223 0.303896 84
-0.305042 3.880471 -0.300190 93
-0.439219 3.967758 0.006967 64
-0.683432 3.894311 -0.221053 92
-0.830931 3.991446 0.155911 66
0.064854 3.878638 -0.261735 100
-0.059242 4.002134 0.106908 93
-0.176165 3.786034 -0.616855 101
-0.307332 3.918089 -0.121449 72
-0.445509 4.030813 0.194083 65
-0.548435 3.840024 -0.404276 101
-0.689332 3.931840 -0.039017 100
-0.841711 4.046659 0.349260 61
0.066110 3.914141 -0.203790 100
-0.058767 4.016015 0.169041 74
-0.178424 3.848607 -0.423985 101
-0.307715 3.931500 -0.061261 86
-0.449264 4.071097 0.259122 59
-0.548597 3.845810 -0.344654 99
-0.693519 3.959662 0.022452 74
0.067749 3.971352 -0.023570 100
-0.058074 4.015113 0.364029 101
-0.180695 3.911913 -0.249124 101
-0.314103 4.021871 0.123253 87
-0.559187 3.924797 -0.168238 90
-0.702951 4.017517 0.210893 93
0.068901 3.999229 0.037699 93
-0.179453 3.899340 -0.188180 100
-0.313549 4.023546 0.185380 58
-0.418342 3.802703 -0.513848 101
-0.558821 3.926986 -0.107332 83
-0.707816 4.049354 0.275918 72
0.070238 4.037162 0.224333 89
-0.054379 3.849744 -0.371403 101
-0.181748 3.963827 -0.008311 78
-0.316878 4.075173 0.410146 101
-0.420263 3.826123 -0.289418 97
-0.562199 3.955524 0.076016 89
-0.804014 3.878594 -0.152861 30
0.071764 4.085091 0.290001 87
-0.054246 3.886895 -0.314811 100
-0.182705 3.999477 0.053110 90
-0.431368 3.933357 -0.236472 100
-0.571413 4.025240 0.139842 72
-0.670220 3.841940 -0.468494 73
-0.812660 3.923645 -0.093029 54
0.069711 3.856739 -0.379578 100
-0.053250 3.959610 -0.015896 100
-0.182575 4.041641 0.384575 101
-0.300371 3.897012 -0.241113 85
-0.433112 3.967848 0.068277 75
-0.673207 3.870669 -0.159170 98
-0.827501 4.005538 0.219365 56
0.070462 3.862101 -0.320290 101
-0.053002 3.991391 0.045287 95
-0.301798 3.924198 -0.182165 98
-0.434875 3.990257 0.130349 89
-0.539061 3.815909 -0.483431 100
-0.683844 3.935771 -0.100420 100
-0.825238 3.997998 0.281881 50
0.072710 3.948676 -0.144816 100
-0.053133 4.052960 0.233003 71
-0.174081 3.882773 -0.367399 101
-0.305741 3.984286 -0.000697 64
-0.445168 4.091126 0.323879 58
-0.547873 3.883030 -0.287288 92
-0.690083 3.975668 0.084524 85
0.073634 3.962417 -0.084399 90
-0.052963 4.092793 0.298426 68
-0.174011 3.895949 -0.308293 100
-0.305948 3.995842 0.060857 60
-0.446349 4.108448 0.440191 57
-0.548882 3.894943 -0.227489 96
-0.694570 4.005546 0.147648 91
0.075048 4.002067 0.099224 90
-0.051758 4.052683 -0.739919 15
-0.174865 3.929993 -0.129126 100
-0.307775 4.028667 0.247830 62
-0.416073 3.835818 -0.409611 101
-0.556348 3.952766 -0.046680 89
-0.701521 4.049702 0.339349 101
-0.793415 3.853708 -0.273059 2
0.076217 4.028031 0.161811 80
-0.048738 3.867513 -0.433162 100
-0.175330 3.955513 -0.069112 101
-0.309799 4.064216 0.312916 67
-0.417768 3.857533 -0.351750 101
-0.554043 3.941221 0.014587 81
-0.799148 3.884881 -0.214109 37
0.077887 4.079794 0.355566 100
-0.048529 3.903322 -0.255857 100
-0.177261 4.014441 0.115050 81
-0.289625 3.808064 -0.560681 101
-0.425287 3.933183 -0.175495 87
-0.564915 4.023504 0.202267 58
-0.664315 3.842654 -0.398863 100
-0.806070 3.921897 -0.031447 69
-0.048009 3.914789 -0.196274 100
-0.177888 4.044171 0.178159 83
-0.292192 3.850431 -0.417448 101
-0.424432 3.931496 -0.114599 68
-0.564845 4.027954 0.265163 59
-0.663273 3.840496 -0.338232 100
-0.805409 3.922044 0.030049 56
0.081630 4.107383 -0.853907 19
-0.045637 3.917370 -0.136122 98
-0.174922 4.033090 0.239835 73
-0.289081 3.840662 -0.356617 100
-0.422158 3.933042 -0.053854 80
-0.566155 4.055382 0.330172 101
-0.664426 3.861297 -0.279474 100
-0.809231 3.952964 0.092270 53
0.076615 3.822497 -0.435606 101
-0.045451 3.958996 -0.076713 88
-0.175265 4.056860 0.303896 85
-0.290599 3.869581 -0.299268 100
-0.424940 3.965290 0.006960 75
-0.668481 3.888801 -0.220607 90
-0.817794 3.998239 0.156064 58
0.078554 3.886368 -0.262274 100
-0.045226 3.998318 0.106801 91
-0.163118 3.790571 -0.617497 101
-0.293355 3.915151 -0.121326 70
-0.429736 4.016453 0.193319 78
-0.536125 3.849795 -0.405105 101
-0.674249 3.926338 -0.038938 100
-0.821994 4.022236 0.346902 62
0.079610 3.905899 -0.203375 101
-0.044659 4.008203 0.168705 81
-0.164648 3.841262 -0.423110 101
-0.293393 3.924574 -0.061137 82
-0.432506 4.048824 0.257607 62
-0.534072 3.839809 -0.343947 100
-0.679017 3.958117 0.022429 90
0.082022 3.991087 -0.023689 96
-0.044234 4.031225 0.365473 101
-0.167039 3.912520 -0.249124 100
-0.299765 4.018956 0.123131 85
-0.543284 3.910891 -0.167560 83
-0.689598 4.023883 0.211099 86
-0.779663 3.821695 -0.391376 1
0.082778 3.994965 0.037661 92
-0.165331 3.887967 -0.187602 101
-0.299502 4.024616 0.185380 68
-0.404646 3.800198 -0.513316 101
-0.542912 3.913071 -0.106899 92
-0.690983 4.036065 0.274847 65
-0.788085 3.866319 -0.334808 4
0.084831 4.060850 0.225664 83
-0.041025 3.857873 -0.372172 101
-0.168419 3.976426 -0.008336 80
-0.302062 4.068316 0.409347 101
-0.407327 3.831533 -0.289718 93
-0.550035 3.969347 0.076244 89
-0.794459 3.900960 -0.153632 63
0.085351 4.052903 0.287736 86
-0.040469 3.867127 -0.313197 100
-0.168237 3.988102 0.052950 83
-0.415529 3.914986 -0.235279 91
-0.554618 4.007411 0.139155 70
-0.654130 3.828597 -0.466586 79
-0.798959 3.926458 -0.093029 59
0.083345 3.864432 -0.380361 100
-0.039508 3.967771 -0.015929 100
-0.169295 4.062147 0.386467 100
-0.287352 3.905999 -0.241605 100
-0.419259 3.969336 0.068277 71
-0.660363 3.876936 -0.159332 100
-0.811131 3.996659 0.218723 61
0.083943 3.861832 -0.320290 101
-0.038952 3.979553 0.045151 88
-0.286051 3.897333 -0.180870 100
-0.420525 3.987775 0.130219 82
-0.525197 3.813836 -0.482934 100
-0.664735 3.906597 -0.099616 101
-0.810484 3.996943 0.281606 54
0.086405 3.944402 -0.144669 100
-0.038909 4.045135 0.232543 81
-0.160362 3.879379 -0.367022 101
-0.290955 3.973361 -0.000695 67
-0.430884 4.092655 0.323879 65
-0.535946 3.896775 -0.288165 100
-0.674860 3.970168 0.084356 90
0.087288 3.954140 -0.084229 96
-0.038638 4.088964 0.298136 82
-0.159591 3.876612 -0.306717 101
-0.292289 4.000875 0.060917 65
-0.432837 4.117892 0.441038 55
-0.535282 3.896835 -0.227489 96
-0.676569 3.984300 0.146776 86
0.089284 4.013774 0.099521 93
-0.037428 4.033165 -0.736327 23
-0.160982 3.926585 -0.128994 100
-0.294291 4.037681 0.248319 60
-0.402266 3.833291 -0.409189 101
-0.543634 3.962610 -0.046774 93
-0.686714 4.048196 0.339020 101
-0.779167 3.852543 -0.272783 38
0.090546 4.039728 0.162293 87
-0.035057 3.847785 -0.430936 100
-0.161195 3.948109 -0.068972 100
-0.296478 4.077206 0.313835 66
-0.404300 3.858967 -0.351750 101
-0.541368 3.951057 0.014617 79
-0.783209 3.875902 -0.213462 71
0.092308 4.087465 0.356260 100
-0.034796 3.891494 -0.255072 100
-0.163410 4.019031 0.115165 74
-0.276904 3.816947 -0.561843 101
-0.409893 3.918746 -0.174786 84
-0.553576 4.045242 0.203261 63
-0.652226 3.852797 -0.399677 100
-0.786043 3.893321 -0.031196 79
-0.034238 3.902948 -0.195674 100
-0.163932 4.048760 0.178335 86
-0.277889 3.839528 -0.416158 101
-0.408629 3.913070 -0.114020 75
-0.552403 4.041766 0.265944 59
-0.651856 3.854576 -0.339270 100
-0.794086 3.936594 0.030139 59
-0.031897 3.909511 -0.135844 100
-0.160683 4.029686 0.239598 63
-0.275958 3.845620 -0.356986 101
-0.408839 3.938470 -0.053908 77
-0.554145 4.073136 0.331458 101
-0.647629 3.843921 -0.278051 100
-0.794639 3.951844 0.092179 45
0.090145 3.830153 -0.436512 101
-0.031504 3.943134 -0.076403 100
-0.160311 4.037519 0.302403 84
-0.277660 3.878527 -0.299883 100
-0.410684 3.962770 0.006953 71
-0.653576 3.883234 -0.220160 94
-0.795960 3.961881 0.154535 56
0.092214 3.890060 -0.262543 100
-0.031394 4.014445 0.107229 100
-0.149729 3.787172 -0.616855 101
-0.280826 3.932103 -0.121820 56
-0.416535 4.025877 0.193701 73
-0.524289 3.863470 -0.406349 101
-0.662529 3.940501 -0.039056 100
-0.814224 4.056344 0.349597 77
0.093434 3.913584 -0.203790 101
-0.030729 4.016327 0.169041 76
-0.151082 3.837840 -0.422673 101
-0.281398 3.949510 -0.061510 64
-0.418781 4.054280 0.257859 64
-0.522806 3.857443 -0.345361 100
-0.662546 3.944684 0.022340 89
0.095857 3.986778 -0.023665 100
-0.030072 4.019404 0.364390 101
-0.153380 3.913079 -0.249124 101
-0.286301 4.027954 0.123376 83
-0.528021 3.900883 -0.167051 93
-0.676209 4.030205 0.211306 82
-0.762408 3.804881 -0.389379 44
0.097110 4.010646 0.037812 90
-0.152849 3.916467 -0.188950 100
-0.286017 4.033608 0.185747 56
-0.391379 3.801587 -0.513316 101
-0.531392 3.930792 -0.107332 86
-0.680189 4.058133 0.276186 76
-0.770673 3.849506 -0.333117 51
0.098421 4.036573 0.224333 81
-0.027587 3.861974 -0.372556 100
-0.154227 3.968996 -0.008319 82
-0.287017 4.057435 0.408149 101
-0.394358 3.836899 -0.290018 88
-0.535641 3.967279 0.076168 87
-0.776133 3.880193 -0.152706 57
0.099987 4.072524 0.289152 94
-0.026998 3.871231 -0.313520 100
-0.154315 3.988665 0.052950 92
-0.403083 3.928329 -0.235994 97
-0.540092 4.005360 0.139017 62
-0.642727 3.842608 -0.468017 84
-0.786816 3.937066 -0.093215 65
0.096933 3.868097 -0.380753 100
-0.025554 3.951885 -0.015864 100
-0.155266 4.066692 0.386846 101
-0.272041 3.883083 -0.240128 92
-0.404995 3.966796 0.068208 78
-0.647483 3.883159 -0.159493 90
-0.790148 3.964211 0.216795 60
0.097925 3.881440 -0.321943 101
-0.025136 3.991664 0.045287 86
-0.272724 3.902294 -0.181055 100
-0.407818 4.001150 0.130609 85
-0.513992 3.831380 -0.484925 100
-0.655036 3.932560 -0.100219 100
-0.807439 4.054539 0.285463 63
0.100173 3.944077 -0.144669 100
-0.024813 4.049239 0.232773 78
-0.146368 3.867977 -0.365893 101
-0.277084 3.974353 -0.000695 67
-0.415788 4.086200 0.323251 60
-0.521281 3.890714 -0.287580 100
-0.661654 3.976444 0.084440 84
0.101295 3.961807 -0.084399 100
-0.024412 4.097052 0.298717 77
-0.146508 3.889100 -0.307663 101
-0.277212 3.985911 0.060674 70
-0.418862 4.123335 0.441462 66
-0.523266 3.910554 -0.228182 100
-0.663968 3.994524 0.147067 90
-0.753746 3.791621 -0.450709 35
0.103706 4.029428 0.099918 98
-0.023327 4.029336 -0.735609 26
-0.147724 3.939108 -0.129388 100
-0.280471 4.042666 0.248564 58
-0.389685 3.842587 -0.410033 101
-0.528739 3.956554 -0.046680 97
-0.671273 4.042703 0.338362 101
-0.767269 3.863067 -0.273336 49
0.104439 4.031396 0.161972 63
-0.021670 3.855834 -0.431826 101
-0.147562 3.952644 -0.069042 100
-0.281694 4.070259 0.313222 51
-0.390827 3.860355 -0.351750 101
-0.527044 3.948958 0.014602 87
-0.767342 3.866859 -0.212815 68
0.106471 4.083135 0.355913 100
-0.021147 3.879618 -0.254287 100
-0.149231 4.015581 0.115050 76
-0.263306 3.813942 -0.561262 101
-0.396211 3.920153 -0.174786 98
-0.536813 4.027349 0.202267 62
-0.634871 3.831496 -0.397235 101
-0.775559 3.911735 -0.031321 95
-0.020677 3.915029 -0.196274 94
-0.149798 4.049308 0.178335 85
-0.265304 3.852377 -0.417448 101
-0.395369 3.918451 -0.114136 65
-0.536711 4.031799 0.265163 67
-0.637096 3.848965 -0.338578 101
-0.780340 3.939342 0.030139 52
-0.018211 3.905601 -0.135706 100
-0.146159 4.018253 0.238886 84
-0.262512 3.846561 -0.356986 101
-0.395866 3.947834 -0.054017 86
-0.537284 4.055285 0.329850 101
-0.634187 3.846162 -0.278051 100
-0.777721 3.938905 0.091813 51
0.102775 3.802004 -0.433342 101
-0.017745 3.947219 -0.076480 94
-0.146492 4.046027 0.303000 80
-0.263836 3.875495 -0.299575 100
