# This PCD file was generated using the MATLAB® pcwrite function
# from Computer Vision Toolbox®.
# .PCD v.7 - Point Cloud Data file format
VERSION .7
FIELDS x y z intensity
SIZE 4 4 4 1
TYPE F F F U
COUNT 1 1 1 1
WIDTH 1498
HEIGHT 1
VIEWPOINT 0 0 0 1 0 0 0
POINTS 1498
DATA ascii
-1.131213 9.256870 -0.341959 51
-1.130669 9.265148 -0.198777 31
-1.145009 9.395580 0.234628 62
-1.148196 9.434727 0.381734 100
-1.405111 9.144830 -0.606418 23
-1.403634 9.145291 -0.463849 36
-1.411019 9.235191 -0.324610 51
-1.415507 9.274845 -0.181786 53
-1.100987 9.149040 -0.621756 66
-1.430005 9.380240 0.253440 53
-1.106202 9.205217 -0.482651 47
-1.117594 9.313017 -0.055662 33
-1.117451 9.324866 0.088516 101
-1.381878 9.104982 -0.888372 16
-1.723882 9.350395 -0.019913 6
-1.384645 9.133395 -0.748121 101
-1.710595 9.286942 0.125266 36
-1.402547 9.282563 -0.037686 101
-1.084228 9.124274 -0.761888 21
-1.411677 9.353462 0.107318 44
-1.097952 9.252824 -0.341666 53
-1.095968 9.249182 -0.198351 37
-1.112675 9.403491 0.234727 64
-1.114317 9.430739 0.381413 100
-1.372589 9.145731 -0.606156 25
-1.378217 9.193594 -0.466052 39
-1.375891 9.220282 -0.323915 55
-1.383166 9.279723 -0.181786 56
-1.068597 9.148862 -0.621487 71
-1.396680 9.381218 0.253333 59
-1.071740 9.189185 -0.481611 45
-1.083192 9.300973 -0.055567 39
-1.087605 9.352555 0.088742 101
-1.348834 9.101887 -0.887604 90
-1.677626 9.281584 -0.019754 55
-1.345053 9.086917 -0.743923 100
-1.678053 9.292878 0.125266 30
-1.368777 9.279517 -0.037654 101
-1.052158 9.128028 -0.761888 23
-1.376467 9.342537 0.107136 42
-1.064032 9.244715 -0.341226 58
-1.065689 9.272847 -0.198777 32
-1.079088 9.403379 0.234628 61
-1.075149 9.382988 0.379326 100
-1.660500 9.266973 -0.164332 4
-1.342627 9.166314 -0.607203 33
-1.346903 9.206309 -0.466452 48
-1.347155 9.248763 -0.324749 54
-1.347310 9.260749 -0.181321 57
-1.036655 9.152536 -0.621487 53
-1.363350 9.382079 0.253226 64
-1.038759 9.184932 -0.481195 48
-1.052963 9.324571 -0.055685 34
-1.054503 9.352321 0.088705 100
-1.311925 9.071074 -0.884147 98
-1.638938 9.251936 -0.019679 50
-1.311046 9.075773 -0.742632 100
-1.643514 9.286863 0.125107 26
-1.058032 9.455034 -0.936214 0
-1.335807 9.280279 -0.037638 101
-1.018961 9.119760 -0.760896 21
-1.343847 9.347285 0.107136 44
-1.030426 9.236454 -0.340786 58
-1.031544 9.260612 -0.198436 36
-1.045816 9.403114 0.234529 59
-1.044154 9.402574 0.379968 100
-1.626068 9.260896 -0.164122 67
-1.308928 9.159091 -0.606418 27
-1.314194 9.207000 -0.466252 50
-1.311488 9.229662 -0.323915 54
-1.035476 9.421947 -1.079959 9
-1.318348 9.289153 -0.181786 52
-1.004265 9.152132 -0.621217 69
-1.330031 9.382822 0.253119 68
-1.007562 9.196444 -0.481611 48
-1.017363 9.300356 -0.055519 37
-1.019246 9.332088 0.088479 101
-1.278028 9.059829 -0.882611 90
-1.607316 9.261541 -0.019687 59
-1.280470 9.088190 -0.743277 101
-1.615869 9.320130 0.125479 26
-1.026308 9.470543 -0.937389 10
-1.302848 9.280924 -0.037622 101
-0.986263 9.115335 -0.760235 19
-1.310655 9.347958 0.107091 46
-0.999896 9.255892 -0.341373 59
-0.997496 9.248253 -0.198095 37
-1.012558 9.402732 0.234430 61
-1.589248 9.231151 -0.307461 35
-1.014745 9.437952 0.381252 100
-1.593053 9.262573 -0.164053 72
-1.277500 9.167558 -0.606679 33
-1.282048 9.211532 -0.466252 52
-1.280257 9.230010 -0.323777 53
-0.998710 9.373959 -1.074072 12
-1.284201 9.269711 -0.181321 51
-0.973472 9.151445 -0.620948 63
-1.298345 9.383223 0.253013 62
-0.977069 9.199733 -0.481611 43
-0.985287 9.291742 -0.055448 37
-0.988356 9.335409 0.088479 101
-1.254581 9.111338 -0.887220 49
-1.580037 9.286522 -0.019729 76
-1.255325 9.127919 -0.746183 101
-1.589089 9.349076 0.125797 32
-0.986360 9.390735 -0.929163 5
-1.272799 9.289130 -0.037638 101
-0.956244 9.118533 -0.760235 20
-1.278241 9.340334 0.106955 42
-0.968607 9.251180 -0.341080 52
-0.967923 9.259437 -0.198266 35
-0.982502 9.413961 0.234628 62
-1.552268 9.196899 -0.306148 46
-0.980870 9.413404 0.380128 101
-1.557330 9.236201 -0.163494 61
-1.246360 9.163787 -0.606156 27
-1.252941 9.223598 -0.466652 56
-1.249102 9.242346 -0.324054 54
-0.963132 9.349713 -1.070902 10
-1.249161 9.254321 -0.180934 51
-0.941113 9.150818 -0.620679 63
-1.266118 9.391660 0.253119 62
-0.944134 9.195140 -0.481195 48
-0.954886 9.315021 -0.055567 38
-0.955356 9.334824 0.088441 101
-1.532900 9.194265 -0.449359 51
-1.550898 9.311709 -0.019771 87
-1.221867 9.120390 -0.745215 101
-1.553163 9.334839 0.125532 39
-0.948750 9.346596 -0.924462 7
-1.239308 9.285587 -0.037605 101
-0.928026 9.157509 -0.763210 12
-1.246158 9.348704 0.107000 41
-0.935102 9.242574 -0.340640 65
-0.935998 9.266737 -0.198351 32
-0.947228 9.393462 0.234033 57
-1.522110 9.214095 -0.306542 40
-0.949206 9.428700 0.380610 101
-1.523127 9.229743 -0.163285 64
-1.214889 9.172038 -0.606418 32
-1.219689 9.219995 -0.466252 44
-1.215268 9.234759 -0.323638 52
-0.932063 9.368837 -1.072714 8
-1.217892 9.266556 -0.181089 46
-0.909560 9.158018 -0.620948 66
-1.232807 9.392057 0.253013 72
-0.912820 9.206329 -0.481611 45
-0.922365 9.318296 -0.055567 38
-1.497812 9.171717 -0.591193 7
-0.923946 9.350042 0.088554 101
-1.499510 9.191674 -0.448974 82
-1.519028 9.321013 -0.019779 99
-1.191055 9.132506 -0.745860 101
-1.520569 9.340204 0.125532 42
-0.915342 9.341927 -0.923679 9
-1.205857 9.281923 -0.037573 101
-0.915846 9.363029 -0.780068 2
-1.210430 9.329198 0.106728 42
-0.903222 9.249760 -0.340786 63
-0.903645 9.269948 -0.198351 36
-0.913271 9.384771 0.233736 58
-1.489938 9.219352 -0.306542 41
-0.915515 9.424001 0.380289 101
-1.492812 9.246848 -0.163494 76
-1.180824 9.160388 -0.605371 32
-1.509997 9.363136 0.271542 20
-1.187498 9.224196 -0.466252 47
-1.182585 9.234971 -0.323499 58
-0.897498 9.352249 -1.070450 9
-1.185581 9.270744 -0.181089 53
-0.877222 9.157164 -0.620679 69
-1.199018 9.388369 0.252799 64
-0.879528 9.197532 -0.480987 44
-0.890937 9.333408 -0.055638 37
-1.465123 9.172954 -0.590939 95
-0.891240 9.353217 0.088554 101
-1.467984 9.200808 -0.449166 86
-1.483246 9.306523 -0.019738 100
-1.157050 9.120802 -0.744569 101
-1.487213 9.341523 0.125479 42
-0.881411 9.333194 -0.922503 10
-1.173759 9.290069 -0.037589 101
-0.886305 9.401909 -0.783042 2
-1.179641 9.349267 0.106910 43
-0.869187 9.236960 -0.340200 57
-0.872134 9.285016 -0.198606 34
-1.445283 9.137545 -0.731330 26
-1.788134 9.365730 0.144793 5
-0.881327 9.399874 0.234033 57
-1.456829 9.220594 -0.306411 43
-0.882286 9.427170 0.380289 101
-1.460205 9.252053 -0.163494 93
-1.148994 9.168458 -0.605633 34
-1.477575 9.372355 0.271656 32
-1.154424 9.224368 -0.466052 50
-1.150342 9.239043 -0.323499 58
-0.862652 9.331581 -1.067733 15
-1.151732 9.262920 -0.180856 67
-0.845986 9.168118 -0.621217 64
-1.164761 9.380593 0.252479 58
-0.848150 9.208501 -0.481403 52
-1.168962 9.427393 0.399812 39
-0.857253 9.324512 -0.055567 38
-1.424472 9.122793 -0.587384 88
-0.858951 9.360254 0.088592 101
-1.434627 9.197980 -0.448781 89
-1.450135 9.307692 -0.019729 87
-1.125694 9.128742 -0.744892 101
-1.454596 9.346658 0.125479 44
-0.849187 9.340178 -0.922895 10
-1.139374 9.278229 -0.037525 101
-0.848797 9.353335 -0.778745 5
-1.147486 9.357298 0.106955 44
-0.838021 9.251881 -0.340640 57
-0.837557 9.264107 -0.198095 35
-1.415815 9.158297 -0.732591 34
-1.753957 9.364053 0.144671 25
-0.848151 9.398911 0.233934 57
-1.420974 9.201918 -0.305624 51
-0.848657 9.422231 0.379968 101
-1.432168 9.284762 -0.163983 100
-1.116500 9.168450 -0.605371 33
-1.443633 9.369553 0.271427 32
-1.120772 9.216444 -0.465451 61
-1.117124 9.235065 -0.323221 56
-0.832890 9.366204 -1.071355 22
-1.119392 9.266885 -0.180856 59
-0.813272 9.163064 -0.620679 73
-1.134883 9.408421 0.253119 66
-0.814239 9.191510 -0.480363 53
-1.132701 9.403642 0.398634 74
-0.825052 9.331432 -0.055591 36
-1.392619 9.127710 -0.587384 84
-0.825921 9.359211 0.088554 101
-1.402511 9.202932 -0.448781 92
-0.831524 9.440836 0.526550 6
-1.415830 9.300834 -0.019704 91
-1.094296 9.136575 -0.745215 101
-1.420758 9.343770 0.125372 42
-0.816925 9.347051 -0.923287 7
-1.107453 9.286121 -0.037541 101
-0.819260 9.391982 -0.781720 6
-1.114816 9.361246 0.106955 41
-0.806414 9.262714 -0.340933 58
-1.383534 9.150744 -0.874831 100
-1.712908 9.315832 -0.001653 16
-0.806253 9.278926 -0.198351 40
-1.382052 9.151354 -0.731645 88
-1.716924 9.346516 0.144307 32
-0.817064 9.421733 0.234430 52
-1.390633 9.218680 -0.306017 65
-0.816107 9.429117 0.380128 101
-1.397961 9.277842 -0.163773 100
-1.084021 9.168328 -0.605110 32
-1.411513 9.378489 0.271542 33
-1.088125 9.216332 -0.465250 64
-1.085814 9.246849 -0.323499 57
-0.797823 9.341335 -1.068186 18
-1.087969 9.278680 -0.181011 53
-0.779248 9.141988 -0.619063 71
-1.098779 9.384524 0.252372 71
-0.782826 9.202257 -0.480779 54
-1.102190 9.427385 0.399475 78
-0.793151 9.342226 -0.055638 35
-1.363102 9.148310 -0.588400 99
-0.793246 9.362037 0.088554 101
-1.369202 9.199868 -0.448396 99
-0.799910 9.459599 0.527437 52
-1.382768 9.301763 -0.019696 100
-1.061476 9.132419 -0.744569 101
-1.388134 9.348672 0.125372 39
-0.786955 9.381580 -0.926421 8
-1.075492 9.293903 -0.037557 101
-0.786804 9.398757 -0.782051 6
-1.081214 9.357134 0.106864 46
-0.772412 9.245556 -0.340200 64
-1.346350 9.120062 -0.871443 100
-1.673283 9.282389 -0.001646 22
-0.773858 9.281684 -0.198351 37
-1.350099 9.156123 -0.731645 86
-1.686415 9.364261 0.144489 28
-0.782182 9.400618 0.233835 58
-1.358446 9.223479 -0.306017 74
-0.781534 9.411993 0.379326 100
-1.365567 9.282664 -0.163773 100
-1.052921 9.179987 -0.605633 30
-1.377605 9.375446 0.271313 33
-1.056856 9.228013 -0.465651 49
-1.054691 9.246427 -0.323360 59
-0.768792 9.367696 -1.070902 17
-1.055836 9.270316 -0.180779 51
-0.750557 9.164410 -0.620410 70
-1.068105 9.392089 0.252479 76
-0.752632 9.208784 -0.480987 52
-1.074078 9.458785 0.400653 79
-1.654948 9.276395 -0.146381 27
-0.760866 9.328858 -0.055543 37
-1.337359 9.184381 -0.590432 100
-0.762521 9.368603 0.088592 100
-1.337537 9.196450 -0.448010 92
-0.769506 9.474142 0.528103 66
-1.353640 9.318172 -0.019721 100
-1.029844 9.124002 -0.743600 101
-1.354828 9.337391 0.125160 43
-0.755201 9.376203 -0.925637 9
-1.041540 9.269594 -0.037445 101
-0.756590 9.413235 -0.783042 5
-1.048395 9.344769 0.106683 48
-0.743986 9.275958 -0.341226 64
-1.312688 9.100828 -0.869184 98
-1.643885 9.295765 -0.001648 20
-0.742118 9.272240 -0.198095 36
-1.315749 9.132922 -0.729438 78
-1.652570 9.354048 0.144246 29
-0.751959 9.415118 0.234132 57
-1.328991 9.235847 -0.306280 84
-0.750319 9.414534 0.379326 101
-1.048915 9.406529 -1.059978 0
-1.333640 9.279224 -0.163634 100
-1.020706 9.167561 -0.604587 35
-1.347076 9.383921 0.271427 32
-1.024925 9.219555 -0.465050 54
-1.021091 9.238132 -0.322943 60
-0.735777 9.366361 -1.070450 17
-1.025225 9.289845 -0.181089 65
-0.716068 9.135144 -0.618255 77
-1.033562 9.379863 0.252051 75
-1.615270 9.231274 -0.289600 8
-0.719548 9.199408 -0.480363 45
-1.037558 9.430696 0.399307 82
-1.619113 9.262416 -0.146071 20
-0.725807 9.299555 -0.055353 40
-1.303607 9.177136 -0.589670 101
-0.729503 9.367219 0.088554 101
-1.305427 9.201063 -0.448010 97
-0.735193 9.460843 0.527215 67
-1.036304 9.463236 -0.918330 4
-1.317737 9.299078 -0.019671 88
-0.998422 9.131505 -0.743923 101
-1.321665 9.338103 0.125107 43
-0.723996 9.398626 -0.927596 9
-1.012206 9.301009 -0.037557 101
-0.725560 9.439666 -0.785026 4
-1.017065 9.360300 0.106819 47
-0.710379 9.262556 -0.340640 76
-1.275919 9.069863 -0.865797 77
-1.612110 9.305387 -0.001648 26
-0.710357 9.282749 -0.198266 38
-1.282196 9.125612 -0.728493 94
-1.620590 9.363700 0.144307 25
-0.717263 9.393763 0.233537 54
-1.295077 9.228553 -0.305886 91
-0.716237 9.401155 0.378684 101
-1.019914 9.445704 -1.063985 14
-1.301796 9.287784 -0.163704 97
-0.987844 9.163131 -0.604063 34
-1.313203 9.380647 0.271198 34
-0.994447 9.238965 -0.465851 55
-0.987117 9.225742 -0.322388 58
-0.702471 9.360947 -1.069544 19
-0.989381 9.261556 -0.180469 66
-0.685959 9.161468 -0.619871 67
-1.001657 9.391366 0.252265 73
-1.578980 9.213213 -0.288859 26
-0.687434 9.201863 -0.480363 58
-1.001249 9.402469 0.397961 91
-1.585425 9.260126 -0.145946 22
-0.694541 9.317986 -0.055448 36
-1.270480 9.173721 -0.589162 101
-0.695038 9.345775 0.088328 101
-1.272224 9.197646 -0.447625 100
-0.700120 9.435470 0.525662 77
-1.003710 9.470753 -0.918714 28
-1.285842 9.307580 -0.019679 95
-0.966573 9.134932 -0.743923 101
-1.289093 9.342655 0.125107 39
-0.690363 9.389182 -0.926421 6
-0.978949 9.296524 -0.037525 101
-0.693251 9.450089 -0.785687 4
-0.985702 9.375721 0.106955 48
-1.565506 9.217999 -0.432757 5
-0.676944 9.249027 -0.340054 55
-1.245942 9.086089 -0.866926 86
-1.580356 9.314890 -0.001649 24
-0.676278 9.261235 -0.197755 36
-1.248245 9.114220 -0.727232 97
-1.587303 9.365344 0.144246 27
-0.685424 9.408167 0.233835 58
-1.262938 9.233006 -0.305886 85
-0.684667 9.419536 0.379326 101
-0.980008 9.381985 -1.056417 8
-1.267834 9.280372 -0.163494 100
-0.955535 9.162543 -0.603802 37
-1.279468 9.377236 0.270969 38
-0.959813 9.218528 -0.464650 52
-0.956553 9.245037 -0.322943 61
-0.671493 9.387126 -1.072261 13
-0.956635 9.260975 -0.180392 56
-0.653691 9.159825 -0.619602 67
-0.967639 9.382873 0.251945 75
-1.546149 9.214725 -0.288736 26
-0.655593 9.208191 -0.480571 52
-0.970878 9.429759 0.398971 100
-1.550446 9.249826 -0.145698 27
-0.663144 9.336314 -0.055543 36
-1.239518 9.186012 -0.589670 101
-0.662129 9.344154 0.088290 101
-1.240110 9.202031 -0.447625 100
-0.667180 9.437856 0.525662 77
-0.960094 9.371218 -0.908728 15
-1.250677 9.292191 -0.019637 95
-0.932652 9.118419 -0.742309 101
-1.257006 9.351062 0.125160 43
-0.659531 9.419333 -0.929163 5
-0.945277 9.287946 -0.037477 101
-0.951755 9.367167 0.106819 45
-1.527422 9.187933 -0.431093 47
-0.645210 9.259310 -0.340347 46
-1.218436 9.121961 -0.869937 78
-1.549142 9.328241 -0.001650 26
-0.644224 9.267529 -0.197840 38
-1.221695 9.158047 -0.730384 100
-1.555256 9.374773 0.144307 30
-0.652026 9.402524 0.233637 58
-1.231229 9.241321 -0.306017 78
-0.650955 9.409906 0.378844 101
-0.946454 9.377438 -1.055526 7
-1.233849 9.272847 -0.163285 100
-0.923946 9.169794 -0.604063 34
-1.245147 9.369755 0.270626 31
-0.927229 9.217848 -0.464449 58
-0.927483 9.264070 -0.323499 58
-0.640630 9.393267 -1.072714 4
-0.926715 9.272055 -0.180547 54
-0.623855 9.169906 -0.620140 74
-0.937313 9.393988 0.252158 82
-1.518178 9.235582 -0.289230 23
-0.625325 9.214300 -0.480779 54
-0.938415 9.420997 0.398466 100
-1.519116 9.250970 -0.145636 25
-0.630019 9.306535 -0.055353 38
-1.207487 9.178199 -0.588908 101
-0.631139 9.346298 0.088290 101
-1.210629 9.214015 -0.448010 97
-0.636953 9.455956 0.526550 29
-0.925872 9.342653 -0.905656 28
-1.222458 9.316116 -0.019679 91
-0.904372 9.141299 -0.743923 101
-1.225990 9.355179 0.125160 40
-0.914472 9.291030 -0.037477 101
-1.494673 9.169316 -0.573104 17
-0.919905 9.362310 0.106728 47
-1.493734 9.173229 -0.430168 46
-0.614767 9.265387 -0.340493 72
-1.188694 9.129900 -0.870314 36
-1.518200 9.333327 -0.001650 26
-0.615073 9.293557 -0.198351 35
-1.190805 9.158093 -0.730069 100
-1.522236 9.368035 0.144124 32
-0.621369 9.412615 0.233835 57
-1.200062 9.241388 -0.305886 95
-0.620010 9.416001 0.379005 101
-0.913422 9.360744 -1.053300 7
-1.203093 9.276888 -0.163285 100
-0.894694 9.184726 -0.604848 31
-1.216123 9.389693 0.271084 34
-0.897429 9.228824 -0.464850 55
-0.893938 9.255318 -0.323082 61
-0.895081 9.283197 -0.180701 64
-1.471709 9.142809 -0.714183 13
-0.591573 9.168046 -0.619871 62
-0.904504 9.397203 0.252158 75
-1.483379 9.225038 -0.288736 23
-0.592651 9.208453 -0.480363 47
-0.904002 9.408301 0.397793 100
-1.486822 9.256215 -0.145636 26
-0.599349 9.336618 -0.055519 41
-1.175974 9.186315 -0.589162 101
-0.598555 9.348442 0.088290 101
-1.178503 9.218180 -0.448010 99
-0.894454 9.357713 -0.906808 27
-1.189994 9.320319 -0.019679 86
-0.872538 9.144392 -0.743923 101
-1.189868 9.331618 0.124789 45
-0.881417 9.286188 -0.037445 101
-1.459651 9.154743 -0.571873 20
-1.792312 9.323908 0.162414 3
-0.886245 9.353503 0.106592 45
-1.455575 9.138903 -0.428319 45
-0.582596 9.267466 -0.340493 54
-1.484531 9.330642 -0.001649 24
-0.581572 9.275679 -0.197925 36
-1.158021 9.154258 -0.729438 101
-1.486583 9.353511 0.143821 30
-0.588476 9.410722 0.233736 54
-1.167508 9.241528 -0.305755 100
-0.588119 9.430060 0.379486 100
-0.879858 9.351979 -1.051965 12
-1.170935 9.281001 -0.163285 100
-0.861382 9.171874 -0.603802 36
-1.181094 9.374014 0.270511 33
-0.865850 9.235853 -0.465050 54
-0.860143 9.242460 -0.322526 60
-0.861931 9.278301 -0.180547 67
-1.436685 9.128193 -0.712645 56
-0.559567 9.170055 -0.619871 58
-0.871327 9.396321 0.252051 73
-1.451169 9.230160 -0.288736 24
-0.560746 9.214454 -0.480571 55
-0.872628 9.427318 0.398466 100
-1.453882 9.257398 -0.145573 33
-0.566512 9.334661 -0.055496 38
-1.142915 9.182441 -0.588654 101
-1.471058 9.376882 0.289994 24
-0.566402 9.358459 0.088365 101
-1.143362 9.198448 -0.446855 100
-0.861784 9.360778 -0.906808 26
-1.154497 9.300599 -0.019629 90
-0.844991 9.195025 -0.747798 70
-1.158272 9.343654 0.124895 49
-0.848633 9.285225 -0.037429 101
-1.422152 9.124280 -0.569656 21
-1.757531 9.318316 0.162209 54
-0.854680 9.368489 0.106728 46
-1.425509 9.155772 -0.428873 53
-0.550243 9.269443 -0.340493 57
-1.453796 9.347624 -0.001651 25
-0.548245 9.261683 -0.197584 36
-1.123626 9.138456 -0.727862 101
-1.450854 9.338882 0.143517 30
-0.554445 9.392759 0.233240 51
-1.134267 9.237611 -0.305492 95
-0.848642 9.370830 -1.053746 17
-1.136584 9.269154 -0.163005 101
-0.830080 9.182775 -0.604325 37
-1.149823 9.389986 0.270855 35
-0.832528 9.226882 -0.464449 55
-0.828233 9.249388 -0.322665 58
-1.398430 9.081659 -0.850792 21
-0.829894 9.285237 -0.180624 67
-1.406026 9.141035 -0.713260 89
-1.751595 9.390013 0.016671 2
-0.528013 9.179921 -0.620410 40
-0.836746 9.379392 0.251517 73
-1.418334 9.231217 -0.288612 23
-0.528579 9.216354 -0.480571 52
-0.839007 9.422345 0.398130 100
-1.425199 9.286136 -0.145946 34
-0.532554 9.312621 -0.055353 38
-1.109417 9.174485 -0.587892 101
-1.438923 9.385911 0.290116 28
-0.533049 9.348399 0.088252 101
-1.112204 9.210316 -0.447240 100
-0.829806 9.371661 -0.907576 30
-1.122503 9.308543 -0.019637 88
-0.825173 9.336920 -0.759099 36
-1.125649 9.347640 0.124895 51
-0.817267 9.300084 -0.037477 101
-1.395703 9.164710 -0.571873 18
-1.729359 9.347991 0.162619 46
-0.821624 9.367432 0.106683 50
-1.400151 9.204145 -0.430908 51
-0.517437 9.263325 -0.340200 54
-1.419956 9.344732 -0.001650 22
-0.517246 9.287498 -0.198095 35
-1.091248 9.138363 -0.727547 101
-1.418847 9.347844 0.143578 30
-0.521654 9.394638 0.233240 19
-1.102015 9.241514 -0.305492 100
-0.815927 9.373735 -1.053746 9
-1.104694 9.277036 -0.163075 100
-0.798021 9.185616 -0.604325 33
-1.115151 9.378061 0.270397 40
-0.799625 9.221772 -0.464049 64
-1.121931 9.448412 0.418752 24
-0.795642 9.248237 -0.322526 63
-1.364394 9.070724 -0.849317 66
-0.796136 9.272137 -0.180314 67
-1.369988 9.118277 -0.711107 87
-1.702999 9.309502 0.016518 26
-0.497483 9.209603 -0.622295 8
-0.804694 9.390223 0.251731 79
-1.385519 9.232157 -0.288488 23
-0.496398 9.218143 -0.480571 51
-0.806786 9.433181 0.398466 100
-1.391584 9.283145 -0.145822 31
-0.499163 9.298448 -0.055258 35
-1.075967 9.166410 -0.587130 101
-1.405536 9.386927 0.289994 21
-0.501015 9.362187 0.088365 101
-1.080938 9.222083 -0.447625 100
-0.795007 9.350702 -0.905272 24
-1.087622 9.292547 -0.019595 92
-0.799919 9.427149 -0.766202 30
-1.092475 9.347548 0.124842 44
-0.782994 9.282962 -0.037397 101
-1.362995 9.165596 -0.571627 20
-1.698021 9.361864 0.162756 55
-0.786095 9.338369 0.106320 43
-1.367876 9.208998 -0.430908 61
-0.485152 9.269074 -0.340347 57
-1.388932 9.361526 -0.001652 25
-0.484026 9.277276 -0.197840 39
-1.058713 9.138175 -0.727232 101
-1.383688 9.336941 0.143335 29
-1.068182 9.233413 -0.305099 100
-0.782993 9.376543 -1.053746 13
-1.072557 9.284832 -0.163145 100
-0.765400 9.184387 -0.604063 37
-1.083558 9.393839 0.270740 30
-0.767854 9.232490 -0.464449 57
-1.085956 9.428480 0.417697 24
-0.761711 9.231037 -0.321832 62
-1.330408 9.059669 -0.847842 69
-1.663418 9.267020 -0.128181 32
-0.765407 9.294788 -0.180701 53
-1.334099 9.095382 -0.708954 75
-1.675435 9.342950 0.016567 27
-0.771256 9.385004 0.251517 85
-1.352705 9.232981 -0.288365 22
-0.463615 9.207851 -0.479947 43
-0.773200 9.427973 0.398130 100
-1.356855 9.272116 -0.145573 29
-0.467905 9.324102 -0.055401 32
-1.046673 9.193908 -0.588654 101
-1.372183 9.387819 0.289872 29
-0.469131 9.379858 0.088516 54
-1.046936 9.209921 -0.446855 100
-0.764950 9.385167 -0.908344 27
-1.056081 9.304235 -0.019612 100
-0.767977 9.441805 -0.767171 50
-1.060290 9.355279 0.124895 40
-0.749941 9.277664 -0.037365 101
-1.331566 9.174249 -0.571873 17
-1.659732 9.336232 0.162209 53
-0.754458 9.353017 0.106456 46
-1.332855 9.193944 -0.429983 71
-0.452014 9.254741 -0.339760 58
-0.763557 9.485608 0.547039 18
-1.353379 9.346523 -0.001648 26
-0.451639 9.278909 -0.197840 37
-1.025918 9.133890 -0.726601 101
-1.351088 9.341714 0.143335 31
-1.035054 9.229138 -0.304836 100
-0.750892 9.387144 -1.054636 9
-1.039696 9.284545 -0.163075 100
-0.733019 9.183024 -0.603802 37
-1.049872 9.389616 0.270511 35
-0.736574 9.247061 -0.465050 54
-1.051264 9.416327 0.416994 20
-1.634447 9.256867 -0.272419 3
-0.732989 9.257422 -0.322665 64
-1.301489 9.071916 -0.848579 70
-1.630598 9.260669 -0.128018 49
-0.733320 9.281328 -0.180392 60
-1.307325 9.123443 -0.710799 81
-1.640978 9.328756 0.016532 32
-0.741701 9.407441 0.252051 82
-1.323213 9.245331 -0.288612 25
-0.433078 9.209338 -0.479947 39
-0.743185 9.446422 0.398803 100
-1.043391 9.429175 -1.043993 2
-1.326100 9.276565 -0.145573 27
-0.436796 9.321608 -0.055377 30
-1.014425 9.181458 -0.587638 101
-1.339349 9.380445 0.289505 26
-1.016827 9.217314 -0.447047 100
-0.736306 9.419408 -0.911417 26
-1.025659 9.311663 -0.019620 100
-0.737283 9.452250 -0.767816 21
-1.028386 9.350792 0.124789 47
-0.720717 9.300040 -0.037445 101
-1.301697 9.182567 -0.572119 18
-1.624641 9.318045 0.161798 56
-0.723438 9.355467 0.106456 45
-1.301800 9.194357 -0.429798 53
-0.421322 9.256189 -0.339760 55
-0.731483 9.480124 0.546580 29
-1.039890 9.528696 -0.906075 6
-1.322378 9.350960 -0.001648 22
-0.420685 9.276361 -0.197755 35
-0.995623 9.137241 -0.726601 101
-1.321221 9.354063 0.143456 29
-1.005308 9.240469 -0.305099 95
-0.720366 9.397510 -1.055526 11
-1.008037 9.279989 -0.162936 100
-0.699518 9.145606 -0.601186 39
-1.018298 9.389071 0.270397 30
-0.705298 9.241486 -0.464650 52
-1.020033 9.419762 0.416994 25
-1.602377 9.254356 -0.272187 49
-0.699746 9.247968 -0.322249 59
-1.269244 9.072461 -0.848211 75
-1.594844 9.246600 -0.127746 56
-0.700304 9.275856 -0.180237 66
-1.274906 9.124002 -0.710492 78
-1.600921 9.291069 0.016455 26
-0.706752 9.382062 0.251304 87
-1.290375 9.245934 -0.288488 24
-0.401279 9.218776 -0.480363 40
-0.709311 9.437003 0.398298 100
-1.010897 9.436713 -1.044430 38
-1.294266 9.285098 -0.145636 30
-0.980682 9.169065 -0.586622 101
-1.307159 9.389021 0.289627 28
-0.983391 9.208886 -0.446470 97
-0.704632 9.437800 -0.912953 30
-0.993174 9.315184 -0.019620 100
-0.705501 9.470667 -0.769108 46
-0.993656 9.334435 0.124523 46
-0.686828 9.282550 -0.037365 101
-1.264770 9.151454 -0.569903 18
-1.586774 9.292111 0.161251 60
-0.691428 9.365909 0.106547 46
-1.268666 9.190921 -0.429428 61
-0.388742 9.249613 -0.339467 61
-0.698457 9.482615 0.546580 33
-0.994982 9.421373 -0.895535 14
-1.287613 9.339659 -0.001645 26
-0.388044 9.269778 -0.197584 32
-0.963798 9.140654 -0.726601 101
-1.289184 9.362570 0.143517 29
-0.972711 9.239938 -0.304967 100
-0.688521 9.411854 -1.056862 10
-0.973639 9.263555 -0.162587 100
-0.670012 9.179832 -0.603278 35
-0.986452 9.400511 0.270626 31
-1.562132 9.203184 -0.414097 16
-0.672850 9.239899 -0.464449 58
-0.986836 9.419279 0.416818 27
-1.564153 9.224398 -0.271144 39
-0.667748 9.254341 -0.322388 60
-1.237029 9.072890 -0.847842 80
-1.561225 9.244224 -0.127637 65
-0.668495 9.286222 -0.180392 52
-1.242512 9.124445 -0.710184 84
-1.571807 9.316322 0.016490 27
-0.675144 9.400425 0.251731 86
-1.254860 9.226613 -0.287747 23
-0.368778 9.212137 -0.479947 39
-0.674937 9.419490 0.397457 100
-0.969347 9.357133 -1.035242 24
-1.258078 9.261817 -0.145201 29
-0.947848 9.164490 -0.586114 101
-1.274914 9.397488 0.289749 30
-0.952061 9.220212 -0.446855 100
-0.672814 9.456088 -0.914490 23
-0.961472 9.326551 -0.019637 95
-0.675261 9.512841 -0.772337 11
-0.961885 9.345804 0.124630 45
-0.653015 9.264940 -0.037284 101
-1.232285 9.151856 -0.569656 22
-1.561582 9.340985 0.162003 63
-0.657609 9.352305 0.106365 45
-1.237108 9.199253 -0.429613 53
-0.356760 9.258903 -0.339760 66
-0.665632 9.488978 0.546810 27
-0.962898 9.432713 -0.896288 12
-1.253406 9.332204 -0.001643 25
-0.931481 9.139995 -0.726286 101
-1.255431 9.359085 0.143396 29
-0.941261 9.251231 -0.305230 93
-0.656216 9.422132 -1.057752 9
-0.942914 9.282813 -0.162866 100
-0.638241 9.186097 -0.603540 40
-0.952825 9.395942 0.270397 33
-1.528687 9.200697 -0.413742 59
-0.639488 9.226250 -0.463648 57
-0.956769 9.450497 0.418049 26
-1.531290 9.225857 -0.271028 44
-0.634619 9.244651 -0.321971 57
-1.204827 9.073205 -0.847473 75
-1.526990 9.237779 -0.127474 67
-0.635529 9.280519 -0.180237 64
-1.210654 9.128727 -0.710184 89
-1.536671 9.305965 0.016462 30
-0.642598 9.406714 0.251838 79
-1.222646 9.230937 -0.287747 27
-0.336473 9.209376 -0.479739 39
-0.641238 9.409827 0.396952 100
-0.937866 9.372329 -1.036554 20
-1.226790 9.274082 -0.145325 29
-0.916646 9.175687 -0.586622 101
-1.241056 9.393953 0.289505 29
-0.919077 9.215528 -0.446470 100
-0.929307 9.333831 -0.019645 87
-0.928465 9.341145 0.124523 43
-1.505908 9.176668 -0.555744 36
-0.622542 9.295101 -0.037397 101
-1.202407 9.171936 -0.570641 18
-1.526384 9.330591 0.161730 67
-0.625226 9.358535 0.106410 43
-1.206546 9.215402 -0.430168 61
-0.324019 9.248106 -0.339321 36
-0.924108 9.376571 -0.890641 16
-1.222898 9.352387 -0.001646 25
-0.899180 9.139222 -0.725971 101
-1.222754 9.363410 0.143396 30
-0.906618 9.230588 -0.304442 99
-0.910115 9.282067 -0.162796 100
-0.605909 9.184286 -0.603278 36
-0.918853 9.387272 0.270054 32
-1.492714 9.182311 -0.412678 59
-0.606753 9.220453 -0.463248 54
-0.923386 9.449802 0.417873 35
-1.499717 9.235092 -0.271144 47
-0.603664 9.266754 -0.322665 62
-1.175209 9.093153 -0.848948 68
-1.497947 9.262791 -0.127746 64
-0.604180 9.298643 -0.180547 54
-1.177772 9.124985 -0.709569 69
-1.504189 9.311271 0.016462 27
-0.609764 9.408899 0.251838 79
-1.191954 9.247044 -0.288118 21
-0.304454 9.214488 -0.479947 41
-0.608900 9.419985 0.397289 96
-0.905142 9.375546 -1.036554 29
-1.196450 9.294176 -0.145573 28
-0.885750 9.190752 -0.587384 101
-1.206718 9.386333 0.289139 28
-0.886503 9.214705 -0.446277 100
-0.894018 9.309149 -0.019587 90
-1.460553 9.089415 -0.692204 21
-0.895057 9.336370 0.124417 43
-1.470671 9.162162 -0.554551 54
-0.589024 9.281253 -0.037332 101
-1.170835 9.180044 -0.570888 23
-1.490591 9.316125 0.161388 74
-0.592492 9.360664 0.106410 45
-1.173804 9.215601 -0.429983 61
-0.892809 9.395603 -0.892147 19
-1.188661 9.344704 -0.001644 25
-0.866444 9.134373 -0.725340 101
-1.190489 9.371598 0.143456 30
-0.874685 9.237684 -0.304574 100
-0.877241 9.281215 -0.162726 100
-0.573002 9.174400 -0.602494 36
-0.885604 9.386451 0.269939 28
-1.461183 9.191428 -0.412856 57
-0.574707 9.226509 -0.463448 58
-0.889162 9.441042 0.417345 36
-1.467366 9.240288 -0.271144 56
-0.570329 9.252845 -0.322110 61
-1.141971 9.085344 -0.847842 34
-1.466229 9.271914 -0.127800 74
-0.570736 9.284729 -0.180237 63
-1.146906 9.136954 -0.710184 80
-1.471054 9.312514 0.016455 30
-0.575693 9.391015 0.251304 76
-1.159171 9.247181 -0.287994 25
-0.272523 9.223480 -0.480363 34
-0.870568 9.358853 -1.034367 37
-1.161019 9.274484 -0.145201 29
-0.852556 9.181864 -0.586622 101
-1.172458 9.378587 0.288772 29
-0.855070 9.225699 -0.446662 100
-0.861886 9.316195 -0.019595 87
-1.428816 9.094458 -0.692204 81
-1.770111 9.323742 0.180566 45
-0.865036 9.367315 0.124789 44
-1.438680 9.167240 -0.554551 52
-0.558778 9.319188 -0.037477 101
-1.137310 9.172190 -0.570149 17
-1.461771 9.344980 0.161798 79
-0.559575 9.358683 0.106365 42
-1.140156 9.207746 -0.429428 61
-0.860732 9.406594 -0.892900 19
-1.157998 9.364675 -0.001647 26
-0.835279 9.145284 -0.725971 101
-1.155808 9.359819 0.143213 31
-0.842434 9.240682 -0.304574 100
-0.845563 9.292186 -0.162866 100
-0.542618 9.204236 -0.604325 34
-0.854281 9.405413 0.270397 27
-1.432158 9.216216 -0.413742 69
-0.542028 9.220483 -0.463047 54
-0.856201 9.444088 0.417345 42
-1.434489 9.241403 -0.271028 60
-0.537563 9.246798 -0.321832 67
-1.435688 9.288834 -0.127964 70
-0.538786 9.294650 -0.180392 56
-1.113074 9.125067 -0.708954 78
-1.436097 9.301780 0.016427 29
-0.543601 9.404943 0.251624 47
-1.124952 9.235296 -0.287500 23
-0.836831 9.349955 -1.033054 55
-1.129121 9.282451 -0.145263 31
-0.820500 9.184784 -0.586622 101
-1.140678 9.390560 0.289016 33
-0.822861 9.228627 -0.446662 100
-0.828298 9.307195 -0.019570 85
-1.398878 9.111217 -0.693103 94
-1.739019 9.337728 0.180718 71
-0.831625 9.362310 0.124683 47
-1.412119 9.207726 -0.556699 44
-0.525568 9.309100 -0.037429 101
-1.103377 9.160249 -0.569164 18
-1.425516 9.326304 0.161388 69
-0.527803 9.376553 0.106547 44
-1.108008 9.211670 -0.429428 61
-1.436086 9.405987 0.308995 23
-0.826147 9.389707 -0.891017 20
-1.120532 9.328945 -0.001640 26
-0.805793 9.175950 -0.728177 38
-1.124082 9.371739 0.143335 33
-0.810173 9.243566 -0.304574 97
-0.810683 9.267192 -0.162377 101
-1.383401 9.101713 -0.834594 23
-1.720906 9.318361 0.034731 28
-0.509381 9.186148 -0.603017 30
-0.820401 9.396388 0.270054 28
-1.399979 9.221159 -0.413742 77
-0.509619 9.218329 -0.462847 64
-0.822536 9.439057 0.416994 42
-1.401622 9.242400 -0.270913 59
-0.505937 9.260593 -0.322249 58
-1.400270 9.274014 -0.127691 73
-0.505251 9.276507 -0.180004 60
-1.083091 9.144739 -0.710184 67
-1.403619 9.306736 0.016427 26
-1.095056 9.259019 -0.288118 22
-0.806232 9.376587 -1.035679 34
-1.097650 9.294279 -0.145387 29
-0.788093 9.183615 -0.586368 101
-1.106955 9.386543 0.288772 36
-0.789619 9.219501 -0.446084 100
-0.797167 9.325972 -0.019604 87
-1.365290 9.104211 -0.692204 95
-1.706414 9.343740 0.180718 84
-0.796900 9.341245 0.124364 44
-1.376420 9.188907 -0.555267 48
-0.493070 9.310879 -0.037429 101
-1.074176 9.187837 -0.570641 18
-1.395905 9.351002 0.161730 69
-0.494015 9.358367 0.106320 36
-1.075846 9.215481 -0.429428 53
-1.400886 9.395125 0.308475 55
-0.795376 9.416342 -0.893276 15
-1.088887 9.340746 -0.001641 25
-0.792851 9.405194 -0.746145 25
-1.089512 9.359715 0.143092 31
-0.777567 9.242353 -0.304442 99
-1.679837 9.268355 -0.110152 25
-0.779333 9.281921 -0.162587 100
-1.347528 9.078903 -0.832066 24
-1.686231 9.312504 0.034687 30
-0.477519 9.191855 -0.603278 23
-0.786929 9.391226 0.269825 31
-1.368954 9.233895 -0.414097 70
-0.478471 9.240001 -0.463849 58
-0.789583 9.441872 0.416994 41
-1.371109 9.259102 -0.271260 56
-0.473608 9.262302 -0.322249 50
-1.369639 9.290716 -0.127855 73
-0.473681 9.294190 -0.180314 54
-1.048431 9.124691 -0.708339 73
-1.374037 9.331366 0.016462 30
-1.061362 9.250869 -0.287747 23
-0.774150 9.387269 -1.036554 48
-1.061559 9.266266 -0.144890 30
-0.755376 9.178352 -0.585860 101
-1.073274 9.382405 0.288528 32
-0.757433 9.222201 -0.446084 100
-1.077878 9.436625 0.436284 4
-0.763628 9.316737 -0.019578 92
-1.333502 9.108921 -0.692204 100
-1.675197 9.357513 0.180870 100
-0.766244 9.367887 0.124683 44
-1.344915 9.197606 -0.555506 58
-0.460368 9.308548 -0.037413 101
-1.040749 9.179629 -0.569903 18
-1.362102 9.347902 0.161593 67
-1.041874 9.203299 -0.428688 62
-1.368658 9.403914 0.308605 80
-0.762824 9.423030 -0.893653 19
-1.055377 9.336541 -0.001640 24
-0.763548 9.451625 -0.749613 24
-1.055040 9.347564 0.142849 30
-0.744337 9.233057 -0.304049 100
-1.648874 9.282039 -0.110246 55
-0.745966 9.272626 -0.162377 100
-1.315257 9.079610 -0.831705 25
-1.654413 9.322271 0.034702 31
-0.754143 9.393915 0.269825 31
-1.055238 9.391598 -1.387468 6
-1.335569 9.230708 -0.413742 80
-0.445637 9.229643 -0.463248 55
-0.757258 9.452537 0.417345 39
-1.053030 9.386085 -1.021049 0
-1.336493 9.248003 -0.270797 70
-0.441654 9.271886 -0.322526 58
-1.336630 9.291482 -0.127800 70
-0.441425 9.299782 -0.180392 51
-1.017457 9.136223 -0.708954 80
-1.340318 9.328186 0.016448 25
-1.029948 9.262465 -0.287994 23
-0.740126 9.374060 -1.034804 40
-1.031414 9.289790 -0.145201 29
-0.721452 9.157056 -0.584337 101
-1.039636 9.378147 0.288284 32
-0.725550 9.228772 -0.446277 100
-1.046690 9.456217 0.437019 12
-1.618889 9.219520 -0.253290 17
-0.730164 9.307383 -0.019553 89
-1.301134 9.109572 -0.691904 100
-1.637686 9.335731 0.180337 101
-0.732291 9.354556 0.124470 46
-1.311109 9.190387 -0.554790 67
-0.426587 9.282127 -0.037300 101
-1.006084 9.159394 -0.568425 20
-1.324961 9.320923 0.161046 71
-1.009306 9.202908 -0.428504 60
-1.335824 9.408634 0.308605 76
-0.731464 9.445488 -0.895535 21
-1.021473 9.328239 -0.001638 27
-0.730858 9.458209 -0.749928 16
-1.024143 9.367093 0.143092 31
-0.712718 9.243571 -0.304311 100
-1.611662 9.260155 -0.109918 48
-0.714821 9.291123 -0.162656 101
-1.286899 9.107812 -0.833872 30
-1.619806 9.316167 0.034658 35
-0.721653 9.400477 0.269939 30
-1.023734 9.407027 -1.389211 45
-1.302223 9.227400 -0.413388 73
-0.414131 9.247107 -0.464049 60
-0.723647 9.447153 0.416994 39
-1.027133 9.452960 -1.027927 38
-1.305877 9.264489 -0.271144 64
-0.409160 9.269375 -0.322388 54
-0.718216 9.456042 0.563411 3
-1.015362 9.400881 -0.875501 13
-1.304238 9.296083 -0.127800 70
-0.408463 9.289279 -0.180159 60
-0.985162 9.135750 -0.708646 66
-1.306114 9.320919 0.016427 27
-0.996765 9.258052 -0.287747 24
-0.709487 9.404340 -1.037867 40
-0.995981 9.265499 -0.144766 28
-0.691855 9.191366 -0.586368 101
-1.006441 9.377747 0.288161 28
-1.588045 9.223870 -0.397192 5
-0.692389 9.219299 -0.445699 100
-1.009798 9.424060 0.435367 15
-1.584619 9.213300 -0.252965 22
-0.697906 9.313869 -0.019562 89
-1.268715 9.110116 -0.691604 91
-1.609088 9.365050 0.180794 99
-0.698059 9.337118 0.124205 52
-1.278389 9.190964 -0.554551 74
-0.973125 9.154925 -0.567932 19
-1.292277 9.325510 0.161046 59
-0.977863 9.214338 -0.428873 62
-1.298429 9.381581 0.307567 71
-0.699190 9.459910 -0.896664 18
-0.990835 9.351655 -0.001641 23
-0.700572 9.500484 -0.753080 18
-0.991663 9.374609 0.143153 31
-0.679061 9.230070 -0.303786 95
-1.574411 9.238160 -0.109591 59
-0.681566 9.285602 -0.162517 101
-1.256501 9.124120 -0.834955 29
-1.585700 9.313917 0.034629 36
-0.688872 9.406945 0.270054 28
-0.986078 9.367276 -1.382820 29
-1.269755 9.231924 -0.413388 89
-0.380757 9.228549 -0.463047 62
-0.690391 9.449642 0.416994 42
-0.985957 9.381371 -1.019759 30
-1.270540 9.249223 -0.270565 61
-0.375502 9.238792 -0.321276 59
-0.682896 9.426632 0.561513 17
-0.982127 9.400406 -0.875132 17
-1.267988 9.272840 -0.127419 64
-0.375873 9.286652 -0.180082 34
-0.951611 9.123267 -0.707416 81
-1.273029 9.321459 0.016420 26
-0.964442 9.261475 -0.287747 22
-0.676941 9.410725 -1.038305 31
-0.964873 9.280853 -0.144952 30
-0.658624 9.177798 -0.585353 101
-0.974113 9.385180 0.288284 28
-1.552516 9.209653 -0.396344 100
-0.660203 9.221661 -0.445699 100
-0.978955 9.447400 0.436284 16
-1.551121 9.210889 -0.252749 21
-0.665390 9.316248 -0.019562 83
-1.238517 9.126348 -0.692504 95
-1.571743 9.343003 0.180261 100
-0.666883 9.359446 0.124470 50
-1.247371 9.203283 -0.555028 78
-0.939938 9.146352 -0.567193 20
-1.262393 9.349781 0.161388 62
-0.944470 9.205770 -0.428319 62
-1.264070 9.374170 0.307177 78
-0.665884 9.458322 -0.896288 10
-0.955333 9.327203 -0.001636 25
-0.958527 9.374035 0.143092 28
-1.537960 9.208856 -0.539968 2
-0.647676 9.244349 -0.304180 99
-1.545445 9.263326 -0.109825 55
-0.648870 9.283935 -0.162447 100
-1.224644 9.128450 -0.834955 30
-1.550549 9.303614 0.034570 36
-0.655197 9.397326 0.269710 29
-0.951371 9.350975 -1.379915 30
-1.236991 9.232339 -0.413210 78
-0.348391 9.225830 -0.462847 62
-0.656570 9.440035 0.416466 45
-0.951194 9.364973 -1.017609 28
-1.239307 9.261528 -0.270797 63
-0.343844 9.256026 -0.321832 58
-0.650810 9.440908 0.562224 8
-0.945707 9.368112 -0.871813 17
-1.235612 9.277210 -0.127419 65
-0.920159 9.130501 -0.707724 81
-1.238374 9.309985 0.016392 29
-0.930107 9.244894 -0.287129 26
-0.645715 9.436831 -1.040930 35
-0.932071 9.280185 -0.144890 27
-0.627127 9.188006 -0.585860 101
-0.943740 9.412392 0.289016 23
-1.517106 9.195301 -0.395496 75
-0.628824 9.235868 -0.446277 100
-0.943982 9.430880 0.435367 17
-1.518960 9.216248 -0.252749 23
-0.633137 9.322504 -0.019570 90
-1.205607 9.122706 -0.691904 100
-1.541070 9.360271 0.180490 91
-0.634749 9.369698 0.124577 45
-1.215238 9.207582 -0.555028 71
-0.910371 9.173414 -0.568671 19
-1.227142 9.334305 0.161046 59
-0.912724 9.212988 -0.428504 66
-1.233943 9.398345 0.307826 81
-0.923556 9.338442 -0.001638 25
-0.926585 9.385283 0.143213 27
-1.503873 9.202345 -0.539275 44
-0.615669 9.250542 -0.304311 95
-1.514390 9.276559 -0.109918 61
-0.616989 9.294125 -0.162587 101
-1.194320 9.144520 -0.836039 29
-1.518707 9.312918 0.034585 35
-0.622126 9.395567 0.269596 29
-0.918725 9.354239 -1.379915 32
-1.203206 9.224713 -0.412678 76
-0.316048 9.222997 -0.462647 65
-0.623350 9.438282 0.416290 40
-0.917723 9.360321 -1.016750 21
-1.205937 9.257868 -0.270565 69
-0.311911 9.269156 -0.322249 11
-0.909113 9.331717 -0.868125 15
-1.201653 9.269570 -0.127256 75
-0.887495 9.125720 -0.707108 70
-1.206366 9.318220 0.016399 28
-0.898984 9.260023 -0.287500 23
-0.900061 9.287363 -0.144952 29
-0.595064 9.190139 -0.585860 101
-0.910122 9.407668 0.288772 26
-1.481192 9.176867 -0.394478 92
-0.595058 9.214082 -0.445121 100
-0.910311 9.426161 0.435000 15
-1.491894 9.253070 -0.253614 23
-0.601395 9.336631 -0.019595 83
-1.173278 9.122899 -0.691604 93
-1.506511 9.353743 0.180261 91
-0.599773 9.335931 0.124099 46
-1.182114 9.203841 -0.554551 76
-0.877272 9.164607 -0.567932 19
-1.195637 9.346457 0.161182 57
-0.879877 9.208155 -0.428134 58
-1.200703 9.398619 0.307696 89
-0.889903 9.329655 -0.001636 23
-1.461190 9.131044 -0.677451 30
-0.893160 9.380488 0.143092 30
-1.466166 9.172033 -0.537197 33
-0.583230 9.248638 -0.304180 100
-1.486522 9.309419 -0.110246 75
-0.585664 9.312180 -0.162866 100
-1.160500 9.132811 -0.834594 31
-1.485677 9.314193 0.034570 34
-0.590205 9.409645 0.269939 29
-0.884702 9.341617 -1.377591 36
-1.172131 9.236770 -0.413033 78
-0.283864 9.220047 -0.462447 51
-0.884806 9.359495 -1.016320 30
-1.172242 9.250104 -0.270217 71
-0.878023 9.350695 -0.869600 17
-1.171291 9.289581 -0.127474 64
-0.856007 9.132733 -0.707416 79
-1.173333 9.318406 0.016392 30
-0.867399 9.271067 -0.287747 26
-0.868008 9.294430 -0.145014 29
-0.562493 9.184191 -0.585353 101
-0.876907 9.406807 0.288650 25
-1.446034 9.162243 -0.393630 92
-0.562891 9.216104 -0.445121 94
-0.877772 9.433260 0.435183 16
-1.455850 9.234523 -0.252965 22
-0.567828 9.322702 -0.019562 96
-1.140436 9.119022 -0.691004 92
-1.471985 9.347093 0.180033 100
-0.568393 9.357929 0.124364 43
-1.149979 9.207911 -0.554551 71
-0.842710 9.139785 -0.566208 22
-1.163004 9.350574 0.161182 57
-0.847730 9.211170 -0.428134 66
-1.166902 9.394818 0.307437 82
-0.858063 9.340671 -0.001637 24
-1.434857 9.171561 -0.680081 100
-0.860776 9.387532 0.143153 29
-1.432292 9.165258 -0.536504 31
-0.551418 9.258599 -0.304442 100
-1.452783 9.306647 -0.110152 73
-0.552444 9.302191 -0.162656 100
-1.130567 9.152620 -0.836039 23
-1.453156 9.319323 0.034570 31
-0.555937 9.387699 0.269252 22
-0.849932 9.321001 -1.374105 35
-1.140370 9.244771 -0.413210 82
-0.851409 9.354606 -1.015460 36
-1.141901 9.270013 -0.270681 67
-0.844661 9.345769 -0.868863 19
-1.137397 9.281704 -0.127310 74
-0.824122 9.135666 -0.707416 85
-1.137883 9.298622 0.016350 29
-0.833598 9.258110 -0.287253 26
-0.834843 9.289436 -0.144890 33
-1.401587 9.076346 -0.814797 33
-1.748066 9.345775 0.053102 15
-0.530661 9.190084 -0.585606 101
-0.844780 9.417775 0.288894 25
-1.420135 9.206732 -0.395326 95
-0.531177 9.225989 -0.445507 100
-0.844482 9.432286 0.435000 16
-1.426651 9.259308 -0.253506 21
-0.534594 9.312648 -0.019537 89
-1.110523 9.138786 -0.692204 91
-1.440565 9.360080 0.180185 100
-0.534582 9.339890 0.124099 52
-1.116388 9.199978 -0.553835 68
-0.813623 9.174485 -0.568179 19
-1.129398 9.346635 0.161046 57
-0.815219 9.210093 -0.427949 74
-1.133143 9.390896 0.307177 100
-0.825101 9.339624 -0.001636 26
-1.397408 9.141023 -0.677451 100
-1.736479 9.362234 0.199456 25
-0.828353 9.394464 0.143213 31
-1.397879 9.154412 -0.535580 33
-0.518649 9.252484 -0.304180 100
-1.418479 9.299800 -0.110012 76
-0.519747 9.300069 -0.162587 100
-1.097662 9.148601 -0.835316 13
-1.425436 9.355972 0.034687 31
-0.824303 9.402760 -1.385725 45
-1.105716 9.228857 -0.412324 82
-0.817364 9.341674 -1.013740 35
-1.106686 9.250122 -0.269986 57
-0.812930 9.340587 -0.868125 18
-1.107041 9.289401 -0.127365 79
-0.794832 9.150270 -0.708339 73
-1.110323 9.330152 0.016399 26
-0.802537 9.256841 -0.287129 25
-1.716403 9.339130 -0.092811 5
-0.804040 9.292153 -0.144890 31
-1.372677 9.088822 -0.815504 79
-1.710570 9.316112 0.052901 36
-0.499338 9.175848 -0.584591 101
-0.811160 9.392639 0.288039 25
-1.389024 9.207436 -0.395157 101
-0.501052 9.235677 -0.445892 100
-0.814955 9.454937 0.435917 15
-1.395382 9.260028 -0.253398 25
-0.504630 9.330343 -0.019570 83
-1.076054 9.106762 -0.689504 95
-1.409575 9.364797 0.180185 100
-0.503896 9.345602 0.124152 38
-1.086414 9.207586 -0.554074 64
-0.784675 9.193034 -0.569164 18
-1.098055 9.346342 0.160977 57
-0.783794 9.200790 -0.427394 77
-1.102603 9.398556 0.307307 93
-0.793605 9.334325 -0.001635 24
-1.362523 9.114019 -0.675113 100
-1.705581 9.367912 0.199456 31
-0.795004 9.369247 0.142788 31
-1.370634 9.178720 -0.536735 39
-0.487943 9.250151 -0.304049 100
-1.387822 9.304424 -0.110012 71
-0.488481 9.289749 -0.162377 100
-1.388128 9.317098 0.034526 37
-0.792013 9.389648 -1.383401 57
-1.077178 9.248323 -0.413033 72
-0.789626 9.379978 -1.017609 29
-1.077169 9.261656 -0.270217 55
-0.781646 9.359244 -0.869600 18
-1.072771 9.277316 -0.127147 69
-0.762224 9.145041 -0.707724 51
-1.076371 9.322050 0.016378 29
-0.770551 9.263571 -0.287253 25
-1.671736 9.278146 -0.092146 37
-0.771269 9.290917 -0.144828 32
-1.339199 9.081734 -0.814443 71
-1.678040 9.322026 0.052901 34
-0.468117 9.193481 -0.585606 101
-0.779689 9.411351 0.288528 25
-1.356875 9.212228 -0.395157 101
-0.467190 9.205448 -0.444351 101
-0.780300 9.437813 0.435000 16
-1.361886 9.256930 -0.253181 27
-0.472260 9.336042 -0.019578 85
-1.046530 9.130277 -0.691004 97
-1.376877 9.369659 0.180185 100
-1.053813 9.207355 -0.553835 68
-1.377076 9.381866 0.326162 12
-0.749649 9.159905 -0.566947 21
-1.064518 9.342171 0.160840 57
-0.752323 9.211434 -0.427764 66
-1.069338 9.398376 0.307177 95
-0.760693 9.333051 -0.001634 26
-1.330125 9.114773 -0.674820 101
-1.670763 9.361999 0.199204 31
-0.763591 9.387911 0.143031 28
-1.339738 9.191351 -0.537197 45
-0.455847 9.255791 -0.304180 99
-1.353030 9.293380 -0.109825 81
-0.456247 9.295392 -0.162447 101
-1.356748 9.329803 0.034555 36
-0.757957 9.376576 -1.381077 56
-1.044889 9.252028 -0.413033 69
-0.757838 9.394569 -1.018899 35
-1.043937 9.257414 -0.269986 55
-0.748654 9.357945 -0.869231 18
-1.041717 9.292929 -0.127310 69
-0.732519 9.175473 -0.709877 30
-1.041600 9.305875 0.016343 32
-0.736305 9.242290 -0.286512 23
-1.634470 9.256352 -0.091873 30
-0.737882 9.281592 -0.144641 32
-1.309192 9.098184 -0.815504 83
-1.644795 9.323888 0.052879 38
-0.435834 9.191072 -0.585353 95
-0.745252 9.394088 0.287917 24
-1.324142 9.212953 -0.394987 101
-0.435243 9.211014 -0.444544 101
-0.746720 9.432512 0.434633 16
-1.047671 9.416813 -1.272640 16
-1.326724 9.241838 -0.252640 26
-0.438164 9.305670 -0.019511 85
-1.014213 9.129910 -0.690704 99
-1.340189 9.346698 0.179653 100
-1.021667 9.210979 -0.553835 68
-1.344319 9.386617 0.326162 20
-0.717047 9.154506 -0.566455 22
-1.031023 9.337879 0.160703 67
-0.719231 9.202054 -0.427209 67
-1.035210 9.390129 0.306788 94
-1.617412 9.240553 -0.235821 27
-0.728109 9.335649 -0.001634 28
-1.300550 9.135159 -0.675989 101
-1.636695 9.359895 0.199037 36
-0.731127 9.394506 0.143092 30
-1.307646 9.195971 -0.537197 55
-0.422805 9.241351 -0.303655 97
-1.040056 9.477525 -1.012204 22
-1.322832 9.313887 -0.110012 75
-0.423433 9.288938 -0.162307 101
-1.321363 9.314681 0.034482 32
-0.727358 9.406786 -1.385144 49
-1.011718 9.247674 -0.412678 77
-0.724734 9.393192 -1.018469 35
-1.010748 9.253052 -0.269754 74
-0.718762 9.396240 -0.872550 18
-1.008885 9.292527 -0.127256 74
-0.724187 9.488147 -0.733867 13
-1.010862 9.325357 0.016371 30
-0.706175 9.272710 -0.287376 25
-1.023187 9.453908 0.455092 15
-1.604205 9.273824 -0.091990 30
-0.706987 9.304052 -0.144952 30
-1.280188 9.122428 -0.817271 95
-1.614957 9.345339 0.052968 38
-0.711526 9.384674 0.287551 29
-1.293061 9.225437 -0.395326 101
-0.403922 9.232436 -0.445507 101
-0.714654 9.447018 0.435183 16
-1.011781 9.392826 -1.268913 19
-1.293862 9.242459 -0.252532 24
-0.981855 9.129434 -0.690404 87
-1.307498 9.351327 0.179653 101
-0.989862 9.218466 -0.554074 80
-1.313683 9.407099 0.326712 17
-0.684966 9.156961 -0.566455 23
-0.999147 9.349388 0.160840 57
-1.577652 9.193970 -0.377927 18
-0.688453 9.224442 -0.428134 56
-1.001861 9.389726 0.306658 92
-1.583656 9.238284 -0.235620 26
-0.695360 9.338146 -0.001634 24
-1.275081 9.187080 -0.679496 101
-1.603180 9.361636 0.198953 31
-0.697561 9.389037 0.142970 31
-1.277559 9.216326 -0.538121 52
-0.391029 9.258756 -0.304180 89
-0.998373 9.402010 -1.003758 22
-1.289024 9.310550 -0.109918 87
-0.390799 9.290368 -0.162307 100
-1.002079 9.452052 -0.861679 7
-1.288085 9.315303 0.034467 36
-0.696329 9.436913 -1.389211 39
-0.978788 9.247199 -0.412501 82
-0.693450 9.419479 -1.021049 19
-0.978623 9.260525 -0.269870 72
-0.688278 9.430471 -0.875501 16
-0.975606 9.288036 -0.127147 82
-0.691932 9.502550 -0.734790 12
-0.977887 9.324851 0.016364 30
-0.673802 9.275119 -0.287376 25
-0.988933 9.445501 0.454518 31
-1.572492 9.283311 -0.092029 37
-0.674217 9.302474 -0.144890 33
-1.249957 9.138683 -0.818332 99
-1.580991 9.343032 0.052924 39
-0.679916 9.403051 0.288039 24
-1.260310 9.225935 -0.395157 101
-0.371692 9.233789 -0.445507 98
-0.681099 9.441483 0.434816 18
-0.976112 9.368699 -1.265185 20
-1.263213 9.258804 -0.252857 25
-0.948331 9.116937 -0.689204 100
-1.275388 9.359797 0.179729 99
-0.956028 9.205979 -0.553119 71
-1.279221 9.399744 0.326299 20
-0.653282 9.163280 -0.566701 21
-0.966506 9.352818 0.160840 65
-1.542900 9.183655 -0.377279 31
-0.653982 9.194904 -0.426654 67
-0.969899 9.401119 0.306917 91
-1.549413 9.231925 -0.235318 32
-0.662759 9.340516 -0.001634 23
-1.238192 9.155896 -0.676866 101
-1.571153 9.371119 0.199037 33
-0.664783 9.391416 0.142970 29
-1.244846 9.216772 -0.537890 49
-0.357934 9.240089 -0.303524 97
-0.671316 9.506415 0.584555 5
-0.964329 9.393567 -1.002491 20
-1.253843 9.295174 -0.109684 85
-0.966236 9.427752 -0.859152 7
-1.255561 9.319742 0.034467 35
-0.945283 9.238633 -0.411969 90
-0.661678 9.437711 -1.022768 23
-0.947510 9.275818 -0.270217 67
-0.942775 9.287407 -0.127092 79
-0.944928 9.324228 0.016357 32
-1.519038 9.152308 -0.518693 40
-0.641146 9.273425 -0.287253 24
-0.956358 9.452870 0.454710 34
-1.538115 9.276905 -0.091912 38
-0.640640 9.288811 -0.144641 36
-1.214892 9.119294 -0.816211 100
-1.547061 9.340601 0.052879 42
-0.646266 9.393401 0.287673 29
-1.227570 9.226316 -0.394987 101
-0.339458 9.235031 -0.445507 100
-0.647864 9.439817 0.434633 17
-0.943006 9.368105 -1.264653 28
-1.231413 9.267121 -0.252965 24
-0.916102 9.116222 -0.688905 100
-1.242182 9.360227 0.179653 100
-0.923488 9.205287 -0.552881 90
-1.249553 9.427930 0.327124 18
-0.620482 9.153554 -0.565962 22
-0.932661 9.344196 0.160635 60
-1.506943 9.165322 -0.376307 30
-0.623499 9.221050 -0.427764 78
-0.936680 9.400469 0.306788 88
-1.516530 9.233332 -0.235218 32
-0.629613 9.334791 -0.001633 26
-1.207787 9.172028 -0.677743 101
-1.534548 9.352868 0.198534 35
-0.630923 9.377716 0.142728 29
-1.212145 9.217102 -0.537659 53
-0.326241 9.257264 -0.304049 59
-0.930356 9.385001 -1.001225 26
-1.221389 9.299494 -0.109684 87
-0.932144 9.419174 -0.858068 6
-1.223541 9.328034 0.034482 36
-0.912242 9.233923 -0.411615 82
-0.913556 9.263152 -0.269754 76
-0.910765 9.294619 -0.127147 74
-0.913558 9.339411 0.016378 34
-1.489017 9.169378 -0.519363 62
-0.607469 9.255659 -0.286635 30
-0.921420 9.436268 0.453754 35
-1.506369 9.286165 -0.091951 41
-0.607947 9.287000 -0.144579 30
