# This PCD file was generated using the MATLAB® pcwrite function
# from Computer Vision Toolbox®.
# .PCD v.7 - Point Cloud Data file format
VERSION .7
FIELDS x y z intensity
SIZE 4 4 4 1
TYPE F F F U
COUNT 1 1 1 1
WIDTH 1466
HEIGHT 1
VIEWPOINT 0 0 0 1 0 0 0
POINTS 1466
DATA ascii
-1.496765 6.775993 -0.254454 101
-1.757090 6.912400 0.409993 101
-1.891437 6.562415 -0.645583 101
-1.505779 6.822217 -0.148784 101
-1.896172 6.582980 -0.541562 101
-1.530354 6.939067 0.176144 101
-1.732970 6.827073 -1.285879 32
-1.917655 6.661750 -0.227545 53
-1.531871 6.951475 0.285899 101
-1.750492 6.900939 -0.797321 48
-1.927232 6.699235 -0.121678 70
-1.687853 6.658671 -0.450235 101
-1.697067 6.699725 -0.346484 101
-1.488459 6.786189 -1.444072 47
-1.694808 6.709068 -0.240436 101
-1.445537 6.595769 -0.769329 101
-1.713968 6.789692 -0.135681 101
-1.465848 6.693799 -0.462345 101
-1.730148 6.858620 0.188932 101
-1.476320 6.747019 -0.359545 101
-1.737856 6.894039 0.299228 101
-1.499376 6.857881 -0.041657 101
-1.892841 6.620820 -0.438062 101
-1.502458 6.877486 0.066349 101
-1.894457 6.630666 -0.332445 101
-1.526318 6.992315 0.397630 101
-1.664779 6.618147 -0.658310 101
-1.916409 6.711748 -0.014619 93
-1.669828 6.642917 -0.554713 101
-1.930488 6.765338 0.093326 10
-1.448954 6.659271 -0.670627 101
-1.705027 6.797364 -0.028132 101
-1.452399 6.680479 -0.566871 100
-1.711574 6.828304 0.079865 101
-1.474801 6.788989 -0.254747 101
-1.731010 6.910744 0.409534 101
-1.867429 6.565147 -0.645207 101
-1.480260 6.819615 -0.148614 101
-1.877543 6.604901 -0.542823 101
-1.508665 6.956091 0.176442 101
-1.706264 6.821629 -1.283724 36
-1.898759 6.683786 -0.228069 61
-1.510136 6.968499 0.286380 101
-1.723501 6.895437 -0.795985 39
-1.900559 6.694380 -0.121469 59
-1.665567 6.668395 -0.450497 101
-1.676573 6.717236 -0.347085 101
-1.464761 6.791344 -1.444072 48
-1.675241 6.730460 -0.240992 101
-2.054978 6.472565 -0.628782 32
-1.427528 6.624085 -0.772046 101
-1.682534 6.764586 -0.135061 101
-1.442473 6.698875 -0.462345 101
-1.704267 6.856857 0.188718 101
-1.455280 6.763847 -0.360168 101
-1.718598 6.919456 0.300069 101
-1.472907 6.851342 -0.041586 101
-1.867551 6.619703 -0.437554 101
-1.485162 6.913974 0.066651 101
-1.872384 6.641084 -0.332637 101
-1.501063 6.993695 0.397408 101
-1.642625 6.627783 -0.658694 101
-1.896224 6.729947 -0.014644 100
-1.644713 6.640965 -0.554068 101
-1.906860 6.772036 0.093326 100
-1.426533 6.668181 -0.671018 101
-1.679370 6.795508 -0.028100 101
-1.427404 6.677711 -0.566210 100
-1.683893 6.818705 0.079683 101
-1.450259 6.790186 -0.254600 101
-1.717401 6.959392 0.412059 101
-1.846653 6.579294 -0.645959 101
-1.459784 6.840384 -0.148955 101
-1.855553 6.615254 -0.543138 101
-1.481873 6.949582 0.176144 101
-1.679617 6.816081 -1.281569 35
-1.871101 6.674976 -0.227545 64
-1.487468 6.981545 0.286702 101
-1.700371 6.905272 -0.796430 35
-1.877180 6.700973 -0.121469 70
-1.643233 6.678043 -0.450758 101
-1.913303 6.834324 0.203198 45
-1.651207 6.715289 -0.346685 101
-1.445144 6.815563 -1.448142 47
-1.652725 6.740140 -0.241131 101
-2.038367 6.498690 -0.630626 101
-1.403595 6.625135 -0.771593 101
-1.660837 6.778181 -0.135216 101
-2.043502 6.518927 -0.526871 95
-1.420743 6.711677 -0.462884 101
-1.680330 6.862762 0.188718 101
-1.428350 6.753254 -0.359337 101
-1.684931 6.886595 0.298387 101
-1.445655 6.840791 -0.041491 101
-1.842273 6.618495 -0.437046 101
-1.458506 6.907382 0.066538 101
-1.850230 6.651437 -0.332830 101
-1.475769 6.994995 0.397187 101
-1.615657 6.618016 -0.657157 101
-1.876959 6.751953 -0.014678 100
-1.619573 6.638934 -0.553422 101
-1.876726 6.755545 0.093008 69
-1.399872 6.657559 -0.669451 101
-1.655537 6.801353 -0.028100 101
-2.036928 6.532799 -0.422132 29
-1.406431 6.694380 -0.567202 100
-1.664691 6.844001 0.079910 101
-1.428061 6.803059 -0.254894 101
-1.692022 6.961496 0.411829 101
-1.823550 6.585734 -0.645959 101
-1.434112 6.837641 -0.148784 101
-1.830184 6.614043 -0.542508 101
-1.457445 6.954746 0.176144 101
-1.651945 6.806645 -1.278696 35
-1.843373 6.666096 -0.227020 83
-1.459637 6.971084 0.286059 101
-1.666715 6.872575 -0.791979 35
-1.850413 6.695967 -0.121259 82
-1.620672 6.687662 -0.451020 101
-1.878606 6.802471 0.202054 100
-1.629441 6.728824 -0.347085 101
-1.888102 6.841369 0.312349 5
-1.421344 6.820566 -1.448142 43
-1.632003 6.757526 -0.241548 101
-2.012133 6.494352 -0.629520 101
-1.378030 6.618322 -0.770235 101
-1.638105 6.787825 -0.135294 101
-2.020735 6.526021 -0.526871 101
-1.396493 6.712688 -0.462615 101
-1.659177 6.880247 0.189039 101
-1.410458 6.785575 -0.360792 101
-1.666499 6.915746 0.299396 101
-1.880437 6.843505 -0.781026 0
-1.427461 6.873210 -0.041657 101
-1.820216 6.628735 -0.437300 101
-1.433573 6.908515 0.066500 101
-1.827001 6.657855 -0.332830 101
-1.594407 6.631358 -0.657925 101
-1.856553 6.770037 -0.014703 101
-1.601046 6.663930 -0.555036 101
-1.848905 6.746625 0.092796 55
-1.377429 6.666303 -0.669843 101
-1.628056 6.791532 -0.028035 101
-2.028213 6.585657 -0.425087 101
-1.381443 6.691441 -0.566541 100
-1.635201 6.826432 0.079638 101
-1.401883 6.796257 -0.254454 101
-1.669571 6.975128 0.412288 101
-1.798452 6.584376 -0.645207 101
-1.407007 6.826938 -0.148444 101
-1.804985 6.612698 -0.541878 101
-1.429933 6.944125 0.175748 101
-1.628175 6.812370 -1.278696 47
-1.822197 6.680204 -0.227282 98
-1.433684 6.968307 0.285738 101
-1.602085 6.708229 -0.772391 29
-1.827029 6.702385 -0.121259 93
-1.594538 6.681631 -0.450235 101
-1.854850 6.808987 0.202054 101
-1.607797 6.742243 -0.347486 101
-1.873657 6.882620 0.313932 81
-1.399884 6.836996 -1.450584 49
-1.604705 6.747625 -0.240992 101
-1.868996 6.882157 0.423685 9
-1.988286 6.497528 -0.629151 101
-1.356512 6.630879 -0.771140 101
-1.614401 6.793501 -0.135294 101
-2.003774 6.552104 -0.528409 101
-1.373053 6.717522 -0.462615 101
-1.630531 6.866545 0.188505 101
-1.384366 6.778716 -0.360168 101
-1.639580 6.909855 0.298892 101
-1.856537 6.850027 -0.781026 1
-1.403460 6.878151 -0.041657 101
-1.800197 6.646607 -0.438062 101
-1.408650 6.909558 0.066463 101
-1.805837 6.671905 -0.333215 101
-1.571250 6.636883 -0.657925 101
-1.836043 6.788060 -0.014728 101
-1.575939 6.661718 -0.554391 101
-1.832649 6.780066 0.093167 60
-1.351776 6.659367 -0.668668 101
-1.608934 6.816638 -0.028116 101
-2.004050 6.588876 -0.424841 101
-1.359661 6.704036 -0.567202 100
-1.619626 6.867135 0.080046 101
-2.016217 6.632911 -0.320869 26
-1.378945 6.805027 -0.254600 101
-1.643381 6.973139 0.411829 101
-1.777529 6.598304 -0.645959 101
-1.388723 6.859245 -0.149040 101
-1.787075 6.638210 -0.543454 101
-1.410442 6.972590 0.176343 101
-1.603485 6.814181 -1.277977 40
-1.803022 6.701966 -0.227807 100
-1.414102 6.996775 0.286702 101
-1.557732 6.624779 -0.762151 64
-1.806737 6.720309 -0.121469 100
-1.574857 6.702699 -0.451282 101
-1.831071 6.815420 0.202054 101
-1.580600 6.732257 -0.346685 101
-1.839259 6.850524 0.312174 56
-1.381791 6.864646 -1.455468 37
-1.583183 6.756813 -0.241131 101
-1.848180 6.896044 0.424159 63
-1.967833 6.507912 -0.629520 101
-1.332919 6.627555 -0.770235 101
-1.588186 6.783249 -0.134984 101
-1.975083 6.535815 -0.526564 101
-1.353116 6.733778 -0.463422 101
-1.610472 6.883597 0.188825 101
-1.361100 6.779352 -0.359961 101
-1.615755 6.911361 0.298723 101
-1.830736 6.844621 -0.779713 7
-1.379884 6.878840 -0.041634 101
-1.778172 6.652534 -0.438062 101
-1.388134 6.925947 0.066576 101
-1.781685 6.670125 -0.332830 101
-1.548391 6.638165 -0.657541 101
-1.812556 6.790229 -0.014719 100
-1.556637 6.678537 -0.555359 101
-1.817456 6.813135 0.093539 80
-1.332161 6.675497 -0.669843 101
-1.583744 6.810215 -0.028068 101
-1.974283 6.568680 -0.423117 101
-1.332904 6.685020 -0.565218 101
-1.591575 6.849055 0.079774 101
-1.984022 6.605072 -0.319205 101
-1.358113 6.817367 -0.254894 101
-1.622239 6.986288 0.412288 101
-1.756837 6.607965 -0.646336 101
-1.358363 6.824551 -0.148188 101
-1.763198 6.636341 -0.542823 101
-1.387536 6.977184 0.176343 101
-1.581098 6.819410 -1.277977 46
-1.781003 6.707851 -0.227807 100
-1.389578 6.993536 0.286380 101
-1.526117 6.587256 -0.757254 92
-1.788779 6.741663 -0.121748 101
-1.551974 6.703937 -0.451020 101
-1.813841 6.840711 0.202626 101
-1.561240 6.749075 -0.347286 101
-1.818856 6.864237 0.312525 49
-1.356301 6.861744 -1.453840 42
-1.558689 6.758403 -0.240992 101
-1.821037 6.890872 0.423448 53
-1.938267 6.491843 -0.627307 101
-1.311316 6.639965 -0.771140 101
-1.567193 6.800443 -0.135216 101
-1.945415 6.519740 -0.524718 101
-1.328830 6.734545 -0.463153 101
-1.588229 6.896970 0.189039 101
-1.997160 6.697222 -0.215965 100
-1.338973 6.791900 -0.360376 101
-1.597893 6.944222 0.299901 101
-1.808861 6.858659 -0.780588 27
-1.353544 6.871841 -0.041562 101
-1.753922 6.654840 -0.437808 101
-1.361633 6.918977 0.066463 101
-1.760426 6.684031 -0.333215 101
-1.526992 6.651290 -0.658310 101
-1.789861 6.800383 -0.014728 100
-1.530640 6.672272 -0.554391 101
-1.791628 6.811701 0.093432 89
-1.308851 6.680106 -0.669843 101
-1.559962 6.815702 -0.028068 101
-1.947934 6.564050 -0.422378 101
-1.312624 6.705280 -0.566541 100
-1.570333 6.866266 0.079910 101
-1.959818 6.608127 -0.319020 101
-1.335075 6.825989 -0.255040 101
-1.592505 6.968549 0.410911 101
-1.731740 6.606353 -0.645583 101
-1.338368 6.848875 -0.148614 101
-1.736991 6.630883 -0.541878 101
-1.360874 6.970212 0.176045 101
-1.554658 6.813379 -1.275822 50
-1.756565 6.710160 -0.227676 101
-1.367454 7.010113 0.286862 101
-1.509300 6.619673 -0.760371 101
-1.773333 6.778820 -0.122306 101
-1.528563 6.709314 -0.451020 101
-1.787929 6.839264 0.202397 101
-1.538559 6.758379 -0.347486 101
-1.800945 6.893743 0.313581 60
-1.333833 6.874126 -1.455468 48
-1.532434 6.752107 -0.240575 101
-1.790932 6.874003 0.422024 47
-1.918973 6.510030 -0.628413 101
-1.288130 6.644502 -0.771140 101
-1.541676 6.798071 -0.135061 101
-1.926026 6.537968 -0.525641 101
-1.304555 6.735225 -0.462884 101
-1.562377 6.894672 0.188825 101
-1.962478 6.665799 -0.214729 101
-1.316015 6.800454 -0.360584 101
-1.572761 6.945860 0.299733 101
-1.778906 6.841843 -0.777963 17
-1.972229 6.703035 -0.108543 18
-1.331827 6.888306 -0.041634 101
-1.729678 6.657058 -0.437554 101
-1.339749 6.935470 0.066576 101
-1.736080 6.686268 -0.333022 101
-1.502888 6.652696 -0.657925 101
-1.763098 6.794974 -0.014703 100
-1.507341 6.677574 -0.554391 101
-1.770851 6.829529 0.093592 100
-1.287028 6.692452 -0.670627 101
-1.534404 6.813302 -0.028035 101
-1.936234 6.609123 -0.424841 101
-1.288458 6.705907 -0.566210 100
-1.545477 6.867803 0.079865 101
-1.932248 6.599589 -0.318280 101
-1.307472 6.810980 -0.254307 101
-1.569046 6.977962 0.411140 101
-1.706676 6.604646 -0.644830 101
-1.315959 6.861360 -0.148784 101
-1.715828 6.644628 -0.542508 101
-1.335783 6.970992 0.175946 101
-1.529141 6.811085 -1.274385 101
-1.736128 6.727864 -0.228069 101
-1.340721 7.003067 0.286380 101
-1.482703 6.609386 -0.758590 101
-1.743667 6.761732 -0.121888 101
-1.505134 6.714609 -0.451020 101
-1.762049 6.837719 0.202168 101
-1.510592 6.744217 -0.346484 101
-1.780857 6.915467 0.314284 57
-1.514968 6.784723 -0.241548 101
-1.773893 6.907281 0.423685 49
-1.900702 6.531982 -0.629889 101
-1.265680 6.652861 -0.771593 101
-1.523171 6.826829 -0.135526 101
-1.913224 6.579114 -0.528409 101
-1.280295 6.735816 -0.462615 101
-1.538304 6.900084 0.188825 101
-1.936970 6.664929 -0.214482 101
-1.292267 6.805007 -0.360584 101
-1.549373 6.955209 0.299901 101
-1.755010 6.848011 -0.777963 37
-1.947701 6.706038 -0.108481 101
-1.310749 6.908634 -0.041728 101
-1.703452 6.651456 -0.436792 101
-1.314773 6.936176 0.066538 101
-1.709746 6.680679 -0.332445 101
-1.476184 6.642359 -0.656389 101
-1.736377 6.789465 -0.014678 100
-1.483999 6.682800 -0.554391 101
-1.746977 6.835675 0.093592 97
-1.262882 6.693000 -0.670235 101
-1.511437 6.822530 -0.028052 101
-1.913113 6.615853 -0.424841 101
-1.266475 6.718206 -0.566871 100
-1.521449 6.873166 0.079865 101
-1.905828 6.594790 -0.317725 101
-1.285858 6.827297 -0.254747 101
-1.546352 6.991206 0.411600 101
-1.686511 6.622153 -0.645959 101
-1.958928 6.782787 -0.001232 101
-1.291944 6.865922 -0.148784 101
-1.694536 6.658319 -0.543138 101
-1.312856 6.983484 0.176144 101
-1.501053 6.797183 -1.270793 50
-1.710601 6.726149 -0.227807 101
-1.320625 7.031286 0.287344 101
-1.462128 6.626182 -0.759926 101
-1.719988 6.767795 -0.121888 101
-1.478178 6.704246 -0.449974 101
-1.739082 6.847723 0.202283 101
-1.491262 6.768973 -0.347486 101
-1.755644 6.917788 0.314108 73
-1.487845 6.774352 -0.240992 101
-1.745852 6.897947 0.422736 60
-1.872393 6.519436 -0.628045 101
-1.241720 6.653331 -0.771140 101
-1.494188 6.808667 -0.135061 101
-1.890247 6.585752 -0.528409 101
-1.258238 6.748091 -0.463153 101
-1.515065 6.909317 0.188932 101
-1.732644 6.855396 -1.150819 14
-1.917000 6.683179 -0.214853 100
-1.267042 6.801622 -0.360168 101
-1.521664 6.944959 0.299228 101
-1.735964 6.873370 -0.780151 28
-1.919873 6.697417 -0.108233 101
-1.280038 6.877775 -0.041515 101
-1.681200 6.661232 -0.437046 101
-1.292016 6.948588 0.066613 101
-1.687392 6.690480 -0.332637 101
-1.457240 6.666920 -0.658310 101
-1.716577 6.811000 -0.014711 100
-1.458961 6.680150 -0.553745 101
-1.718221 6.822339 0.093326 100
-1.238787 6.693453 -0.669843 101
-1.489316 6.835581 -0.028084 101
-1.883434 6.599456 -0.423363 101
-1.241567 6.714746 -0.566210 100
-1.498299 6.882343 0.079910 101
-1.883892 6.605245 -0.317910 101
-1.262018 6.831743 -0.254747 101
-1.521090 6.992659 0.411370 69
-1.663385 6.628000 -0.645959 101
-1.936336 6.793430 -0.001233 101
-1.269421 6.878255 -0.148955 101
-1.672254 6.668061 -0.543454 101
-1.945934 6.831436 0.107866 15
-1.290646 6.999822 0.176442 101
-1.483998 6.833144 -1.276540 41
-1.690028 6.743713 -0.228201 101
-1.294625 7.027992 0.287023 101
-1.444047 6.654553 -0.762597 101
-1.697325 6.777637 -0.121957 101
-1.458150 6.724968 -0.451020 101
-1.720021 6.873145 0.202855 101
-1.465933 6.766328 -0.347085 101
-1.727608 6.908367 0.313405 82
-1.463345 6.775597 -0.240853 101
-1.722730 6.907874 0.422973 74
-1.852882 6.537428 -0.629151 101
-1.220635 6.669353 -0.772499 101
-1.472943 6.825569 -0.135294 101
-1.869420 6.599985 -0.529024 101
-1.235393 6.756367 -0.463422 101
-1.489252 6.906746 0.188718 101
-1.704887 6.846078 -1.148249 17
-1.890393 6.678289 -0.214482 100
-1.245446 6.817792 -0.360792 101
-1.501621 6.969762 0.300069 101
-1.653391 6.644031 -0.753460 65
-1.896482 6.704078 -0.108233 101
-1.260332 6.905811 -0.041657 101
-1.663718 6.690304 -0.438570 101
-1.924073 6.805955 0.216091 5
-1.267035 6.949121 0.066576 101
-1.661137 6.684697 -0.332059 101
-1.435632 6.679751 -0.659078 101
-1.696648 6.832479 -0.014745 100
-1.438146 6.696896 -0.554713 101
-1.699213 6.847704 0.093592 99
-1.216126 6.701653 -0.670235 101
-1.467122 6.848560 -0.028116 101
-1.865798 6.625205 -0.424595 101
-1.220965 6.734729 -0.567532 100
-1.474266 6.887532 0.079910 101
-1.874897 6.661782 -0.320314 101
-1.240300 6.847907 -0.255187 101
-1.640239 6.633766 -0.645959 101
-1.899615 6.753941 -0.001225 101
-1.246116 6.886580 -0.149040 101
-1.648011 6.669987 -0.543138 101
-1.905842 6.780432 0.106955 100
-1.264070 6.992479 0.176144 101
-1.459315 6.834435 -1.275822 53
-1.665519 6.745690 -0.228069 101
-1.268664 7.024601 0.286702 101
-1.419980 6.655666 -0.762151 101
-1.672698 6.779637 -0.121888 101
-2.061883 6.538486 -0.621522 100
-1.433002 6.722209 -0.450497 101
-1.695062 6.875225 0.202740 101
-1.442305 6.771404 -0.347085 101
-1.702527 6.910475 0.313229 88
-1.441382 6.788476 -0.241131 101
-1.702454 6.929347 0.423922 67
-1.833304 6.555354 -0.630257 101
-1.194561 6.657922 -0.770687 101
-1.448301 6.826752 -0.135216 101
-1.843172 6.594941 -0.528101 101
-1.210401 6.752780 -0.462884 101
-1.464314 6.907989 0.188611 101
-1.680988 6.851985 -1.148249 15
-1.869230 6.692546 -0.214729 100
-1.219522 6.810303 -0.360168 101
-1.475621 6.967144 0.299733 101
-1.614090 6.584115 -0.746022 39
-1.873064 6.710659 -0.108233 101
-1.235494 6.906235 -0.041634 101
-1.638436 6.688320 -0.438062 101
-1.908879 6.843444 0.217068 101
-1.244144 6.961382 0.066651 101
-1.639661 6.698224 -0.332445 101
-1.939861 6.959069 0.331848 5
-1.408969 6.669149 -0.657541 101
-1.667038 6.815059 -0.014694 100
-2.045501 6.531888 -0.514654 101
-1.413054 6.694086 -0.554068 101
-1.671440 6.838068 0.093379 100
-1.197504 6.733310 -0.672977 101
-1.443928 6.857575 -0.028132 101
-1.838286 6.616318 -0.423610 101
-1.198729 6.746820 -0.568193 100
-1.451745 6.900488 0.080001 101
-1.852587 6.672168 -0.320499 101
-1.214163 6.840411 -0.254747 101
-1.617889 6.643351 -0.646336 101
-1.873760 6.752858 -0.001223 101
-1.218433 6.871225 -0.148614 101
-1.622692 6.667984 -0.542508 101
-1.882020 6.787083 0.106955 100
-1.240888 7.004752 0.176343 101
-1.436908 6.847222 -1.277259 67
-1.639917 6.743731 -0.227807 101
-1.244656 7.032954 0.286862 101
-1.393309 6.645055 -0.760371 101
-1.649796 6.789362 -0.121957 101
-2.032959 6.526678 -0.619716 101
-1.411801 6.738929 -0.451282 101
-1.671810 6.885031 0.202855 101
-1.420918 6.788169 -0.347686 101
-1.679135 6.920308 0.313405 96
-1.887966 6.826470 -0.765679 2
-1.419310 6.801293 -0.241409 101
-1.677316 6.931366 0.423685 80
-1.810410 6.561714 -0.630257 101
-1.172690 6.669880 -0.771593 101
-1.425279 6.835681 -0.135294 101
-1.824380 6.616714 -0.529332 101
-1.187513 6.760895 -0.463153 101
-1.441007 6.916973 0.188718 101
-1.654278 6.846299 -1.146321 17
-1.844795 6.695176 -0.214606 100
-1.197814 6.826322 -0.360792 101
-1.455364 6.991815 0.300574 101
-1.591098 6.589709 -0.746022 59
-1.849628 6.717156 -0.108233 101
-1.214833 6.930204 -0.041752 101
-1.613207 6.686238 -0.437554 101
-1.873311 6.807662 0.215724 101
-1.219837 6.965683 0.066651 101
-1.620015 6.719443 -0.333215 101
-1.891189 6.877184 0.327626 36
-1.386490 6.677925 -0.657925 101
-1.643239 6.820836 -0.014694 100
-2.017973 6.523745 -0.513454 101
-1.391298 6.706785 -0.554713 101
-1.646624 6.839972 0.093326 100
-2.048443 6.626220 -0.414482 8
-1.171943 6.725685 -0.671802 101
-1.415119 6.839072 -0.028035 101
-1.818345 6.634245 -0.424348 101
-1.175171 6.750963 -0.568193 100
-1.427649 6.905514 0.080001 101
-1.832452 6.690156 -0.321054 101
-1.192333 6.856421 -0.255187 101
-1.592832 6.641213 -0.645583 101
-1.853345 6.770931 -0.001225 101
-1.199232 6.903017 -0.149210 101
-1.599407 6.673608 -0.542508 101
-1.865704 6.820616 0.107380 101
-1.215062 7.001162 0.176144 101
-1.407435 6.825219 -1.272230 62
-1.615436 6.745527 -0.227676 101
-1.888638 6.909052 0.439334 0
-1.218734 7.029380 0.286541 101
-1.372511 6.661558 -0.761706 101
-1.625156 6.791190 -0.121888 101
-2.001964 6.507082 -0.617188 101
-1.387465 6.739906 -0.451020 101
-1.644047 6.875269 0.202397 101
-1.394800 6.781349 -0.347085 101
-1.651254 6.910581 0.312701 100
-1.859939 6.817672 -0.763959 3
-1.397166 6.814038 -0.241686 101
-1.659590 6.964368 0.425345 88
-1.789587 6.575679 -0.630995 101
-1.149401 6.673933 -0.771593 101
-1.399001 6.828861 -0.135061 101
-1.798133 6.611496 -0.528409 101
-1.164582 6.768932 -0.463422 101
-1.419259 6.933712 0.189039 101
-1.616662 6.794419 -1.136683 14
-1.821413 6.701575 -0.214606 98
-1.175331 6.838335 -0.361208 101
-1.425344 6.969444 0.299396 101
-1.566246 6.587486 -0.745147 82
-1.830363 6.739010 -0.108481 101
-1.186573 6.910749 -0.041610 101
-1.590781 6.695712 -0.437808 101
-1.851631 6.821877 0.215968 101
-1.196191 6.973841 0.066689 101
-1.596550 6.725057 -0.333215 101
-1.865080 6.876031 0.327259 82
-1.364763 6.690526 -0.658694 101
-1.625883 6.853775 -0.014753 100
-1.983535 6.492603 -0.510455 101
-1.368675 6.715508 -0.555036 101
-1.625506 6.857353 0.093485 100
-2.019471 6.614236 -0.413289 85
-1.147120 6.721886 -0.671018 101
-1.396816 6.871409 -0.028148 101
-1.793093 6.632844 -0.423856 101
-1.152268 6.758954 -0.568524 92
-1.401147 6.898696 0.079865 101
-1.803877 6.677224 -0.320129 101
-1.169063 6.864482 -0.255333 101
-1.571470 6.654484 -0.646336 101
-1.840124 6.815977 -0.001232 101
-1.173117 6.895334 -0.148955 101
-1.575186 6.675269 -0.542193 101
-1.839801 6.819364 0.107258 100
-1.193296 7.021129 0.176541 101
-1.396102 6.891796 -1.283724 42
-1.594632 6.762798 -0.228069 100
-1.878020 6.965716 0.442518 17
-1.194189 7.033591 0.286541 101
-1.350827 6.674100 -0.762597 101
-1.601441 6.796822 -0.121888 101
-1.973447 6.494972 -0.615382 101
-1.367094 6.760357 -0.452066 101
-1.621870 6.888750 0.202626 101
-2.013323 6.630245 -0.307382 22
-1.371911 6.790092 -0.347286 101
-1.631697 6.935752 0.313581 100
-1.833030 6.812603 -0.762670 31
-1.370968 6.807124 -0.241270 101
-1.629761 6.946803 0.423922 85
-1.766587 6.581896 -0.630995 101
-1.128058 6.689665 -0.772952 101
-1.382234 6.868993 -0.135759 101
-1.775021 6.617739 -0.528409 101
-1.142264 6.780828 -0.463961 101
-1.394250 6.934706 0.188932 101
-1.591125 6.792335 -1.135398 22
-1.801106 6.719479 -0.214976 100
-1.150796 6.838456 -0.361000 101
-1.405735 6.997885 0.300405 101
-1.549590 6.620011 -0.748209 100
-1.805799 6.741494 -0.108419 101
-1.164452 6.926680 -0.041681 101
-1.566508 6.697332 -0.437554 101
-1.830927 6.839880 0.216335 101
-1.171874 6.977968 0.066689 101
-1.571280 6.722801 -0.332830 101
-1.842132 6.886351 0.327443 92
-1.338318 6.679625 -0.657157 101
-1.597447 6.839921 -0.014711 100
-1.968969 6.526205 -0.512555 101
-1.346067 6.724142 -0.555359 101
-1.601620 6.862971 0.093485 100
-1.991818 6.605936 -0.412334 76
-1.125062 6.733685 -0.671802 101
-1.370575 6.864454 -0.028100 101
-1.771056 6.642894 -0.424102 101
-1.128127 6.758984 -0.568193 100
-1.378739 6.911366 0.079955 101
-1.779643 6.679589 -0.319944 101
-1.145225 6.868500 -0.255333 101
-1.544752 6.644384 -0.644830 101
-1.812334 6.806863 -0.001229 101
-1.150500 6.907252 -0.149125 101
-1.558332 6.707883 -0.544399 101
-1.817157 6.829571 0.107319 101
-1.165661 7.005502 0.176045 101
-1.369124 6.881159 -1.280851 39
-1.570268 6.764392 -0.227938 101
-1.842570 6.929744 0.439824 89
-1.171773 7.049516 0.287023 101
-1.325364 6.667045 -0.761261 101
-1.581491 6.817914 -0.122167 101
-1.958941 6.528481 -0.617910 101
-1.338228 6.737647 -0.450235 101
-1.600709 6.906012 0.202969 101
-1.994938 6.652489 -0.308091 77
-1.348399 6.794800 -0.347286 101
-1.604974 6.929679 0.313053 101
-1.807397 6.811219 -0.761810 18
-2.002984 6.683380 -0.202200 3
-1.347199 6.811868 -0.241270 101
-1.602807 6.940778 0.423210 46
-1.741563 6.580321 -0.630257 101
-1.104700 6.693562 -0.772952 101
-1.354372 6.854159 -0.135371 101
-1.754970 6.635461 -0.529332 101
-1.117290 6.776899 -0.463422 101
-1.374682 6.963068 0.189573 101
-1.574502 6.828625 -1.140538 18
-1.780705 6.737321 -0.215347 100
-1.124322 6.826665 -0.360168 101
-1.381300 7.002750 0.300405 101
-1.524687 6.617631 -0.747334 100
-1.780213 6.740022 -0.108295 101
-1.141565 6.938596 -0.041728 101
-1.544912 6.710540 -0.438062 101
-1.807040 6.846230 0.216335 101
-1.146212 6.974123 0.066613 101
-1.547803 6.728244 -0.332830 101
-1.820122 6.900466 0.327810 88
-1.316530 6.692069 -0.657925 101
-1.566393 6.814269 -0.014644 100
-1.949592 6.544506 -0.513454 101
-1.322587 6.728799 -0.555359 101
-1.576759 6.864622 0.093432 100
-1.971026 6.620502 -0.412811 71
-1.098981 6.721857 -0.670235 101
-1.345066 6.861346 -0.028068 101
-1.744813 6.637452 -0.423363 101
-1.103884 6.758946 -0.567863 100
-1.354606 6.916137 0.079955 101
-1.759362 6.697354 -0.320499 101
-1.121243 6.872456 -0.255333 101
-1.525990 6.669146 -0.646712 101
-1.788563 6.813148 -0.001229 101
-1.127025 6.915173 -0.149210 101
-1.534019 6.709394 -0.544084 101
-1.790262 6.824267 0.107137 101
-1.144413 7.029263 0.176541 101
-1.351886 6.920654 -1.287316 44
-1.546646 6.769833 -0.227938 101
-1.816344 6.928409 0.439334 62
-1.145875 7.045673 0.286702 101
-1.305129 6.687237 -0.763042 101
-1.556792 6.819495 -0.122097 101
-1.945193 6.565836 -0.620799 101
-1.317757 6.757948 -0.451282 101
-1.573925 6.899862 0.202626 101
-1.963763 6.632590 -0.306850 91
-1.326964 6.811229 -0.347886 101
-1.580775 6.935239 0.313053 100
-1.779584 6.802097 -0.760090 33
-1.970567 6.659659 -0.201273 97
-1.324936 6.824378 -0.241548 101
-1.575030 6.930756 0.422261 23
-1.716572 6.578652 -0.629520 101
-1.986144 6.728325 -0.095510 5
-1.078794 6.681683 -0.771140 101
-1.330438 6.858845 -0.135371 101
-1.725759 6.618392 -0.527486 101
-1.096169 6.796518 -0.464499 101
-1.349607 6.963898 0.189466 101
-1.541047 6.791727 -1.133470 27
-1.754152 6.731890 -0.214976 100
-1.104298 6.854211 -0.361416 101
-1.356087 7.003605 0.300237 101
-1.501578 6.622913 -0.747334 100
-1.761714 6.765547 -0.108605 101
-1.116066 6.934640 -0.041681 101
-1.519714 6.708106 -0.437554 101
-1.779104 6.837018 0.215846 101
-1.120591 6.970183 0.066538 101
-1.526954 6.745296 -0.333408 101
-1.792001 6.891309 0.327076 78
-1.294672 6.704443 -0.658694 101
-1.548774 6.847005 -0.014703 100
-1.924485 6.543618 -0.512855 101
-1.297581 6.725545 -0.554713 101
-1.555433 6.881788 0.093592 99
-1.952408 6.642665 -0.413766 73
-1.079910 6.753168 -0.672977 101
-1.325642 6.889567 -0.028164 101
-1.728644 6.670555 -0.425087 101
-1.080913 6.766695 -0.568193 100
-1.331966 6.928679 0.080046 101
-1.734971 6.699586 -0.320314 101
-1.095987 6.868433 -0.255040 101
-1.502701 6.674431 -0.646712 101
-1.763767 6.815477 -0.001229 101
-1.102250 6.915115 -0.149125 101
-1.510590 6.714708 -0.544084 101
-1.769434 6.842091 0.107319 101
-1.119240 7.029265 0.176442 101
-1.521252 6.767389 -0.227676 101
-1.788152 6.919245 0.438355 61
-1.121274 7.049630 0.286702 101
-1.276544 6.664423 -0.759926 101
-1.530349 6.813181 -0.121888 101
-1.920026 6.564939 -0.620077 101
-1.291908 6.750746 -0.450497 101
-1.548955 6.901413 0.202512 101
-1.937236 6.627898 -0.306318 93
-1.302430 6.811896 -0.347686 101
-1.559181 6.952413 0.313581 100
-1.718091 6.661936 -0.743753 101
-1.948429 6.670335 -0.201388 74
-1.299289 6.813029 -0.240992 101
-1.691755 6.572741 -0.628413 101
-1.951491 6.692642 -0.094911 100
-1.057243 6.689151 -0.771593 101
-1.309923 6.875007 -0.135604 101
-1.703794 6.624081 -0.527486 101
-1.072999 6.796174 -0.464230 101
-1.323512 6.952624 0.189039 101
-1.517652 6.792948 -1.132828 38
-1.724848 6.710565 -0.214112 100
-1.078453 6.838106 -0.360376 101
-1.332111 7.004137 0.300069 101
-1.477011 6.616214 -0.746022 100
-1.735291 6.755857 -0.108357 101
-1.093072 6.938302 -0.041681 101
-1.500076 6.724795 -0.438316 101
-1.759411 6.854496 0.216213 101
-1.099349 6.985712 0.066651 101
-1.500244 6.730822 -0.332445 101
-1.772130 6.908822 0.327626 89
-1.273192 6.712607 -0.659078 101
-1.527818 6.859908 -0.014719 100
-1.906131 6.561450 -0.513754 101
-1.279006 6.749393 -0.556328 101
-1.534365 6.894711 0.093698 99
-1.935959 6.668269 -0.414959 83
-1.053241 6.729176 -0.670235 101
-1.299114 6.874266 -0.028084 101
-1.702598 6.660769 -0.424102 101
-1.056050 6.754481 -0.566871 100
-1.306802 6.921258 0.079910 101
-1.711801 6.701420 -0.320129 101
-1.073872 6.875971 -0.255187 101
-1.477162 6.663815 -0.645207 101
-1.744175 6.832902 -0.001231 101
-1.078137 6.910821 -0.148955 101
-1.484921 6.704095 -0.542823 101
-1.743826 6.836280 0.107137 101
-1.097219 7.040831 0.176640 101
-1.500591 6.780190 -0.227938 101
-1.763288 6.917384 0.437865 70
-1.100419 7.069096 0.287344 101
-1.260382 6.699860 -0.763487 101
-1.506087 6.810393 -0.121748 101
-1.897204 6.567424 -0.619716 101
-1.273273 6.774593 -0.451805 101
-1.526134 6.906496 0.202512 101
-1.913100 6.626586 -0.305963 84
-1.279174 6.812236 -0.347486 101
-1.538781 6.969234 0.314108 101
-1.678419 6.598204 -0.736015 66
-1.924158 6.669055 -0.201157 77
-1.276234 6.821453 -0.241131 101
-1.667822 6.574745 -0.628045 101
-1.927012 6.695570 -0.094856 100
-1.036314 6.708511 -0.773404 101
-1.285182 6.875606 -0.135526 101
-1.680661 6.629988 -0.527486 101
-1.939341 6.742630 0.012245 81
-1.048052 6.791989 -0.463692 101
-1.295565 6.937548 0.188505 101
-1.495625 6.805916 -1.134113 29
-1.704358 6.728172 -0.214482 90
-1.056403 6.853673 -0.361000 101
-1.304721 6.993030 0.299396 101
-1.458171 6.640747 -0.748209 100
-1.713661 6.769627 -0.108481 101
-1.070672 6.953935 -0.041752 101
-1.474882 6.722192 -0.437808 101
-1.734493 6.856720 0.216091 101
-1.074958 6.989507 0.066651 101
-1.478451 6.743823 -0.332830 101
-1.744086 6.899470 0.326892 82
-1.248297 6.709182 -0.658310 101
-1.500439 6.849570 -0.014686 101
-1.881017 6.560395 -0.513154 101
-1.253981 6.745977 -0.555682 101
-1.507723 6.888304 0.093539 97
-1.901672 6.636602 -0.412573 86
-1.031551 6.744616 -0.671410 101
-1.277298 6.890557 -0.028132 101
-1.678362 6.662800 -0.423856 101
-1.033670 6.766007 -0.567532 100
-1.282634 6.925778 0.079910 101
-1.682546 6.684105 -0.319020 101
-1.052879 6.899435 -0.255920 101
-1.456437 6.680604 -0.646336 101
-1.721289 6.842828 -0.001232 101
-1.057020 6.934309 -0.149381 101
-1.465754 6.728719 -0.544399 101
-1.721902 6.850083 0.107258 101
-1.072033 7.040664 0.176541 101
-1.478616 6.793199 -0.228201 100
-1.748858 6.962218 0.440314 68
-1.075736 7.072894 0.287344 85
-1.233381 6.684673 -0.761261 101
-1.485705 6.831241 -0.122027 101
-1.876452 6.581669 -0.620438 101
-1.249618 6.778996 -0.451805 101
-1.503715 6.919595 0.202740 101
-1.723562 6.871193 -1.040020 45
-1.899812 6.667812 -0.307559 100
-1.257558 6.828447 -0.348087 101
-1.514445 6.974563 0.314108 96
-1.655377 6.604023 -0.736015 90
-1.904152 6.687267 -0.201504 89
-1.256022 6.845526 -0.241825 101
-1.645828 6.584391 -0.628413 101
-1.904721 6.706103 -0.094911 92
-1.012298 6.708158 -0.772952 101
-1.262616 6.887918 -0.135681 101
-1.662340 6.655160 -0.529024 101
-1.923439 6.776295 0.012294 100
-1.027906 6.819284 -0.465307 101
-1.276383 6.969561 0.189252 101
-1.470191 6.803377 -1.132828 23
-1.685704 6.753476 -0.215100 100
-1.036636 6.884969 -0.362456 101
-1.282461 7.009335 0.299901 101
-1.433303 6.638024 -0.747334 100
-1.691956 6.783329 -0.108605 101
-2.071646 6.511556 -0.606237 34
-1.048771 6.973452 -0.041847 101
-1.452250 6.731202 -0.438062 101
-1.710549 6.862733 0.216091 101
-1.051742 7.001128 0.066726 101
-1.456586 6.756754 -0.333215 101
-1.724820 6.924902 0.327810 66
-1.227014 6.725249 -0.659462 101
-1.481575 6.878228 -0.014736 101
-1.857019 6.563083 -0.512855 101
-1.227566 6.734624 -0.554391 101
-1.480303 6.877884 0.093326 100
-1.877408 6.639357 -0.412334 100
-1.011530 6.771799 -0.673760 101
-1.253953 6.898910 -0.028148 101
-1.657018 6.676368 -0.424348 101
-1.916269 6.789734 0.120682 49
-1.011222 6.777460 -0.568193 100
-1.259881 6.938084 0.080001 101
-1.666899 6.720964 -0.320499 101
-1.911154 6.775925 0.228630 0
-1.025843 6.883300 -0.255187 101
-1.433108 6.685647 -0.646336 101
-1.693544 6.833265 -0.001229 101
-2.077698 6.564597 -0.504435 2
-1.033986 6.945868 -0.149551 101
-1.442257 6.733795 -0.544399 101
-1.699903 6.863817 0.107380 101
-1.049215 7.056230 0.176838 101
-1.451547 6.782682 -0.227676 101
-1.722626 6.960529 0.439824 63
-1.055738 7.108233 0.288628 71
-1.212870 6.704584 -0.763042 101
-1.462687 6.840296 -0.122097 101
-1.857782 6.603518 -0.621883 101
-1.224527 6.775462 -0.451282 101
-1.478716 6.920892 0.202626 101
-1.688172 6.831064 -1.033048 31
-1.874363 6.666709 -0.307204 101
-1.233715 6.832795 -0.348087 101
-1.485918 6.960267 0.313229 100
-1.632314 6.609761 -0.736015 100
-1.879716 6.690023 -0.201388 98
-1.231426 6.845932 -0.241686 101
-1.624752 6.597827 -0.629151 101
-1.879156 6.705004 -0.094802 100
-0.986567 6.695922 -0.771140 101
-1.237159 6.884409 -0.135526 101
-1.640061 6.664793 -0.529332 101
-1.896546 6.771410 0.012273 100
-1.005843 6.834676 -0.466115 101
-1.251343 6.970037 0.189145 101
-1.448899 6.820053 -1.134755 20
-1.659259 6.747671 -0.214729 100
-1.921250 6.864031 0.341128 1
-1.009689 6.868785 -0.361416 101
-1.258690 7.017703 0.300069 101
-1.411772 6.650765 -0.748209 100
-1.666357 6.781426 -0.108481 101
-2.058459 6.549156 -0.609065 101
-1.022672 6.965199 -0.041776 101
-1.428737 6.736231 -0.438062 101
-1.685622 6.864781 0.215968 101
-1.030186 7.024546 0.066915 101
-1.435464 6.773526 -0.333793 101
-1.700624 6.930884 0.327810 73
-1.202812 6.725575 -0.659078 101
-1.453395 6.863795 -0.014694 101
-1.836226 6.577214 -0.513454 101
-1.207533 6.758496 -0.556005 101
-1.461229 6.906493 0.093645 89
-1.859563 6.665107 -0.413527 100
-0.988420 6.779233 -0.674152 101
-1.231928 6.915066 -0.028196 101
-1.635560 6.689877 -0.424841 101
-1.881788 6.757864 0.119997 64
-0.988662 6.788845 -0.568854 100
-1.234207 6.934572 0.079910 101
-1.639590 6.711226 -0.319759 101
-1.899235 6.824934 0.230058 37
-1.002334 6.890802 -0.255333 101
-1.408892 6.686722 -0.645959 101
-1.668681 6.835261 -0.001228 101
-2.047579 6.548979 -0.502681 81
-1.006802 6.929656 -0.149125 101
-1.414580 6.719289 -0.542823 101
-1.672086 6.854180 0.107137 101
-1.023939 7.055901 0.176739 101
-1.431916 6.807281 -0.228332 101
-1.697310 6.962636 0.439579 65
-1.889404 6.802818 -0.749546 1
-1.189393 6.708789 -0.763042 101
-1.436266 6.833633 -0.121888 101
-1.830394 6.594626 -0.620438 101
-1.204277 6.799359 -0.452590 101
-1.455297 6.929940 0.202740 100
-1.656756 6.806170 -1.028400 23
-1.855281 6.688634 -0.307913 101
-1.206298 6.817404 -0.347085 101
-1.461534 6.965428 0.313229 94
-1.606337 6.603844 -0.734725 100
-1.852003 6.681153 -0.200925 100
-1.206828 6.846251 -0.241548 101
-1.599834 6.595717 -0.628413 101
-1.855740 6.711523 -0.094802 100
-0.964885 6.711126 -0.772499 101
-1.213814 6.892624 -0.135604 101
-1.614908 6.662725 -0.528717 101
-1.872897 6.777988 0.012273 100
-0.983114 6.846046 -0.466654 101
-1.228392 6.982239 0.189359 101
-1.431539 6.855986 -1.139896 24
-1.634754 6.749536 -0.214606 100
-1.896214 6.866845 0.340937 5
-0.987975 6.888084 -0.362248 101
-1.237645 7.041735 0.300910 101
-1.390172 6.663437 -0.749085 100
-1.645497 6.798863 -0.108668 101
-2.019046 6.503029 -0.604116 101
-0.999487 6.976645 -0.041823 101
-1.404400 6.737269 -0.437808 101
-1.658829 6.858965 0.215602 101
-1.004526 7.020180 0.066840 101
-1.406923 6.755027 -0.332637 101
-1.673605 6.925126 0.327259 68
-1.180702 6.737576 -0.659846 101
-1.431871 6.880575 -0.014719 100
-1.816433 6.595120 -0.514354 101
-1.183247 6.758742 -0.555682 101
-1.435483 6.903719 0.093539 92
-1.836286 6.671557 -0.413527 101
-0.962508 6.766878 -0.672585 101
-1.207782 6.919324 -0.028196 101
-1.609394 6.683901 -0.424102 101
-1.867722 6.799101 0.120613 70
-0.964959 6.792254 -0.568854 100
-1.214803 6.966420 0.080228 101
-1.618023 6.724678 -0.320129 101
-1.875400 6.831522 0.230058 71
-0.979959 6.906132 -0.255773 101
-1.385542 6.691600 -0.645959 101
-1.647617 6.852712 -0.001230 101
-2.031770 6.578957 -0.504435 82
-0.985974 6.956885 -0.149636 101
-1.392732 6.731996 -0.543454 101
-1.648150 6.859975 0.107137 101
-2.048025 6.635528 -0.401627 26
-1.002106 7.079228 0.177235 101
-1.406527 6.804408 -0.228069 101
-1.674860 6.976283 0.440069 52
-1.867748 6.817044 -0.750391 17
-1.166648 6.716816 -0.763487 101
-1.416448 6.858189 -0.122237 101
-1.808415 6.604818 -0.620799 101
-1.177806 6.787790 -0.451543 101
-1.431098 6.934978 0.202740 101
-1.631143 6.804215 -1.027238 32
-1.831923 6.695069 -0.307913 101
-1.188634 6.857000 -0.348888 101
-1.438018 6.974401 0.313405 98
-1.587907 6.628748 -0.736875 101
-1.833943 6.706861 -0.201504 101
-1.183437 6.846277 -0.241409 101
-1.576101 6.593238 -0.627676 101
-1.832420 6.713781 -0.094748 101
-0.944282 6.726097 -0.773857 101
-1.192311 6.904493 -0.135759 101
-1.595584 6.679681 -0.529639 101
-1.845148 6.764867 0.012238 100
-0.959298 6.841364 -0.466115 101
-1.201832 6.966572 0.188825 101
-1.404826 6.841359 -1.136683 21
-1.613291 6.758808 -0.214729 101
-1.879737 6.896224 0.342084 86
-0.966790 6.903191 -0.362872 101
-1.211572 7.030046 0.300237 101
-1.367269 6.664116 -0.748647 100
-1.617375 6.780941 -0.108295 101
-1.886424 6.925321 0.454095 0
-1.998639 6.513498 -0.604470 101
-0.978009 6.991806 -0.041895 101
-1.383654 6.749711 -0.438316 101
-1.640710 6.883874 0.216213 101
-2.050460 6.686369 -0.296792 1
-0.981794 7.027433 0.066877 101
-1.385316 6.763569 -0.332830 101
-1.650631 6.930638 0.327259 81
-1.159027 6.745378 -0.660230 101
-1.408245 6.881367 -0.014711 100
-1.791414 6.589560 -0.513454 101
-1.160827 6.762629 -0.555682 101
-1.411781 6.904523 0.093485 94
-1.815199 6.681463 -0.413766 101
-0.940610 6.773975 -0.672977 101
-1.182806 6.911463 -0.028148 101
-1.588142 6.693086 -0.424348 101
-1.847258 6.812977 0.120750 84
-0.942430 6.795417 -0.568854 100
-1.188998 6.954639 0.080046 101
-1.597558 6.737782 -0.320499 101
-1.845416 6.810692 0.229149 76
-0.958697 6.921222 -0.256213 101
-1.364139 6.700060 -0.646336 101
-1.623039 6.850353 -0.001229 101
-2.007613 6.578027 -0.503850 87
-0.962351 6.956155 -0.149551 101
-1.371990 6.744392 -0.544084 101
-1.627235 6.873187 0.107258 101
-2.022514 6.630824 -0.400935 101
-0.976983 7.070629 0.176937 101
-1.383955 6.809035 -0.228069 101
-1.648040 6.966258 0.439090 40
-1.829557 6.765604 -0.744056 7
-1.146370 6.732404 -0.764823 101
-1.389718 6.843251 -0.121888 101
-1.787542 6.614624 -0.621160 101
-1.155960 6.795594 -0.451805 101
-1.407298 6.935766 0.202626 101
-1.605841 6.798032 -1.025495 45
-1.807627 6.693392 -0.307559 101
-1.161204 6.833334 -0.347486 101
-1.414882 6.979131 0.313405 100
-1.562262 6.618495 -0.735155 101
-1.808567 6.701325 -0.201157 101
-1.158851 6.846426 -0.241270 101
-1.555800 6.610334 -0.628782 101
-1.815197 6.743313 -0.095074 101
-0.918634 6.713603 -0.772046 101
-1.168194 6.908615 -0.135759 101
-1.566771 6.661919 -0.527794 101
-1.822553 6.775132 0.012245 100
-0.933246 6.828855 -0.465038 101
-1.178169 6.974669 0.188932 101
-1.383275 6.857832 -1.138611 17
-1.590599 6.768291 -0.214853 101
-1.852538 6.891169 0.341510 90
-0.939989 6.886734 -0.361832 101
-1.185697 7.026351 0.299901 101
-1.340858 6.653257 -0.746897 100
-1.596440 6.798225 -0.108481 101
-1.870527 6.962705 0.456115 68
-1.972426 6.508995 -0.603409 101
-0.951443 6.979322 -0.041800 101
-1.359304 6.750585 -0.438062 101
-1.613025 6.873988 0.215724 101
-2.013215 6.647585 -0.294756 47
-0.957811 7.034780 0.066915 101
-1.363287 6.776195 -0.333215 101
-1.628266 6.944135 0.327626 79
-1.136153 6.753306 -0.660614 101
-1.385022 6.890158 -0.014719 101
-1.770485 6.603474 -0.514054 101
-1.137238 6.766636 -0.555682 101
-1.388482 6.913326 0.093539 100
-1.787755 6.672325 -0.412811 101
-0.918600 6.789046 -0.674152 101
-1.159375 6.919488 -0.028164 101
-1.563900 6.694692 -0.424102 101
-1.819373 6.803918 0.120476 85
-0.919282 6.802609 -0.569185 95
-1.167402 6.974519 0.080228 101
-1.571349 6.731634 -0.319944 101
-1.831998 6.855704 0.230448 87
-0.931376 6.900751 -0.255333 101
-1.340012 6.700866 -0.645959 101
-1.595534 6.840384 -0.001226 101
-1.974327 6.550604 -0.501220 88
-0.935984 6.943611 -0.149210 101
-1.347714 6.745219 -0.543769 101
-1.602382 6.874917 0.107197 101
-1.987893 6.599590 -0.398625 100
-0.953960 7.085877 0.177235 101
-1.362588 6.825573 -0.228463 101
-1.626493 6.983619 0.439824 16
-1.780366 6.675850 -0.733499 75
-1.119007 6.712828 -0.762151 101
-1.366671 6.851969 -0.121957 101
-1.762455 6.613108 -0.620438 101
-1.130337 6.787764 -0.451020 101
-1.384716 6.948464 0.202855 101
-1.583967 6.811288 -1.026657 48
-1.786380 6.707365 -0.307913 101
-1.140045 6.853096 -0.348287 101
-1.392932 6.995769 0.313932 98
-1.539226 6.623891 -0.735155 101
-1.789354 6.723032 -0.201620 101
-1.136905 6.862262 -0.241686 101
-1.529121 6.600204 -0.627307 101
-1.791648 6.749609 -0.095074 101
-0.897294 6.732526 -0.773857 101
-1.142112 6.900814 -0.135526 101
-1.548004 6.686774 -0.529332 101
-1.798892 6.781452 0.012245 101
-0.908350 6.824159 -0.464499 101
-1.157729 7.002409 0.189573 101
-1.363164 6.881983 -1.141824 15
-1.566063 6.769907 -0.214729 101
-1.828472 6.897593 0.341510 100
-0.919102 6.913731 -0.363080 101
-1.164419 7.050162 0.300742 101
-1.319170 6.665698 -0.747772 100
-1.571800 6.799860 -0.108419 101
-1.838033 6.938321 0.454095 66
-1.951978 6.523475 -0.604116 101
-0.928128 6.990531 -0.041847 101
-1.336506 6.759204 -0.438316 101
-1.593519 6.899055 0.216335 101
-1.981984 6.627770 -0.293569 96
-0.932723 7.034115 0.066877 101
-1.341949 6.792671 -0.333793 101
-1.602219 6.941989 0.327259 86
-1.993388 6.669949 -0.188371 34
-1.109985 6.741517 -0.659078 101
-1.362512 6.902800 -0.014736 100
-1.744365 6.598045 -0.513154 101
-1.114258 6.774498 -0.556005 101
-1.367437 6.933826 0.093751 100
-1.770572 6.701687 -0.414243 101
-0.894896 6.792212 -0.674152 101
-1.133920 6.915598 -0.028132 101
-1.539627 6.696219 -0.423856 101
-1.790513 6.790891 0.120134 76
-0.895011 6.801825 -0.568854 100
-1.143696 6.982499 0.080273 101
-1.551420 6.752655 -0.320684 101
-1.811112 6.873655 0.230837 93
-0.908323 6.911887 -0.255626 101
-1.317381 6.709410 -0.646336 101
-1.578807 6.877100 -0.001232 101
-1.949173 6.549809 -0.500635 85
-0.915383 6.974592 -0.149806 101
-1.324161 6.749883 -0.543769 101
-1.581057 6.892163 0.107380 101
-1.960291 6.591179 -0.397701 100
-0.930779 7.101058 0.177532 101
-1.337985 6.826365 -0.228332 101
-1.737833 6.608934 -0.725476 48
-1.098127 6.732386 -0.763932 101
-1.344283 6.864548 -0.122097 101
-1.740373 6.623072 -0.620799 101
-1.109204 6.807426 -0.452066 101
-1.358917 6.945407 0.202626 101
-1.557533 6.805202 -1.024914 54
-1.762956 6.713560 -0.307913 101
-1.115474 6.853091 -0.348087 101
-1.368504 7.000589 0.313932 94
-1.513435 6.617593 -0.733865 101
-1.764861 6.725370 -0.201504 101
-1.108467 6.838566 -0.240714 101
-1.514041 6.640451 -0.630626 101
-1.772127 6.771299 -0.095292 101
-1.117378 6.900810 -0.135449 101
-1.524654 6.692137 -0.529332 101
-1.778246 6.799300 0.012266 100
-0.885550 6.835204 -0.465038 101
-1.133918 7.010355 0.189679 101
-1.541534 6.771434 -0.214606 100
-1.800343 6.888472 0.340745 87
-0.893425 6.905013 -0.362456 101
-1.137253 7.038403 0.300069 101
-1.298169 6.681971 -0.749085 100
-1.543618 6.785805 -0.108108 101
-1.814811 6.948557 0.454347 74
-1.938225 6.560817 -0.606944 101
-0.903721 6.993729 -0.041847 101
-1.314425 6.771666 -0.438824 101
-1.568541 6.900676 0.216213 101
-1.959968 6.638481 -0.293739 100
-0.908164 7.037328 0.066877 101
-1.315187 6.781625 -0.333022 101
-1.577977 6.947540 0.327259 86
-1.963303 6.653856 -0.187722 100
-1.086446 6.745350 -0.659078 101
-1.333843 6.883952 -0.014686 100
-1.720317 6.600234 -0.512855 101
-1.089970 6.774411 -0.555682 101
-1.340185 6.922851 0.093539 100
-1.743143 6.692371 -0.413289 101
-1.109773 6.919514 -0.028132 101
-1.518887 6.713234 -0.424595 101
-1.770822 6.812583 0.120408 87
-0.873794 6.824677 -0.570507 71
-1.116152 6.966702 0.080046 101
-1.526959 6.754132 -0.320499 101
-1.784092 6.868327 0.230448 97
-0.886726 6.934841 -0.256359 101
-1.294706 6.717878 -0.646712 101
-1.553029 6.874766 -0.001230 101
-1.933046 6.579538 -0.502389 100
-0.891032 6.977745 -0.149806 101
-1.301345 6.758379 -0.544084 101
-1.557870 6.901541 0.107440 101
-1.936146 6.594150 -0.397470 100
-0.904974 7.096331 0.177334 101
-1.315659 6.838846 -0.228594 101
-1.706768 6.584157 -0.722098 51
-1.974188 6.727853 -0.081994 16
-1.073994 6.732253 -0.763487 101
-1.319558 6.865271 -0.122027 101
-1.712248 6.609825 -0.618994 101
-1.085435 6.811256 -0.452066 101
-1.336173 6.957962 0.202855 100
-1.534638 6.814459 -1.025495 77
-1.738509 6.715804 -0.307736 101
-1.091546 6.856943 -0.348087 101
-1.344812 7.009248 0.314108 100
-1.495564 6.646115 -0.736445 101
-1.744378 6.743102 -0.201852 101
-1.089543 6.865893 -0.241548 101
-1.485904 6.618232 -0.628045 101
-1.742664 6.750030 -0.094911 101
-1.098871 6.932127 -0.135991 101
-1.500707 6.689373 -0.528717 101
-1.753690 6.797413 0.012252 100
-0.864877 6.853940 -0.466115 101
-1.106912 6.990380 0.189039 101
-1.520820 6.784311 -0.214853 100
-1.774497 6.882797 0.340172 100
-0.869524 6.900011 -0.362040 101
-1.115779 7.053977 0.300574 100
-1.275258 6.682333 -0.748647 100
-1.522856 6.798693 -0.108233 101
-1.792755 6.958403 0.454600 70
-1.915342 6.563384 -0.606591 101
-0.881023 7.000656 -0.041871 101
-1.291962 6.775988 -0.438824 101
-1.544776 6.901938 0.216091 101
-1.941300 6.656454 -0.294248 101
-0.885321 7.044269 0.066915 101
-1.293439 6.789874 -0.333215 101
-1.562779 6.987830 0.328911 74
-1.942346 6.664169 -0.187830 101
-1.066552 6.764647 -0.660614 101
-1.313999 6.904055 -0.014719 100
-1.701400 6.617492 -0.513754 101
-1.069360 6.789803 -0.556651 101
-1.318715 6.935115 0.093645 100
-1.717960 6.686513 -0.412573 101
-1.085580 6.915253 -0.028100 101
-1.494880 6.710441 -0.424102 101
-1.749215 6.822292 0.120476 94
-1.094283 6.978268 0.080137 101
-1.504553 6.759159 -0.320499 101
-1.763290 6.881951 0.230707 100
-0.866193 6.957576 -0.257092 101
-1.273903 6.729960 -0.647465 101
-1.531091 6.883782 -0.001231 101
-1.915664 6.601237 -0.503558 101
-0.867394 6.976692 -0.149721 101
-1.275962 6.746985 -0.542823 101
-1.529769 6.883244 0.107076 101
-1.922055 6.627381 -0.399087 101
-0.881437 7.099293 0.177334 101
-1.292231 6.839242 -0.228463 101
-1.679998 6.570512 -0.719986 55
-1.947413 6.718996 -0.081807 100
-1.052890 6.743632 -0.764377 101
-1.299752 6.885329 -0.122306 101
-1.694265 6.630906 -0.620438 101
-1.957543 6.758155 0.025788 10
-1.062842 6.814818 -0.452066 101
-1.311610 6.954496 0.202626 101
-1.510319 6.811783 -1.024333 61
-1.717218 6.725404 -0.307913 101
-1.067571 6.852630 -0.347686 101
-1.321561 7.013669 0.314108 100
-1.474377 6.654920 -0.736875 101
-1.719042 6.737227 -0.201504 100
-1.069246 6.893356 -0.242381 101
-1.468806 6.650603 -0.630626 101
-1.722050 6.767700 -0.095074 101
-1.075279 6.939873 -0.136069 101
-1.477348 6.694571 -0.528717 101
-1.727981 6.795740 0.012238 101
-0.840461 6.852956 -0.465846 101
-1.086174 7.017910 0.189679 101
-1.497129 6.789578 -0.214853 100
-1.751445 6.892822 0.340363 101
-0.845919 6.906969 -0.362248 101
-1.087486 7.034132 0.299564 41
-1.251193 6.682836 -0.748209 100
-1.502557 6.819590 -0.108481 101
-1.766490 6.956880 0.454095 77
-1.891317 6.566201 -0.606237 101
-0.856095 6.999718 -0.041847 101
-1.266100 6.768685 -0.438062 101
-1.518955 6.899479 0.215846 101
-1.913630 6.647828 -0.293569 101
-0.861696 7.055257 0.066990 101
-1.271932 6.806129 -0.333793 101
-1.533226 6.969827 0.327810 73
-1.750019 6.901644 -0.956344 2
-1.917967 6.667066 -0.187722 100
-1.041114 6.756524 -0.659462 101
-1.287689 6.896803 -0.014694 101
-1.679270 6.627257 -0.514054 101
-1.045047 6.789554 -0.556328 101
-1.291565 6.923949 0.093432 100
-1.702450 6.723435 -0.414482 101
-1.064468 6.938769 -0.028180 101
-1.473157 6.723418 -0.424595 101
-1.723430 6.820601 0.120339 100
-1.069311 6.978091 0.080091 101
-1.480095 6.760466 -0.320314 101
-1.736321 6.876435 0.230318 100
-0.840942 6.952621 -0.256799 101
-1.251130 6.738281 -0.647842 101
-1.506198 6.885178 -0.001230 101
-1.899200 6.630894 -0.505312 101
-0.843995 6.987618 -0.149892 101
-1.256040 6.771001 -0.544399 101
-1.506587 6.892449 0.107137 101
-1.903305 6.649406 -0.400011 101
-0.857608 7.110266 0.177532 101
-1.269078 6.847642 -0.228594 101
-1.660940 6.591764 -0.721676 79
-1.925047 6.729599 -0.081854 100
-1.028145 6.739407 -0.763487 101
-1.272069 6.870161 -0.121957 101
-1.670135 6.632916 -0.620077 101
-1.928444 6.745717 0.025715 99
-1.036642 6.802703 -0.451020 101
-1.288054 6.962964 0.202740 100
-1.488218 6.824747 -1.025495 60
-1.689831 6.715856 -0.307204 101
-1.043043 6.852365 -0.347486 101
-1.297071 7.018239 0.314108 100
-1.450291 6.656141 -0.736445 101
-1.696489 6.747064 -0.201620 101
-1.045776 6.901000 -0.242520 101
-1.445582 6.655690 -0.630626 101
-1.700361 6.781429 -0.095183 101
-1.047456 6.919859 -0.135604 101
-1.453125 6.695789 -0.528409 101
-1.701332 6.790090 0.012217 101
-1.065855 7.049335 0.190427 101
-1.474267 6.798670 -0.214976 100
-1.734167 6.926024 0.341702 101
-0.820860 6.901947 -0.361832 101
-1.230012 6.698895 -0.749522 100
-1.476202 6.813067 -0.108295 101
-1.743164 6.966876 0.454347 51
-1.868385 6.572763 -0.606237 101
-0.831185 6.998692 -0.041823 101
-1.242465 6.773063 -0.438062 101
-1.497400 6.916462 0.216213 101
-1.893690 6.666000 -0.294078 101
-0.834709 7.038362 0.066802 101
-1.248166 6.810528 -0.333793 101
-1.508888 6.975137 0.327810 79
-1.720151 6.884634 -0.953149 19
-1.897959 6.685259 -0.188047 101
-1.019301 6.771928 -0.660614 101
-1.267929 6.924864 -0.014745 100
-1.655160 6.629209 -0.513754 101
-1.915754 6.752218 0.133541 15
-1.021933 6.797103 -0.556651 101
-1.269547 6.940218 0.093592 99
-1.674137 6.709966 -0.413289 101
-1.943289 6.853610 0.245034 0
-1.040240 6.942442 -0.028180 101
-1.445474 6.709005 -0.423363 101
-1.702510 6.838219 0.120545 90
-1.046131 6.989693 0.080182 101
-1.456488 6.765591 -0.320314 101
-1.714237 6.890213 0.230578 97
-0.814337 6.935664 -0.256066 101
-1.226888 6.738689 -0.647465 101
-1.480473 6.882572 -0.001229 101
-1.874957 6.633644 -0.505019 101
-0.819598 6.990521 -0.149892 101
-1.233110 6.779268 -0.544715 101
