VERSION .7
FIELDS x y z doppler snr
SIZE 4 4 4 4 4
TYPE F F F F F
COUNT 1 1 1 1 1
WIDTH 238
HEIGHT 1
VIEWPOINT 0 0 0 1 0 0 0
POINTS 238
DATA ascii
0.12434895 0.0 1.2867054 0.0 0.0
0.15582491 -0.045305036 1.7159438 0.0 6.76
0.20717666 -0.056631293 2.1437678 0.0 10.63
0.24862649 -0.061962504 2.5726714 0.0 17.21
-0.22314939 0.3473567 3.8560612 0.0 9.46
2.5522869 -0.0099949 3.4717736 6.9264 8.53
2.79689 -1.5504564 3.4985914 6.9264 11.1
0.6727223 -1.5509471 4.886633 0.0 8.88
3.0804782 -1.691407 3.7930157 7.0152 12.78
0.613999 0.0 5.5679483 0.0 6.28
4.287422 -0.11393786 6.4624815 -0.0888 5.96
-2.1783388 -0.68932164 12.723482 0.0 9.96
-2.7558208 -0.712299 13.051114 0.0 12.12
-3.2070606 -0.7352764 13.390487 0.0 11.84
-3.3119934 0.0 13.828614 -0.0888 10.36
-2.7390175 -1.3122364 14.332337 0.0 9.03
-2.8195767 -1.3508316 14.753877 0.0 4.62
-2.8123662 -1.3894268 15.191927 0.0 16.85
-2.6691866 0.0 13.966936 -0.0888 8.55
12.103169 -2.3527718 30.33868 0.0 12.37
12.439897 -2.3837295 30.666475 0.0 12.5
-17.82117 -2.7711158 45.691975 0.0 8.92
-18.332214 -2.795424 45.952854 0.0 6.78
-18.755888 -2.97406 46.236477 0.0 4.59
-19.437525 -3.1822968 46.876343 0.0 6.57
-19.60225 -3.2092655 47.2736 0.0888 6.81
-19.766973 -3.236234 47.67086 0.0 7.28
-19.927738 -3.4241219 48.058563 0.0 7.54
-17.354847 -3.4524202 49.502262 0.0 5.67
-31.304182 -8.567854 41.901245 0.0 5.3
-31.526108 -8.963495 42.198296 0.0 12.29
-42.677937 -3.6705132 48.976448 0.0 12.64
-27.139585 -3.5385177 60.451515 0.0 8.18
-26.846062 -3.561495 61.05278 0.0 10.25
-27.533531 -5.779299 71.81721 0.0 5.12
-27.693653 -5.5723543 72.234856 0.0 5.22
-28.273075 -5.3626986 72.48977 0.0 5.47
-34.634727 -5.3923264 70.15448 0.0 6.08
-14.766732 -11.0439205 79.76739 0.0 4.98
-14.225984 -11.102046 80.29925 0.0888 6.71
-0.43432748 0.21428452 0.7128401 0.0 1.05
0.11684744 -0.04197124 1.2867239 0.0 0.0
0.15579659 -0.055961654 1.7156318 0.0 10.1
0.20717666 -0.056631293 2.1437678 0.0 10.44
0.24861199 -0.06795755 2.5725214 0.0 17.0
0.13360171 -0.06296335 3.012682 0.0 16.58
0.64594245 -0.18319435 4.6921053 0.0 10.67
0.49702418 -0.19984838 5.142976 0.0 11.62
1.1005865 -2.6541207 7.6663523 0.0 7.09
-2.909005 -0.405722 12.146011 0.0 2.88
-3.0093155 -0.4197124 12.564839 0.0 2.32
-3.109626 -0.43370283 12.983667 0.0 9.04
-2.0945415 -1.1969715 14.013566 0.0 13.64
-2.7403104 -1.2332433 14.339104 0.0 8.36
13.310018 -0.39576966 13.496416 0.0 7.49
13.612517 -0.4047644 13.803153 0.0 3.28
24.460278 -1.7578484 30.597025 0.0 3.81
24.72907 -1.7771653 30.933256 0.0 7.75
24.997866 -1.7964823 31.269487 0.0 9.98
25.263033 -1.9409341 31.601181 0.0 8.44
27.603794 -1.4829838 36.36033 0.0 6.06
27.580496 -1.4969742 36.91702 0.0 5.99
27.838257 -1.5109646 37.26204 0.0 6.49
27.643364 -1.5529358 39.001694 0.0 6.97
27.588268 -1.5669262 39.566868 0.0 7.13
27.837255 -1.4303988 39.92396 0.0 6.24
27.77234 -1.4430572 40.492523 0.0 4.95
28.891325 -1.468374 40.76243 0.0 11.91
-19.519146 -5.6973042 47.073185 0.0 8.95
-31.431684 -10.34192 41.40251 0.0 7.74
-31.687227 -10.426001 41.73912 0.0 11.4
-30.355022 -5.0559697 47.322037 0.0 11.08
-30.95334 -5.094565 47.446117 0.0 7.47
-42.677937 -3.6705132 48.976448 0.0 8.31
-26.676094 -3.3848057 60.66624 0.0 5.42
-26.374712 -3.561495 61.257877 0.0 5.67
-27.014671 -3.7920532 61.436226 0.0 6.06
39.884155 -4.6409583 58.151745 0.0 5.56
43.33226 -4.669257 56.173923 0.0 7.05
43.14902 -4.918276 56.83685 0.0 9.94
43.408955 -4.947904 57.17924 0.0 9.37
-27.545801 -5.303442 71.84921 0.0 7.63
-27.693653 -5.5723543 72.234856 0.0 8.56
-28.818094 -5.843872 72.23752 0.0 8.5
-0.43432748 0.21428452 0.7128401 0.0 0.87
0.11684744 -0.04197124 1.2867239 0.0 0.0
0.15579659 -0.055961654 1.7156318 0.0 10.04
0.20717666 -0.056631293 2.1437678 0.0 10.49
0.24862649 -0.061962504 2.5726714 0.0 16.88
-0.31308055 0.10725608 2.9980898 0.0 16.55
-0.3776066 0.12257837 3.4242628 0.0 13.08
-1.7156837 0.13790067 3.4752083 0.0 10.43
-1.9281424 0.17985609 3.8493376 0.0 8.23
0.64586204 -0.1978417 4.691521 0.0 10.87
0.49696237 -0.21582732 5.142336 0.0 11.68
0.7045768 -0.21582732 5.1180234 0.0 10.36
-2.344412 -0.405722 12.267504 0.0 9.57
-2.498308 -0.45966887 12.674955 0.0 13.96
-2.5806215 -0.5988275 13.0925665 0.0 13.3
-3.5658226 -0.82043034 13.294465 0.0 10.71
-3.6758285 -0.9338514 13.7046 0.0 8.49
-2.7441342 -0.9621499 14.359111 0.0 10.19
17.233839 -0.7745313 27.327929 0.0 10.52
17.676537 -0.78485835 27.556883 0.0 7.64
19.635536 -1.384892 26.709433 0.0 2.84
17.251217 -1.4028776 28.810987 0.0 6.58
24.963163 -1.8996376 30.73733 0.0 7.44
25.238127 -1.7964823 31.075891 0.0 4.49
25.266659 -1.8157994 31.605719 0.0 4.63
26.903437 -1.1439521 34.190132 0.0 4.81
27.169807 -1.1552784 34.52865 0.0 7.65
27.608812 -1.2005835 36.36694 0.0 9.1
27.58551 -1.2119097 36.92373 0.0 6.66
27.640453 -1.7007749 38.99759 0.0 5.19
27.585365 -1.7160972 39.562702 0.0 7.66
27.834593 -1.5809168 39.920143 0.0 5.86
-19.585543 -3.8421037 47.23331 0.0 8.4
-19.745443 -4.03384 47.618935 0.0 11.97
-19.90632 -4.1880145 48.006912 0.0 11.33
-19.690895 -4.425167 48.54143 0.0 10.25
-30.355022 -5.0559697 47.322037 0.0 6.68
-30.95334 -5.094565 47.446117 0.0 5.07
-42.677937 -3.6705132 48.976448 0.0 8.11
-44.93801 -3.719129 48.095787 0.0 9.95
-26.672861 -3.5385177 60.65889 0.0 9.22
-26.365496 -3.9739594 61.236473 0.0 6.1
-27.00982 -3.9995978 61.425198 0.0 6.58
-27.533531 -5.779299 71.81721 0.0 9.88
-27.693653 -5.5723543 72.234856 0.0 12.17
-0.4393689 0.21750991 0.70876205 0.0 0.93
0.116858624 -0.03797519 1.286847 0.0 0.0
0.1558115 -0.050633587 1.715796 0.0 10.03
0.20717666 -0.056631293 2.1437678 0.0 10.39
0.24862649 -0.061962504 2.5726714 0.0 17.02
0.13360171 -0.06296335 3.012682 0.0 16.9
-2.0472188 0.08994765 3.7905521 0.0 9.7
-2.344412 -0.405722 12.267504 0.0 8.79
-2.3516083 -0.45966887 12.702991 0.0 12.07
-2.4283679 -0.68135697 13.117632 0.0 12.66
-3.5658226 -0.82043034 13.294465 0.0 11.3
-3.5941968 -1.0654573 13.716647 0.0 9.54
-2.7423403 -1.0977439 14.349725 0.0 12.59
17.216349 -1.6484443 27.300198 0.0 3.39
17.4459 -1.6704236 27.6642 0.0 5.02
17.466427 -1.384892 28.175734 0.0 3.96
17.47276 -1.4028776 28.677172 0.0 8.75
27.63728 -1.8485976 38.99311 0.0 10.65
27.582197 -1.8652517 39.55816 0.0 8.47
27.825005 -2.032374 39.90639 0.0 6.09
-16.50461 -3.1283596 47.07708 0.0 10.02
-19.637695 -2.84404 46.34625 0.0 10.3
-19.19763 -4.5928273 47.325447 0.0 9.26
-19.353477 -4.790676 47.709637 0.0 5.52
-19.509048 -4.9911327 48.093143 0.0 5.63
-19.67028 -5.0323815 48.49061 0.0 8.33
-30.299143 -6.0982957 47.234924 0.0 7.72
-30.93553 -5.444872 47.418816 0.0 10.09
-42.670273 -3.8714056 48.967655 0.0 9.38
-43.33149 -3.8970442 48.95943 0.0 10.57
-27.425446 -3.5155404 59.849373 0.0 8.04
-26.672861 -3.5385177 60.65889 0.0 5.5
-26.846062 -3.561495 61.05278 0.0 5.57
40.05604 -24.607315 52.762707 0.0 11.33
-27.792076 -5.747012 71.25653 0.0 9.53
-27.533531 -5.779299 71.81721 0.0 9.58
-28.104347 -5.8115854 72.05717 0.0 7.22
-34.429085 -5.843872 69.73794 0.0 5.38
-34.6193 -5.876158 70.12323 0.0 9.08
-13.695225 -10.792977 79.992584 0.0 5.78
-13.767304 -10.849783 80.4136 0.0 6.77
-14.317913 -10.39911 80.818146 0.0 5.64
0.116858624 -0.03797519 1.286847 0.0 0.0
0.1558115 -0.050633587 1.715796 0.0 10.13
0.20717666 -0.056631293 2.1437678 0.0 10.49
0.24864373 -0.05396859 2.57285 0.0 17.15
0.13360171 -0.06296335 3.012682 0.0 16.83
-2.1554449 0.12658396 3.7290099 0.0 10.34
-2.2736783 -0.3670935 12.282025 0.0 8.53
-2.3513384 -0.49962097 12.701532 0.0 11.36
-3.4565463 -0.6400953 12.88705 0.0 10.62
-3.5644398 -0.90555286 13.2893095 0.0 10.62
-3.3048434 -0.9338514 13.79876 0.0 9.12
-2.7374415 -1.402467 14.324091 0.0 4.87
-2.8179545 -1.443716 14.745388 0.0 14.21
-2.8098986 -1.5327132 15.178597 0.0 4.6
-2.9351976 -3.1109838 15.35888 0.0 18.49
-2.92508 -3.145382 15.800788 0.0 18.99
-2.9533832 2.726338 18.08749 0.0 6.58
16.817726 -0.8607957 28.087023 0.0 5.06
17.037613 -0.8834482 28.958328 0.0 6.16
-15.958221 -2.7711158 46.37549 0.0 4.08
-16.727718 -2.795424 46.56091 0.0 3.67
-20.076437 -3.2826293 45.657433 0.0 4.53
-18.00855 -3.3109276 46.972675 0.0 4.61
-31.469763 -10.020192 41.45267 0.0 13.14
-31.725615 -10.101658 41.789684 0.0 15.61
-29.830935 -5.444872 48.121372 0.0 13.42
-27.130102 -3.9483209 60.43039 0.0 10.94
-26.836681 -3.9739594 61.03145 0.0 8.14
-27.014671 -3.7920532 61.436226 0.0 5.25
-42.101223 -3.3032095 60.38123 0.0 6.55
-41.878075 -3.3225265 61.058914 0.0 6.17
-42.12155 -3.3418436 61.41391 0.0 7.47
-27.37322 -5.98353 71.399055 0.0 9.1
-27.527002 -6.017145 71.80017 0.0 10.82
-28.104347 -5.8115854 72.05717 0.0 9.99
-28.266914 -5.603312 72.473976 0.0 7.94
-28.423084 -5.634269 72.87438 0.0 8.48
-32.21278 -5.665227 71.75169 0.0 7.91
0.124348626 0.00299847 1.2867019 0.0 0.0
0.1657112 -0.055961654 1.7147026 0.0 10.64
0.20717666 -0.056631293 2.1437678 0.0 10.85
0.24861199 -0.06795755 2.5725214 0.0 17.46
0.1336097 -0.053636517 3.012862 0.0 16.86
2.2454755 -1.2344989 2.9109297 0.0 9.24
-2.5107098 -0.18356656 12.239901 0.0 3.28
-2.5971556 -0.2298708 12.66133 0.0 7.77
-2.581585 -0.47499117 13.097454 0.0 11.51
-2.7647557 -0.90555286 13.478394 0.0 15.15
-2.7397661 -1.2671021 14.336255 0.0 8.87
-2.8203475 -1.3043698 14.75791 0.0 9.33
3.296905 2.5361283 16.72657 0.0 10.68
3.8709645 -1.3782288 17.182417 -7.4592 3.22
-17.407812 -2.4836562 45.40574 0.0 6.37
-17.561863 -2.5056353 45.80756 0.0 5.7
-16.727718 -2.795424 46.56091 0.0 3.93
-16.23819 -2.819732 47.189095 0.0 7.02
-19.416353 -3.9666097 46.825283 0.0 5.57
-19.580898 -4.000225 47.22211 0.0 5.43
-19.745443 -4.03384 47.618935 0.0 5.1
-31.450874 -10.181105 41.42779 0.0 14.41
-31.706573 -10.263878 41.764603 0.0 12.03
-26.836681 -3.9739594 61.03145 0.0 5.93
-27.00982 -3.9995978 61.425198 0.0 6.67
-27.539799 -5.5413966 71.83355 0.0 11.22
-27.693653 -5.5723543 72.234856 0.0 10.09
-28.278967 -5.1220336 72.504875 0.0 5.33
-28.435205 -5.150332 72.90546 0.0 8.51
