# This PCD file was generated using the MATLAB® pcwrite function
# from Computer Vision Toolbox®.
# .PCD v.7 - Point Cloud Data file format
VERSION .7
FIELDS x y z intensity
SIZE 8 8 8 8
TYPE F F F F
COUNT 1 1 1 1
WIDTH 578
HEIGHT 1
VIEWPOINT 0 0 0 1 0 0 0
POINTS 578
DATA ascii
1.033300000000000 9.206260000000000 -1.055510000000000 21.000000000000000
1.044260000000000 9.188179999999999 -0.909968000000000 12.000000000000000
1.047320000000000 9.200799999999999 -0.767838000000000 2.000000000000000
1.061080000000000 9.179090000000000 -1.052790000000000 22.000000000000000
0.786435000000000 9.272240000000000 -0.753610000000000 15.000000000000000
1.072620000000000 9.152850000000001 -0.906835000000000 12.000000000000000
1.078290000000000 9.201240000000000 -0.768168000000000 2.000000000000000
1.094060000000000 9.183230000000000 -1.053700000000000 26.000000000000000
0.816765000000000 9.264889999999999 -0.897206000000000 49.000000000000000
0.814236000000000 9.217810000000000 -0.749412000000000 50.000000000000000
1.105040000000000 9.153010000000000 -0.907226000000000 5.000000000000000
1.109620000000000 9.177440000000001 -0.766515000000000 7.000000000000000
0.831409000000000 9.264620000000001 -1.041730000000000 6.000000000000000
1.125140000000000 9.171460000000000 -1.052790000000000 8.000000000000000
0.844375000000000 9.210440000000000 -0.892213000000000 43.000000000000000
0.848231000000000 9.234769999999999 -0.751027000000000 54.000000000000000
1.135510000000000 9.137240000000000 -0.906051000000000 4.000000000000000
1.141150000000000 9.169549999999999 -0.766185000000000 7.000000000000000
0.864113000000000 9.265620000000000 -1.042170000000000 4.000000000000000
1.156650000000000 9.163530000000000 -1.052340000000000 9.000000000000000
0.878030000000000 9.223290000000000 -0.893749000000000 47.000000000000000
0.882353000000000 9.251590000000000 -0.752641000000000 73.000000000000000
1.169420000000000 9.149020000000000 -0.907618000000000 8.000000000000000
1.173660000000000 9.169470000000000 -0.766515000000000 7.000000000000000
0.894536000000000 9.242760000000001 -1.039950000000000 6.000000000000000
1.189650000000000 9.167320000000000 -1.053240000000000 9.000000000000000
0.911785000000000 9.236020000000000 -0.895286000000000 36.000000000000000
0.913465000000000 9.236549999999999 -0.751672000000000 87.000000000000000
1.197720000000000 9.117250000000000 -0.904876000000000 15.000000000000000
1.207220000000000 9.177170000000000 -0.767507000000000 2.000000000000000
0.926000000000000 9.231669999999999 -1.039050000000000 13.000000000000000
1.217440000000000 9.131600000000001 -1.049620000000000 24.000000000000000
0.945639000000000 9.248630000000000 -0.896822000000000 14.000000000000000
0.946107000000000 9.237270000000001 -0.751995000000000 98.000000000000000
1.227410000000000 9.109280000000000 -0.904484000000000 15.000000000000000
1.234980000000000 9.153370000000001 -0.765854000000000 3.000000000000000
0.955379000000000 9.216690000000000 -1.037720000000000 14.000000000000000
1.250410000000000 9.147200000000000 -1.051880000000000 32.000000000000000
0.974213000000000 9.225640000000000 -0.894902000000000 14.000000000000000
0.977153000000000 9.238049999999999 -0.752318000000000 80.000000000000000
1.259750000000000 9.108890000000001 -0.904876000000000 14.000000000000000
1.265330000000000 9.149220000000000 -0.765854000000000 3.000000000000000
0.987629000000000 9.229279999999999 -1.039500000000000 14.000000000000000
1.277910000000000 9.111290000000000 -1.048260000000000 37.000000000000000
1.005980000000000 9.218230000000000 -0.894517000000000 16.000000000000000
1.007230000000000 9.214770000000000 -0.750704000000000 57.000000000000000
1.291540000000000 9.104430000000001 -0.904876000000000 9.000000000000000
1.297730000000000 9.136630000000000 -0.765193000000000 8.000000000000000
1.060550000000000 9.594030000000000 -1.762160000000000 6.000000000000000
1.022320000000000 9.233499999999999 -1.040390000000000 13.000000000000000
1.313670000000000 9.134309999999999 -1.051430000000000 14.000000000000000
1.033690000000000 9.175090000000001 -0.890677000000000 52.000000000000000
1.038490000000000 9.203270000000000 -0.750058000000000 41.000000000000000
1.321020000000000 9.084110000000001 -0.903309000000000 5.000000000000000
1.328470000000000 9.124150000000000 -0.764532000000000 8.000000000000000
1.052290000000000 9.210129999999999 -1.038160000000000 13.000000000000000
1.346130000000000 9.133609999999999 -1.051880000000000 15.000000000000000
1.070310000000000 9.210979999999999 -0.894517000000000 51.000000000000000
1.069230000000000 9.187709999999999 -0.749089000000000 37.000000000000000
1.353890000000000 9.087320000000000 -0.904092000000000 9.000000000000000
1.361490000000000 9.127350000000000 -0.765193000000000 9.000000000000000
1.083970000000000 9.202450000000001 -1.037720000000000 13.000000000000000
1.375630000000000 9.113130000000000 -1.050070000000000 13.000000000000000
0.806589000000000 9.252840000000001 -1.022120000000000 15.000000000000000
1.101980000000000 9.203230000000000 -0.894133000000000 51.000000000000000
1.102720000000000 9.195800000000000 -0.750058000000000 93.000000000000000
1.388010000000000 9.098280000000001 -0.905659000000000 14.000000000000000
1.395140000000000 9.134359999999999 -0.766185000000000 3.000000000000000
0.820301000000000 9.242310000000000 -0.877090000000000 34.000000000000000
0.823364000000000 9.258459999999999 -0.734797000000000 18.000000000000000
1.113690000000000 9.178879999999999 -1.035490000000000 12.000000000000000
1.404400000000000 9.088640000000000 -1.047810000000000 35.000000000000000
0.833164000000000 9.204760000000000 -1.504230000000000 45.000000000000000
0.837447000000000 9.234130000000000 -1.020370000000000 16.000000000000000
1.136050000000000 9.215140000000000 -0.895670000000000 20.000000000000000
1.133830000000000 9.183980000000000 -0.749412000000000 90.000000000000000
1.415100000000000 9.073960000000000 -0.903701000000000 22.000000000000000
1.422970000000000 9.113930000000000 -0.764863000000000 4.000000000000000
0.850945000000000 9.239540000000000 -0.877090000000000 25.000000000000000
0.851863000000000 9.231859999999999 -0.732906000000000 26.000000000000000
1.144620000000000 9.179080000000001 -1.035940000000000 11.000000000000000
1.434530000000000 9.083930000000001 -1.047810000000000 40.000000000000000
0.865897000000000 9.225529999999999 -1.508080000000000 43.000000000000000
0.869552000000000 9.247130000000000 -1.022120000000000 16.000000000000000
1.162100000000000 9.175770000000000 -0.892213000000000 20.000000000000000
1.163280000000000 9.172260000000000 -0.748766000000000 100.000000000000000
1.447400000000000 9.072900000000001 -0.904092000000000 23.000000000000000
1.452550000000000 9.105219999999999 -0.764532000000000 4.000000000000000
0.884985000000000 9.272340000000000 -0.880477000000000 32.000000000000000
0.882852000000000 9.232950000000001 -0.733221000000000 38.000000000000000
1.177070000000000 9.191010000000000 -1.037720000000000 11.000000000000000
1.466860000000000 9.082789999999999 -1.048260000000000 54.000000000000000
0.898095000000000 9.222450000000000 -1.508080000000000 38.000000000000000
0.902984000000000 9.255910000000000 -1.023430000000000 16.000000000000000
1.195150000000000 9.179550000000001 -0.892981000000000 23.000000000000000
1.197350000000000 9.183960000000001 -0.750058000000000 43.000000000000000
1.477140000000000 9.055999999999999 -0.902917000000000 30.000000000000000
1.485920000000000 9.099840000000000 -0.764532000000000 12.000000000000000
0.917393000000000 9.253180000000000 -0.878972000000000 18.000000000000000
0.915898000000000 9.221719999999999 -0.732591000000000 35.000000000000000
1.209190000000000 9.174810000000001 -1.036380000000000 13.000000000000000
1.499850000000000 9.085459999999999 -1.049170000000000 58.000000000000000
0.928300000000000 9.199619999999999 -1.504870000000000 35.000000000000000
0.930489000000000 9.205240000000000 -1.018180000000000 58.000000000000000
1.222430000000000 9.139810000000001 -0.889524000000000 68.000000000000000
1.229400000000000 9.179720000000000 -0.750058000000000 39.000000000000000
0.950500000000000 9.257849999999999 -0.879725000000000 13.000000000000000
0.944411000000000 9.182760000000000 -0.729754000000000 94.000000000000000
1.240140000000000 9.162649999999999 -1.035490000000000 18.000000000000000
0.959587000000000 9.188470000000001 -1.503580000000000 5.000000000000000
0.965925000000000 9.233570000000000 -1.021680000000000 77.000000000000000
1.257580000000000 9.159150000000000 -0.891829000000000 62.000000000000000
1.257640000000000 9.147720000000000 -0.747798000000000 40.000000000000000
0.981128000000000 9.238630000000001 -0.878219000000000 13.000000000000000
0.981099000000000 9.223030000000000 -0.733221000000000 100.000000000000000
1.271020000000000 9.150390000000000 -1.034600000000000 24.000000000000000
0.993350000000000 9.200770000000000 -1.506150000000000 8.000000000000000
0.996013000000000 9.210369999999999 -1.019490000000000 73.000000000000000
1.288430000000000 9.146820000000000 -0.891061000000000 68.000000000000000
1.290120000000000 9.147230000000000 -0.748121000000000 69.000000000000000
1.012500000000000 9.227230000000000 -0.877466000000000 29.000000000000000
1.009370000000000 9.183870000000001 -0.730384000000000 36.000000000000000
1.349180000000000 9.482200000000001 -1.748510000000000 1.000000000000000
1.303520000000000 9.149839999999999 -1.035050000000000 20.000000000000000
1.025460000000000 9.197240000000001 -1.506150000000000 9.000000000000000
1.026390000000000 9.191039999999999 -1.017740000000000 17.000000000000000
1.322630000000000 9.158030000000000 -0.892597000000000 27.000000000000000
1.321470000000000 9.138719999999999 -0.747798000000000 90.000000000000000
1.044260000000000 9.219690000000000 -0.877090000000000 32.000000000000000
1.044110000000000 9.204070000000000 -0.732275000000000 40.000000000000000
1.334870000000000 9.141299999999999 -1.034600000000000 9.000000000000000
1.058010000000000 9.197530000000000 -1.506800000000000 41.000000000000000
1.061200000000000 9.211100000000000 -1.020370000000000 22.000000000000000
1.348760000000000 9.113970000000000 -0.888756000000000 24.000000000000000
1.353950000000000 9.138000000000000 -0.748121000000000 100.000000000000000
1.076430000000000 9.215990000000000 -0.877090000000000 38.000000000000000
1.074380000000000 9.184519999999999 -0.731014000000000 54.000000000000000
1.368540000000000 9.148380000000000 -1.035940000000000 7.000000000000000
0.796767000000000 9.254030000000000 -0.860012000000000 17.000000000000000
1.087780000000000 9.174180000000000 -1.503580000000000 38.000000000000000
1.091470000000000 9.191540000000000 -1.018620000000000 24.000000000000000
1.379970000000000 9.105270000000001 -0.888372000000000 32.000000000000000
1.385240000000000 9.129270000000000 -0.747798000000000 77.000000000000000
1.110020000000000 9.224030000000001 -0.878219000000000 23.000000000000000
1.107390000000000 9.188639999999999 -0.731645000000000 56.000000000000000
1.396250000000000 9.116040000000000 -1.032820000000000 18.000000000000000
0.820518000000000 9.228280000000000 -1.360160000000000 10.000000000000000
0.822599000000000 9.233420000000001 -1.002130000000000 42.000000000000000
0.825865000000000 9.215490000000001 -0.856693000000000 19.000000000000000
1.118840000000000 9.162490000000000 -1.502300000000000 53.000000000000000
1.123060000000000 9.183730000000001 -1.018180000000000 77.000000000000000
1.412350000000000 9.104329999999999 -0.888756000000000 88.000000000000000
1.417100000000000 9.124380000000000 -0.747798000000000 51.000000000000000
1.138300000000000 9.188490000000000 -0.875207000000000 16.000000000000000
1.138480000000000 9.176800000000000 -0.731014000000000 53.000000000000000
1.428060000000000 9.111110000000000 -1.032820000000000 34.000000000000000
0.854183000000000 9.241130000000000 -1.362480000000000 39.000000000000000
0.857025000000000 9.254250000000001 -1.004710000000000 12.000000000000000
0.857659000000000 9.208589999999999 -0.856324000000000 18.000000000000000
1.151800000000000 9.166359999999999 -1.503580000000000 9.000000000000000
1.155120000000000 9.179750000000000 -1.018180000000000 90.000000000000000
1.443500000000000 9.095420000000001 -0.888372000000000 100.000000000000000
1.447060000000000 9.107570000000001 -0.746829000000000 53.000000000000000
1.171880000000000 9.196310000000000 -0.876337000000000 16.000000000000000
1.169490000000000 9.164859999999999 -0.730384000000000 56.000000000000000
1.458600000000000 9.098220000000000 -1.031930000000000 41.000000000000000
0.885301000000000 9.226270000000000 -1.360740000000000 28.000000000000000
0.888562000000000 9.243290000000000 -1.003850000000000 13.000000000000000
0.889798000000000 9.205539999999999 -0.856324000000000 18.000000000000000
1.184300000000000 9.166200000000000 -1.504230000000000 10.000000000000000
1.189190000000000 9.191440000000000 -1.019930000000000 92.000000000000000
1.477160000000000 9.102110000000000 -0.889524000000000 100.000000000000000
1.473730000000000 9.070980000000000 -0.744246000000000 100.000000000000000
1.202940000000000 9.184260000000000 -0.875584000000000 26.000000000000000
1.200440000000000 9.152810000000001 -0.729754000000000 60.000000000000000
1.490350000000000 9.093070000000001 -1.031930000000000 47.000000000000000
0.918676000000000 9.234940000000000 -1.362480000000000 16.000000000000000
0.918850000000000 9.220340000000000 -1.001700000000000 31.000000000000000
0.921926000000000 9.202380000000000 -0.856324000000000 19.000000000000000
1.212130000000000 9.130699999999999 -1.499090000000000 11.000000000000000
1.218650000000000 9.167529999999999 -1.017740000000000 23.000000000000000
1.507620000000000 9.089050000000000 -0.888756000000000 88.000000000000000
1.232860000000000 9.164220000000000 -0.874078000000000 42.000000000000000
1.231850000000000 9.144620000000000 -0.729438000000000 53.000000000000000
0.949690000000000 9.219860000000001 -1.360740000000000 54.000000000000000
0.947356000000000 9.181480000000001 -0.997833000000000 43.000000000000000
0.951166000000000 9.171370000000000 -0.853742000000000 19.000000000000000
1.247200000000000 9.149889999999999 -1.502940000000000 48.000000000000000
1.249030000000000 9.151400000000001 -1.016430000000000 32.000000000000000
1.265930000000000 9.167750000000000 -0.874831000000000 42.000000000000000
1.263760000000000 9.140260000000000 -0.729438000000000 42.000000000000000
0.980191000000000 9.200749999999999 -1.358420000000000 66.000000000000000
0.983619000000000 9.217660000000000 -1.002130000000000 56.000000000000000
0.983599000000000 9.171950000000001 -0.854111000000000 19.000000000000000
1.278030000000000 9.137660000000000 -1.501660000000000 60.000000000000000
1.282070000000000 9.154859999999999 -1.017300000000000 34.000000000000000
1.296250000000000 9.151450000000001 -0.873702000000000 43.000000000000000
1.295100000000000 9.131850000000000 -0.729123000000000 60.000000000000000
1.013600000000000 9.209080000000000 -1.360160000000000 56.000000000000000
1.016220000000000 9.218120000000001 -1.002560000000000 47.000000000000000
1.015170000000000 9.164510000000000 -0.853742000000000 21.000000000000000
1.306560000000000 9.109690000000001 -1.497800000000000 61.000000000000000
1.309500000000000 9.118840000000001 -1.013800000000000 84.000000000000000
1.327620000000000 9.142930000000000 -0.873325000000000 18.000000000000000
1.326400000000000 9.123320000000000 -0.728808000000000 57.000000000000000
1.047080000000000 9.217280000000001 -1.361900000000000 23.000000000000000
1.052440000000000 9.250080000000001 -1.006430000000000 15.000000000000000
1.046250000000000 9.152990000000001 -0.853005000000000 24.000000000000000
1.337200000000000 9.097260000000000 -1.496510000000000 15.000000000000000
1.341900000000000 9.118150000000000 -1.014240000000000 100.000000000000000
1.362450000000000 9.157930000000000 -0.875207000000000 20.000000000000000
1.357650000000000 9.114690000000000 -0.728493000000000 67.000000000000000
1.071880000000000 9.150679999999999 -1.352610000000000 12.000000000000000
1.077770000000000 9.187099999999999 -0.999983000000000 18.000000000000000
1.077060000000000 9.153430000000000 -0.853374000000000 23.000000000000000
1.368540000000000 9.100590000000000 -1.497800000000000 14.000000000000000
1.372720000000000 9.117580000000000 -1.014680000000000 100.000000000000000
1.389220000000000 9.129740000000000 -0.872949000000000 29.000000000000000
1.387260000000000 9.106199999999999 -0.728177000000000 45.000000000000000
0.817307000000000 9.287710000000001 -0.989823000000000 100.000000000000000
0.818767000000000 9.285750000000000 -0.845067000000000 5.000000000000000
1.105530000000000 9.174569999999999 -1.356670000000000 16.000000000000000
1.108230000000000 9.183479999999999 -0.999983000000000 28.000000000000000
1.107090000000000 9.133800000000001 -0.851898000000000 17.000000000000000
1.400300000000000 9.095750000000001 -1.497800000000000 15.000000000000000
1.406350000000000 9.124520000000000 -1.015990000000000 63.000000000000000
0.829514000000000 9.223610000000001 -1.243890000000000 46.000000000000000
1.421690000000000 9.128769999999999 -0.873325000000000 65.000000000000000
1.420270000000000 9.109180000000000 -0.728808000000000 48.000000000000000
0.847547000000000 9.261039999999999 -0.987289000000000 10.000000000000000
0.851175000000000 9.282830000000001 -0.845067000000000 3.000000000000000
1.131710000000000 9.123530000000001 -1.349700000000000 57.000000000000000
1.140770000000000 9.183500000000000 -1.000410000000000 55.000000000000000
1.139950000000000 9.137779999999999 -0.852636000000000 17.000000000000000
1.436950000000000 9.122010000000000 -1.502940000000000 67.000000000000000
1.440050000000000 9.131340000000000 -1.017300000000000 56.000000000000000
0.863550000000000 9.240390000000000 -1.246550000000000 18.000000000000000
1.450420000000000 9.104089999999999 -0.871443000000000 76.000000000000000
1.450800000000000 9.096290000000000 -0.728177000000000 39.000000000000000
0.878740000000000 9.246140000000000 -0.986023000000000 9.000000000000000
0.881308000000000 9.256010000000000 -0.842900000000000 3.000000000000000
1.165050000000000 9.131300000000000 -1.351450000000000 79.000000000000000
1.172320000000000 9.175520000000001 -0.999983000000000 60.000000000000000
1.173360000000000 9.145600000000000 -0.853742000000000 18.000000000000000
1.465650000000000 9.097450000000000 -1.499730000000000 70.000000000000000
1.466220000000000 9.090930000000000 -1.013360000000000 71.000000000000000
0.895417000000000 9.233380000000000 -1.246020000000000 19.000000000000000
1.485390000000000 9.118620000000000 -0.873325000000000 85.000000000000000
1.479980000000000 9.075430000000001 -0.726916000000000 83.000000000000000
0.910229000000000 9.235099999999999 -0.985178000000000 13.000000000000000
0.914786000000000 9.264770000000000 -0.843984000000000 5.000000000000000
1.200520000000000 9.154650000000000 -1.355510000000000 81.000000000000000
1.201750000000000 9.151650000000000 -0.997833000000000 54.000000000000000
1.203200000000000 9.125650000000000 -0.852267000000000 25.000000000000000
1.493540000000000 9.068899999999999 -1.495870000000000 92.000000000000000
1.497950000000000 9.085760000000001 -1.013360000000000 100.000000000000000
0.926453000000000 9.218360000000001 -1.244420000000000 19.000000000000000
0.942056000000000 9.227910000000000 -0.984756000000000 32.000000000000000
0.944689000000000 9.237740000000001 -0.841817000000000 7.000000000000000
1.231410000000000 9.142560000000000 -1.354350000000000 34.000000000000000
1.234750000000000 9.155290000000001 -0.998693000000000 24.000000000000000
1.233980000000000 9.113500000000000 -0.851530000000000 28.000000000000000
1.240390000000000 9.148880000000000 -0.712030000000000 12.000000000000000
1.523220000000000 9.051959999999999 -1.493940000000000 100.000000000000000
0.957805000000000 9.207190000000001 -1.243350000000000 34.000000000000000
0.975098000000000 9.232480000000001 -0.985600000000000 42.000000000000000
0.977348000000000 9.238350000000001 -0.842178000000000 9.000000000000000
1.261150000000000 9.122520000000000 -1.352030000000000 26.000000000000000
1.267790000000000 9.158799999999999 -0.999553000000000 28.000000000000000
1.265780000000000 9.109140000000000 -0.851530000000000 27.000000000000000
1.269570000000000 9.124750000000001 -0.710492000000000 17.000000000000000
0.990786000000000 9.211670000000000 -1.244420000000000 39.000000000000000
1.006020000000000 9.217160000000000 -0.984333000000000 49.000000000000000
1.009160000000000 9.230919999999999 -0.841817000000000 7.000000000000000
1.296320000000000 9.141570000000000 -1.355510000000000 28.000000000000000
1.298640000000000 9.146440000000000 -0.998693000000000 30.000000000000000
1.298690000000000 9.112550000000001 -0.852267000000000 19.000000000000000
1.301420000000000 9.120260000000000 -0.710492000000000 100.000000000000000
1.022500000000000 9.204219999999999 -1.243890000000000 37.000000000000000
1.037920000000000 9.225630000000001 -0.985600000000000 14.000000000000000
1.042440000000000 9.251280000000000 -0.843984000000000 4.000000000000000
1.322650000000000 9.109810000000000 -1.351450000000000 73.000000000000000
1.322670000000000 9.098800000000001 -0.993964000000000 80.000000000000000
1.328330000000000 9.104250000000000 -0.851898000000000 19.000000000000000
1.330500000000000 9.108000000000001 -0.709877000000000 79.000000000000000
1.053920000000000 9.208650000000000 -1.244950000000000 25.000000000000000
1.068510000000000 9.222140000000000 -0.985600000000000 13.000000000000000
1.070360000000000 9.224030000000001 -0.841817000000000 5.000000000000000
1.353430000000000 9.109290000000000 -1.352030000000000 100.000000000000000
1.356340000000000 9.117960000000000 -0.996543000000000 76.000000000000000
1.358330000000000 9.087740000000000 -0.850792000000000 22.000000000000000
1.360510000000000 9.091469999999999 -0.708954000000000 25.000000000000000
0.794002000000000 9.303599999999999 -0.973165000000000 10.000000000000000
0.794768000000000 9.293440000000000 -0.827523000000000 10.000000000000000
1.084190000000000 9.189170000000001 -1.242820000000000 27.000000000000000
1.101830000000000 9.214210000000000 -0.985178000000000 18.000000000000000
1.104160000000000 9.220039999999999 -0.841817000000000 5.000000000000000
1.386810000000000 9.104270000000000 -1.352030000000000 100.000000000000000
1.389150000000000 9.109000000000000 -0.996114000000000 86.000000000000000
1.388840000000000 9.075070000000000 -0.850055000000000 36.000000000000000
1.392240000000000 9.086660000000000 -0.708954000000000 31.000000000000000
0.825416000000000 9.288890000000000 -0.971921000000000 25.000000000000000
0.828970000000000 9.310449999999999 -0.829290000000000 8.000000000000000
1.115310000000000 9.177460000000000 -1.241760000000000 42.000000000000000
0.838346000000000 9.269220000000001 -1.167500000000000 32.000000000000000
1.131550000000000 9.190569999999999 -0.983067000000000 51.000000000000000
1.133410000000000 9.192410000000001 -0.839650000000000 7.000000000000000
1.417360000000000 9.091550000000000 -1.350860000000000 84.000000000000000
1.419100000000000 9.092309999999999 -0.994824000000000 38.000000000000000
1.418660000000000 9.058360000000000 -0.848948000000000 51.000000000000000
1.424570000000000 9.085690000000000 -0.709261000000000 47.000000000000000
0.856006000000000 9.266140000000000 -0.969848000000000 12.000000000000000
0.859262000000000 9.283700000000000 -0.827169000000000 7.000000000000000
1.144880000000000 9.153840000000001 -1.239090000000000 23.000000000000000
0.865127000000000 9.206970000000000 -1.160040000000000 15.000000000000000
1.163630000000000 9.186560000000000 -0.983067000000000 57.000000000000000
1.162980000000000 9.168640000000000 -0.837844000000000 8.000000000000000
1.448460000000000 9.082640000000000 -1.350280000000000 37.000000000000000
1.452710000000000 9.099080000000001 -0.996114000000000 36.000000000000000
1.453420000000000 9.073020000000000 -0.850792000000000 48.000000000000000
1.456910000000000 9.084600000000000 -0.709569000000000 53.000000000000000
0.888725000000000 9.267060000000001 -0.970263000000000 15.000000000000000
0.892044000000000 9.284610000000001 -0.827523000000000 7.000000000000000
1.178340000000000 9.161580000000001 -1.240690000000000 26.000000000000000
0.899956000000000 9.231540000000001 -1.163520000000000 16.000000000000000
1.195690000000000 9.182440000000000 -0.983067000000000 60.000000000000000
1.197560000000000 9.184270000000000 -0.839650000000000 10.000000000000000
1.484620000000000 9.104870000000000 -1.354350000000000 36.000000000000000
1.484470000000000 9.093950000000000 -0.996114000000000 40.000000000000000
1.485090000000000 9.067890000000000 -0.850792000000000 53.000000000000000
1.487960000000000 9.075519999999999 -0.709261000000000 47.000000000000000
0.919887000000000 9.252020000000000 -0.969019000000000 34.000000000000000
0.920893000000000 9.245760000000001 -0.824341000000000 26.000000000000000
1.209790000000000 9.153480000000000 -1.240160000000000 26.000000000000000
0.930180000000000 9.208600000000001 -1.161030000000000 31.000000000000000
1.230370000000000 9.197929999999999 -0.985178000000000 21.000000000000000
1.228020000000000 9.168189999999999 -0.838567000000000 8.000000000000000
1.514440000000000 9.087920000000000 -1.352610000000000 82.000000000000000
1.517510000000000 9.096560000000000 -0.996973000000000 15.000000000000000
0.950954000000000 9.236879999999999 -0.967775000000000 41.000000000000000
0.953570000000000 9.246449999999999 -0.824695000000000 26.000000000000000
1.241200000000000 9.145280000000000 -1.239630000000000 69.000000000000000
0.964794000000000 9.228980000000000 -1.164020000000000 38.000000000000000
1.259220000000000 9.169930000000001 -0.982644000000000 22.000000000000000
1.261100000000000 9.171740000000000 -0.839289000000000 8.000000000000000
0.982000000000000 9.237629999999999 -0.968189000000000 41.000000000000000
0.984227000000000 9.243240000000000 -0.824695000000000 28.000000000000000
1.270430000000000 9.133260000000000 -1.238560000000000 61.000000000000000
0.995298000000000 9.209780000000000 -1.162030000000000 42.000000000000000
1.289000000000000 9.149720000000000 -0.980955000000000 22.000000000000000
1.293110000000000 9.167280000000000 -0.839289000000000 9.000000000000000
1.017590000000000 9.249790000000001 -0.969848000000000 21.000000000000000
1.019410000000000 9.251450000000000 -0.825755000000000 9.000000000000000
1.305020000000000 9.136390000000000 -1.239630000000000 71.000000000000000
1.027590000000000 9.222200000000001 -1.164020000000000 20.000000000000000
1.321610000000000 9.161149999999999 -0.982644000000000 62.000000000000000
1.325210000000000 9.174770000000001 -0.840372000000000 9.000000000000000
1.048260000000000 9.246370000000001 -0.969848000000000 14.000000000000000
1.049180000000000 9.240100000000000 -0.825048000000000 9.000000000000000
1.335310000000000 9.132009999999999 -1.239630000000000 23.000000000000000
1.057260000000000 9.210860000000000 -1.163020000000000 16.000000000000000
1.349660000000000 9.140969999999999 -0.980955000000000 57.000000000000000
1.350390000000000 9.134860000000000 -0.837122000000000 11.000000000000000
1.078680000000000 9.226839999999999 -0.968189000000000 18.000000000000000
1.080040000000000 9.224510000000000 -0.823988000000000 10.000000000000000
1.366000000000000 9.119450000000001 -1.238560000000000 20.000000000000000
1.090080000000000 9.199040000000000 -1.162030000000000 13.000000000000000
1.383150000000000 9.135970000000000 -0.980955000000000 69.000000000000000
1.384450000000000 9.133789999999999 -0.837483000000000 9.000000000000000
0.805401000000000 9.220599999999999 -0.946690000000000 82.000000000000000
0.810268000000000 9.257680000000001 -0.806501000000000 7.000000000000000
1.108980000000000 9.207220000000000 -0.966531000000000 38.000000000000000
1.110320000000000 9.204860000000000 -0.822574000000000 31.000000000000000
1.397830000000000 9.114630000000000 -1.238560000000000 21.000000000000000
0.827494000000000 9.268230000000001 -1.117800000000000 57.000000000000000
1.120740000000000 9.183360000000000 -1.160530000000000 41.000000000000000
1.416250000000000 9.138940000000000 -0.981800000000000 29.000000000000000
1.417550000000000 9.136770000000000 -0.838205000000000 15.000000000000000
0.842983000000000 9.277180000000000 -0.952795000000000 41.000000000000000
0.840410000000000 9.230980000000001 -0.804426000000000 6.000000000000000
1.140130000000000 9.195399999999999 -0.965702000000000 43.000000000000000
1.144410000000000 9.216740000000000 -0.823988000000000 33.000000000000000
1.425330000000000 9.082280000000001 -1.234830000000000 73.000000000000000
0.857639000000000 9.241560000000000 -1.114940000000000 49.000000000000000
1.153290000000000 9.183330000000000 -1.161030000000000 56.000000000000000
1.444410000000000 9.110370000000000 -0.979266000000000 28.000000000000000
1.450680000000000 9.139640000000000 -0.838928000000000 17.000000000000000
0.870875000000000 9.226640000000000 -0.947911000000000 34.000000000000000
0.875253000000000 9.255760000000000 -0.806847000000000 6.000000000000000
1.171720000000000 9.187419999999999 -0.965287000000000 48.000000000000000
1.173550000000000 9.188980000000001 -0.821867000000000 32.000000000000000
1.458910000000000 9.088990000000001 -1.236430000000000 93.000000000000000
0.888370000000000 9.222700000000000 -1.113030000000000 48.000000000000000
1.184830000000000 9.175310000000000 -1.160530000000000 59.000000000000000
1.478750000000000 9.120979999999999 -0.980955000000000 30.000000000000000
1.476830000000000 9.099130000000001 -0.835677000000000 20.000000000000000
0.903076000000000 9.223540000000000 -0.947911000000000 33.000000000000000
0.902499000000000 9.201090000000001 -0.802351000000000 11.000000000000000
1.201710000000000 9.167490000000001 -0.963628000000000 36.000000000000000
1.205620000000000 9.184830000000000 -0.821867000000000 18.000000000000000
1.489990000000000 9.079929999999999 -1.235900000000000 100.000000000000000
0.922531000000000 9.239300000000000 -1.115420000000000 38.000000000000000
1.216320000000000 9.167180000000000 -1.160040000000000 37.000000000000000
1.504070000000000 9.076520000000000 -0.976732000000000 63.000000000000000
0.934062000000000 9.208460000000001 -0.946690000000000 15.000000000000000
0.935820000000000 9.209780000000000 -0.803389000000000 10.000000000000000
1.239020000000000 9.202669999999999 -0.967775000000000 21.000000000000000
1.237670000000000 9.180560000000000 -0.821867000000000 19.000000000000000
1.524950000000000 9.094220000000000 -1.238560000000000 98.000000000000000
0.952734000000000 9.216270000000000 -1.113030000000000 15.000000000000000
1.245640000000000 9.143219999999999 -1.157550000000000 19.000000000000000
0.966615000000000 9.209099999999999 -0.947097000000000 14.000000000000000
0.968796000000000 9.214390000000000 -0.804080000000000 10.000000000000000
1.267860000000000 9.174640000000000 -0.965287000000000 22.000000000000000
1.269710000000000 9.176180000000000 -0.821867000000000 16.000000000000000
0.986588000000000 9.228690000000000 -1.114940000000000 14.000000000000000
1.281440000000000 9.178350000000000 -1.162530000000000 19.000000000000000
0.995863000000000 9.193980000000000 -0.945876000000000 20.000000000000000
0.998917000000000 9.207160000000000 -0.803734000000000 9.000000000000000
1.295490000000000 9.150690000000001 -0.963214000000000 41.000000000000000
1.298450000000000 9.160090000000000 -0.820806000000000 35.000000000000000
1.016750000000000 9.221420000000000 -1.114460000000000 23.000000000000000
1.307840000000000 9.134530000000000 -1.157550000000000 39.000000000000000
1.028830000000000 9.198350000000000 -0.946690000000000 33.000000000000000
1.029280000000000 9.187780000000000 -0.802351000000000 8.000000000000000
1.326280000000000 9.138240000000000 -0.962384000000000 69.000000000000000
1.329280000000000 9.147620000000000 -0.820099000000000 38.000000000000000
1.043540000000000 9.170460000000000 -1.108740000000000 64.000000000000000
1.339150000000000 9.125980000000000 -1.157050000000000 63.000000000000000
1.058200000000000 9.170990000000000 -0.944248000000000 31.000000000000000
1.062260000000000 9.192040000000000 -0.803043000000000 7.000000000000000
1.361690000000000 9.157170000000001 -0.964872000000000 50.000000000000000
1.361790000000000 9.146860000000000 -0.820453000000000 40.000000000000000
0.789097000000000 9.269040000000000 -0.789335000000000 18.000000000000000
1.080180000000000 9.206210000000000 -1.113510000000000 64.000000000000000
1.370400000000000 9.117330000000001 -1.156550000000000 63.000000000000000
1.091620000000000 9.179090000000000 -0.945469000000000 30.000000000000000
1.092920000000000 9.176410000000001 -0.802005000000000 9.000000000000000
1.391250000000000 9.136630000000000 -0.963214000000000 51.000000000000000
1.392500000000000 9.134169999999999 -0.819746000000000 29.000000000000000
0.820418000000000 9.273030000000000 -0.934110000000000 15.000000000000000
0.819335000000000 9.242410000000000 -0.787306000000000 18.000000000000000
1.110880000000000 9.190550000000000 -1.112080000000000 60.000000000000000
1.400030000000000 9.108810000000000 -1.156050000000000 74.000000000000000
0.834049000000000 9.279480000000000 -1.086240000000000 16.000000000000000
1.122050000000000 9.175420000000001 -0.945469000000000 29.000000000000000
1.123350000000000 9.172730000000000 -0.802005000000000 11.000000000000000
1.419700000000000 9.120170000000000 -0.961970000000000 28.000000000000000
1.422170000000000 9.125570000000000 -0.819392000000000 30.000000000000000
0.848617000000000 9.242520000000001 -0.931314000000000 15.000000000000000
0.852170000000000 9.263460000000000 -0.789335000000000 10.000000000000000
1.137920000000000 9.159230000000001 -1.108740000000000 17.000000000000000
1.431460000000000 9.111960000000000 -1.157050000000000 27.000000000000000
0.864448000000000 9.272710000000000 -1.085780000000000 18.000000000000000
1.151480000000000 9.163750000000000 -0.944655000000000 32.000000000000000
1.155250000000000 9.180820000000001 -0.803043000000000 11.000000000000000
1.452780000000000 9.123010000000001 -0.962799000000000 34.000000000000000
1.454020000000000 9.120550000000000 -0.819392000000000 33.000000000000000
0.882008000000000 9.251379999999999 -0.932513000000000 15.000000000000000
0.884122000000000 9.256460000000001 -0.788996000000000 10.000000000000000
1.173410000000000 9.182779999999999 -1.112080000000000 21.000000000000000
1.458850000000000 9.079480000000000 -1.153560000000000 28.000000000000000
0.896810000000000 9.269640000000001 -1.085780000000000 17.000000000000000
1.183970000000000 9.163620000000000 -0.945062000000000 33.000000000000000
1.185240000000000 9.160920000000001 -0.801659000000000 10.000000000000000
1.480470000000000 9.102440000000000 -0.961141000000000 44.000000000000000
1.481690000000000 9.099950000000000 -0.817978000000000 47.000000000000000
0.912681000000000 9.248410000000000 -0.932513000000000 12.000000000000000
0.914420000000000 9.249510000000001 -0.788658000000000 39.000000000000000
1.203340000000000 9.174899999999999 -1.111600000000000 23.000000000000000
1.495680000000000 9.105660000000000 -1.157550000000000 37.000000000000000
0.927180000000000 9.246689999999999 -1.083460000000000 7.000000000000000
1.212810000000000 9.135770000000001 -0.942620000000000 29.000000000000000
1.215640000000000 9.144880000000001 -0.800622000000000 8.000000000000000
0.945768000000000 9.253080000000001 -0.933311000000000 12.000000000000000
0.946296000000000 9.242300000000000 -0.788320000000000 28.000000000000000
1.232700000000000 9.150960000000000 -1.109220000000000 64.000000000000000
0.963553000000000 9.282909999999999 -1.088090000000000 5.000000000000000
1.246300000000000 9.143310000000000 -0.943841000000000 27.000000000000000
1.247550000000000 9.140580000000000 -0.800622000000000 8.000000000000000
0.977643000000000 9.245770000000000 -0.932912000000000 9.000000000000000
0.979391000000000 9.246860000000000 -0.788996000000000 27.000000000000000
1.265730000000000 9.154470000000000 -1.110170000000000 72.000000000000000
0.991287000000000 9.236039999999999 -1.083000000000000 6.000000000000000
1.277660000000000 9.134960000000000 -0.943434000000000 25.000000000000000
1.279450000000000 9.136170000000000 -0.800622000000000 10.000000000000000
1.007750000000000 9.222519999999999 -0.930915000000000 16.000000000000000
1.009490000000000 9.223580000000000 -0.787306000000000 21.000000000000000
1.299350000000000 9.161790000000000 -1.111600000000000 67.000000000000000
1.022640000000000 9.224620000000000 -1.082070000000000 15.000000000000000
1.306150000000000 9.106809999999999 -0.940992000000000 63.000000000000000
1.307370000000000 9.104039999999999 -0.798201000000000 13.000000000000000
1.039490000000000 9.214990000000000 -0.930516000000000 16.000000000000000
1.041680000000000 9.220000000000001 -0.787306000000000 12.000000000000000
1.328460000000000 9.137549999999999 -1.109220000000000 26.000000000000000
1.053480000000000 9.209149999999999 -1.080680000000000 19.000000000000000
1.340240000000000 9.117940000000001 -0.942620000000000 47.000000000000000
1.342040000000000 9.119130000000000 -0.799930000000000 13.000000000000000
1.071190000000000 9.207350000000000 -0.930116000000000 16.000000000000000
1.071090000000000 9.192550000000001 -0.785276000000000 13.000000000000000
1.360350000000000 9.132860000000001 -1.109220000000000 26.000000000000000
1.086550000000000 9.213310000000000 -1.081610000000000 22.000000000000000
1.371470000000000 9.109280000000000 -0.942213000000000 60.000000000000000
1.372080000000000 9.102570000000000 -0.798893000000000 12.000000000000000
1.102850000000000 9.199600000000000 -0.929717000000000 13.000000000000000
1.101750000000000 9.176890000000000 -0.784262000000000 34.000000000000000
1.394020000000000 9.139830000000000 -1.110650000000000 31.000000000000000
1.119970000000000 9.233320000000001 -1.084390000000000 7.000000000000000
1.403490000000000 9.116479999999999 -0.943434000000000 22.000000000000000
1.403480000000000 9.105850000000000 -0.799584000000000 10.000000000000000
1.130920000000000 9.176140000000000 -0.927720000000000 13.000000000000000
1.134130000000000 9.189010000000000 -0.785615000000000 37.000000000000000
1.420650000000000 9.111610000000001 -1.107780000000000 96.000000000000000
1.148620000000000 9.213789999999999 -1.082540000000000 7.000000000000000
1.433090000000000 9.107839999999999 -0.943027000000000 28.000000000000000
1.432420000000000 9.093270000000000 -0.798893000000000 10.000000000000000
1.161440000000000 9.160299999999999 -0.926522000000000 11.000000000000000
1.167700000000000 9.196850000000000 -0.786629000000000 38.000000000000000
1.450570000000000 9.094830000000000 -1.106350000000000 93.000000000000000
1.178840000000000 9.181929999999999 -1.079290000000000 6.000000000000000
1.464560000000000 9.090740000000000 -0.941806000000000 27.000000000000000
1.467650000000000 9.099760000000000 -0.799930000000000 12.000000000000000
1.194440000000000 9.164080000000000 -0.927321000000000 14.000000000000000
1.196190000000000 9.165060000000000 -0.784262000000000 14.000000000000000
1.484870000000000 9.105390000000000 -1.108260000000000 100.000000000000000
1.208280000000000 9.158070000000000 -1.076980000000000 14.000000000000000
1.497580000000000 9.093430000000000 -0.942620000000000 101.000000000000000
1.228000000000000 9.171690000000000 -0.928519000000000 18.000000000000000
1.230290000000000 9.176629999999999 -0.785615000000000 25.000000000000000
1.519900000000000 9.119740000000000 -1.110650000000000 29.000000000000000
1.242380000000000 9.169540000000000 -1.078830000000000 23.000000000000000
1.258920000000000 9.159459999999999 -0.927720000000000 17.000000000000000
1.260690000000000 9.160430000000000 -0.784600000000000 15.000000000000000
1.275470000000000 9.173019999999999 -1.079760000000000 26.000000000000000
1.289220000000000 9.143190000000001 -0.926522000000000 15.000000000000000
1.291540000000000 9.148080000000000 -0.783924000000000 37.000000000000000
1.306920000000000 9.164580000000001 -1.079290000000000 12.000000000000000
1.322270000000000 9.146509999999999 -0.927321000000000 14.000000000000000
1.321180000000000 9.127739999999999 -0.782571000000000 47.000000000000000
1.340630000000000 9.171749999999999 -1.080680000000000 9.000000000000000
1.349680000000000 9.122389999999999 -0.925324000000000 15.000000000000000
1.353780000000000 9.139080000000000 -0.783924000000000 50.000000000000000
1.365580000000000 9.119870000000001 -1.075120000000000 7.000000000000000
1.384300000000000 9.125249999999999 -0.926123000000000 17.000000000000000
1.384870000000000 9.118290000000000 -0.782571000000000 24.000000000000000
1.397010000000000 9.123139999999999 -1.076050000000000 20.000000000000000
1.414550000000000 9.120609999999999 -0.926123000000000 17.000000000000000
1.416330000000000 9.121530000000000 -0.783247000000000 30.000000000000000
1.425420000000000 9.106680000000001 -1.074660000000000 35.000000000000000
1.444510000000000 9.103820000000001 -0.924925000000000 17.000000000000000
1.447530000000000 9.112590000000001 -0.782909000000000 26.000000000000000
1.459410000000000 9.105320000000001 -1.075120000000000 36.000000000000000
1.479470000000000 9.118370000000001 -0.926921000000000 18.000000000000000
1.478050000000000 9.099610000000000 -0.782233000000000 56.000000000000000
1.493120000000000 9.111929999999999 -1.076510000000000 36.000000000000000
0.808338000000000 9.231920000000001 -0.911927000000000 13.000000000000000
0.814561000000000 9.284350000000000 -0.772796000000000 2.000000000000000
0.826486000000000 9.235099999999999 -1.056410000000000 14.000000000000000
0.839836000000000 9.221109999999999 -0.911143000000000 11.000000000000000
0.844791000000000 9.257630000000001 -0.770813000000000 2.000000000000000
0.858349000000000 9.228199999999999 -1.055960000000000 13.000000000000000
0.870519000000000 9.202270000000000 -0.909577000000000 11.000000000000000
0.876349000000000 9.246689999999999 -0.770151000000000 2.000000000000000
0.889793000000000 9.217240000000000 -1.055050000000000 14.000000000000000
0.903802000000000 9.211060000000000 -0.910752000000000 7.000000000000000
0.907451000000000 9.231669999999999 -0.769160000000000 7.000000000000000
0.921566000000000 9.210120000000000 -1.054600000000000 11.000000000000000
0.932728000000000 9.176170000000001 -0.907618000000000 3.000000000000000
0.938055000000000 9.212590000000001 -0.767838000000000 6.000000000000000
0.954528000000000 9.214760000000000 -1.055510000000000 9.000000000000000
0.963504000000000 9.160980000000000 -0.906443000000000 3.000000000000000
0.971042000000000 9.217180000000001 -0.768499000000000 6.000000000000000
0.987535000000000 9.219270000000000 -1.056410000000000 9.000000000000000
0.997627000000000 9.177350000000001 -0.908401000000000 6.000000000000000
1.000190000000000 9.186000000000000 -0.766185000000000 2.000000000000000
1.017090000000000 9.192069999999999 -1.053700000000000 16.000000000000000
1.030100000000000 9.177770000000001 -0.908793000000000 12.000000000000000
1.035370000000000 9.210179999999999 -0.768499000000000 2.000000000000000