# This PCD file was generated using the MATLAB® pcwrite function
# from Computer Vision Toolbox®.
# .PCD v.7 - Point Cloud Data file format
VERSION .7
FIELDS x y z intensity
SIZE 8 8 8 8
TYPE F F F F
COUNT 1 1 1 1
WIDTH 319
HEIGHT 1
VIEWPOINT 0 0 0 1 0 0 0
POINTS 319
DATA ascii
-0.490988000000000 6.502610000000000 -0.783368000000000 15.000000000000000
-0.696164000000000 6.542270000000000 -1.587420000000000 24.000000000000000
-0.697985000000000 6.570280000000000 -0.770328000000000 12.000000000000000
-0.674915000000000 6.560130000000000 -1.591180000000000 46.000000000000000
-0.672205000000000 6.545010000000000 -0.767086000000000 27.000000000000000
-0.650474000000000 6.546970000000000 -1.587420000000000 38.000000000000000
-0.648570000000000 6.539400000000000 -0.766159000000000 34.000000000000000
-0.627645000000000 6.537480000000000 -1.584610000000000 37.000000000000000
-0.627260000000000 6.545470000000000 -0.766622000000000 35.000000000000000
-0.604105000000000 6.531880000000000 -1.582730000000000 33.000000000000000
-0.602582000000000 6.527840000000000 -0.764306000000000 31.000000000000000
-0.579922000000000 6.518460000000000 -1.578980000000000 24.000000000000000
-0.580846000000000 6.541780000000000 -0.765696000000000 24.000000000000000
-0.556503000000000 6.512700000000000 -1.577100000000000 11.000000000000000
-0.556995000000000 6.531890000000000 -0.764306000000000 37.000000000000000
-0.533449000000000 6.510720000000000 -1.576160000000000 13.000000000000000
-0.532572000000000 6.514000000000000 -0.761990000000000 38.000000000000000
-0.508895000000000 6.489290000000000 -1.570540000000000 34.000000000000000
-0.508901000000000 6.503930000000000 -0.760601000000000 43.000000000000000
-0.486790000000000 6.483180000000000 -1.568660000000000 58.000000000000000
-0.487627000000000 6.509550000000000 -0.761064000000000 47.000000000000000
-1.116210000000000 6.658790000000000 -1.403370000000000 7.000000000000000
-1.115810000000000 6.663510000000000 -0.769782000000000 3.000000000000000
-1.097300000000000 6.681770000000000 -1.407440000000000 5.000000000000000
-1.091130000000000 6.651490000000000 -0.767971000000000 3.000000000000000
-1.068380000000000 6.650760000000000 -1.400110000000000 5.000000000000000
-1.062870000000000 6.623870000000000 -0.764348000000000 4.000000000000000
-1.046980000000000 6.666060000000000 -1.402560000000000 19.000000000000000
-1.040970000000000 6.635390000000000 -0.765254000000000 36.000000000000000
-1.019540000000000 6.642580000000000 -1.396860000000000 18.000000000000000
-1.010580000000000 6.591840000000000 -0.759820000000000 15.000000000000000
-0.996928000000000 6.642050000000000 -1.396040000000000 16.000000000000000
-0.991658000000000 6.614810000000000 -0.762084000000000 15.000000000000000
-0.972601000000000 6.637740000000000 -1.394420000000000 17.000000000000000
-0.967411000000000 6.610360000000000 -0.761178000000000 16.000000000000000
-1.175300000000000 6.670910000000000 -0.758590000000000 3.000000000000000
-0.945455000000000 6.621570000000000 -0.762084000000000 6.000000000000000
-1.150220000000000 6.657710000000000 -1.233440000000000 5.000000000000000
-1.154710000000000 6.690640000000000 -0.760371000000000 5.000000000000000
-0.924075000000000 6.628850000000000 -1.391160000000000 5.000000000000000
-0.920143000000000 6.609080000000000 -0.760273000000000 7.000000000000000
-1.124350000000000 6.646160000000000 -1.230560000000000 4.000000000000000
-1.128700000000000 6.678950000000000 -0.758590000000000 4.000000000000000
-0.899348000000000 6.620390000000000 -1.388720000000000 3.000000000000000
-0.893862000000000 6.588630000000000 -0.757556000000000 7.000000000000000
-1.102430000000000 6.657810000000000 -1.232000000000000 4.000000000000000
-1.101490000000000 6.659320000000000 -0.755919000000000 4.000000000000000
-0.872124000000000 6.592430000000000 -1.382210000000000 16.000000000000000
-0.869817000000000 6.583830000000000 -0.756650000000000 15.000000000000000
-1.077300000000000 6.649960000000000 -1.229850000000000 3.000000000000000
-1.078870000000000 6.667050000000000 -0.756364000000000 4.000000000000000
-0.850107000000000 6.603210000000000 -1.383830000000000 19.000000000000000
-0.844296000000000 6.567110000000000 -0.754386000000000 21.000000000000000
-1.053460000000000 6.649800000000000 -1.229130000000000 12.000000000000000
-1.046270000000000 6.611880000000000 -0.749686000000000 14.000000000000000
-0.821701000000000 6.563390000000000 -1.374880000000000 18.000000000000000
-0.821367000000000 6.570020000000000 -0.754386000000000 22.000000000000000
-1.026630000000000 6.630100000000000 -1.224820000000000 12.000000000000000
-1.025010000000000 6.627280000000000 -0.751022000000000 16.000000000000000
-0.798786000000000 6.566220000000000 -1.374880000000000 19.000000000000000
-0.797949000000000 6.568900000000000 -0.753933000000000 23.000000000000000
-1.003480000000000 6.633650000000000 -1.224820000000000 16.000000000000000
-1.000680000000000 6.622960000000000 -0.750132000000000 15.000000000000000
-0.779076000000000 6.596190000000000 -1.380580000000000 14.000000000000000
-0.774549000000000 6.567700000000000 -0.753481000000000 21.000000000000000
-0.980327000000000 6.629150000000000 -1.223380000000000 10.000000000000000
-0.979295000000000 6.630170000000000 -0.750577000000000 15.000000000000000
-0.759877000000000 6.622080000000000 -1.385460000000000 9.000000000000000
-0.749146000000000 6.538640000000000 -0.749858000000000 23.000000000000000
-0.954421000000000 6.629780000000000 -0.750132000000000 9.000000000000000
-0.728685000000000 6.562540000000000 -1.372440000000000 4.000000000000000
-0.726928000000000 6.557150000000000 -0.751669000000000 23.000000000000000
-1.167180000000000 6.661540000000000 -1.100700000000000 5.000000000000000
-1.168100000000000 6.673640000000000 -0.745584000000000 6.000000000000000
-0.927877000000000 6.608880000000000 -1.218350000000000 4.000000000000000
-0.927907000000000 6.617490000000000 -0.748351000000000 9.000000000000000
-0.706081000000000 6.557140000000000 -1.370810000000000 4.000000000000000
-0.700931000000000 6.520010000000000 -0.747141000000000 22.000000000000000
-1.143080000000000 6.653700000000000 -1.098770000000000 4.000000000000000
-1.142600000000000 6.657890000000000 -0.743396000000000 5.000000000000000
-0.909249000000000 6.627360000000000 -1.221230000000000 3.000000000000000
-0.906574000000000 6.616430000000000 -0.747906000000000 12.000000000000000
-0.683999000000000 6.567350000000000 -1.372440000000000 18.000000000000000
-0.679401000000000 6.534270000000000 -0.748500000000000 41.000000000000000
-1.119840000000000 6.657650000000000 -1.098770000000000 4.000000000000000
-1.118690000000000 6.657910000000000 -0.742959000000000 5.000000000000000
-0.881940000000000 6.599290000000000 -1.215480000000000 4.000000000000000
-0.881369000000000 6.603790000000000 -0.746125000000000 13.000000000000000
-0.659110000000000 6.550220000000000 -1.368370000000000 20.000000000000000
-0.653808000000000 6.508920000000000 -0.745330000000000 39.000000000000000
-1.094030000000000 6.645930000000000 -1.096200000000000 3.000000000000000
-1.092220000000000 6.642160000000000 -0.740771000000000 6.000000000000000
-0.861437000000000 6.621840000000000 -1.219070000000000 17.000000000000000
-0.858824000000000 6.610770000000000 -0.746570000000000 15.000000000000000
-0.633973000000000 6.517280000000000 -1.361040000000000 20.000000000000000
-0.631067000000000 6.499190000000000 -0.743972000000000 57.000000000000000
-1.071990000000000 6.649520000000000 -1.096200000000000 4.000000000000000
-1.070820000000000 6.649670000000000 -0.741209000000000 7.000000000000000
-0.834527000000000 6.585620000000000 -1.211890000000000 18.000000000000000
-0.833404000000000 6.585980000000000 -0.743454000000000 16.000000000000000
-0.611950000000000 6.527260000000000 -1.362670000000000 19.000000000000000
-0.605044000000000 6.465740000000000 -0.739896000000000 36.000000000000000
-1.046980000000000 6.649440000000000 -0.740771000000000 5.000000000000000
-0.809609000000000 6.572870000000000 -1.209010000000000 18.000000000000000
-0.811380000000000 6.596740000000000 -0.744344000000000 15.000000000000000
-0.589162000000000 6.529350000000000 -1.362670000000000 18.000000000000000
-0.586036000000000 6.507390000000000 -0.744424000000000 24.000000000000000
-1.018930000000000 6.613920000000000 -1.089130000000000 0.000000000000000
-1.021350000000000 6.637340000000000 -0.739021000000000 9.000000000000000
-0.786193000000000 6.571750000000000 -1.208300000000000 13.000000000000000
-0.785991000000000 6.579790000000000 -0.742118000000000 12.000000000000000
-0.565014000000000 6.515760000000000 -1.359410000000000 14.000000000000000
-0.560576000000000 6.477720000000000 -0.740802000000000 23.000000000000000
-1.001120000000000 6.652580000000000 -1.094920000000000 0.000000000000000
-0.999354000000000 6.648730000000000 -0.739896000000000 9.000000000000000
-0.760072000000000 6.547090000000000 -1.203270000000000 4.000000000000000
-0.762103000000000 6.574600000000000 -0.741228000000000 13.000000000000000
-0.543240000000000 6.529400000000000 -1.361860000000000 16.000000000000000
-0.537961000000000 6.479640000000000 -0.740802000000000 27.000000000000000
-0.972727000000000 6.620880000000000 -1.089130000000000 1.000000000000000
-0.974407000000000 6.640370000000000 -0.738583000000000 11.000000000000000
-0.738534000000000 6.561440000000000 -1.205420000000000 4.000000000000000
-0.735597000000000 6.545620000000000 -0.737666000000000 11.000000000000000
-1.184520000000000 6.691120000000000 -0.997606000000000 3.000000000000000
-0.517645000000000 6.496120000000000 -1.354530000000000 22.000000000000000
-0.514710000000000 6.473560000000000 -0.739896000000000 36.000000000000000
-0.945128000000000 6.592970000000000 -1.083990000000000 3.000000000000000
-0.954603000000000 6.667350000000000 -0.741209000000000 2.000000000000000
-0.714773000000000 6.556150000000000 -1.203990000000000 4.000000000000000
-0.714034000000000 6.560000000000000 -0.739002000000000 12.000000000000000
-1.153720000000000 6.652320000000000 -0.991215000000000 4.000000000000000
-0.492587000000000 6.466650000000000 -1.348020000000000 49.000000000000000
-0.490905000000000 6.459460000000000 -0.738085000000000 40.000000000000000
-0.925388000000000 6.619680000000000 -1.087850000000000 3.000000000000000
-0.924177000000000 6.619450000000000 -0.735521000000000 1.000000000000000
-0.691058000000000 6.550780000000000 -1.202550000000000 5.000000000000000
-0.688633000000000 6.538730000000000 -0.736331000000000 13.000000000000000
-1.123200000000000 6.613390000000000 -0.984824000000000 2.000000000000000
-0.900677000000000 6.611140000000000 -1.085920000000000 4.000000000000000
-0.901065000000000 6.622630000000000 -0.735521000000000 2.000000000000000
-0.668187000000000 6.553150000000000 -1.202550000000000 18.000000000000000
-0.666207000000000 6.545050000000000 -0.736776000000000 22.000000000000000
-1.104000000000000 6.640700000000000 -0.988310000000000 2.000000000000000
-0.872920000000000 6.579020000000000 -1.080140000000000 1.000000000000000
-0.643381000000000 6.535870000000000 -1.198960000000000 17.000000000000000
-0.643357000000000 6.547340000000000 -0.736776000000000 28.000000000000000
-1.080180000000000 6.640600000000000 -0.987729000000000 2.000000000000000
-0.850456000000000 6.585940000000000 -1.080780000000000 0.000000000000000
-0.620214000000000 6.522290000000000 -1.196080000000000 17.000000000000000
-0.618636000000000 6.517780000000000 -0.733215000000000 13.000000000000000
-1.059400000000000 6.651960000000000 -0.988891000000000 10.000000000000000
-0.830089000000000 6.600480000000000 -1.082710000000000 0.000000000000000
-0.597802000000000 6.528340000000000 -1.196800000000000 17.000000000000000
-1.028260000000000 6.604790000000000 -0.981337000000000 9.000000000000000
-0.803691000000000 6.575900000000000 -1.078210000000000 0.000000000000000
-1.004010000000000 6.600510000000000 -0.980175000000000 9.000000000000000
-0.777941000000000 6.555140000000000 -1.074360000000000 3.000000000000000
-0.551548000000000 6.524510000000000 -1.195360000000000 4.000000000000000
-0.983869000000000 6.623550000000000 -0.983080000000000 9.000000000000000
-0.752345000000000 6.534290000000000 -1.070500000000000 3.000000000000000
-0.526546000000000 6.498940000000000 -1.190340000000000 4.000000000000000
-0.945979000000000 6.525110000000000 -0.967974000000000 2.000000000000000
-0.728218000000000 6.525100000000000 -1.068570000000000 3.000000000000000
-1.172910000000000 6.664810000000000 -0.908952000000000 10.000000000000000
-0.505073000000000 6.516430000000000 -1.193210000000000 5.000000000000000
-0.934280000000000 6.606740000000000 -0.979594000000000 2.000000000000000
-0.708406000000000 6.555080000000000 -1.073070000000000 4.000000000000000
-1.146940000000000 6.653240000000000 -0.906823000000000 12.000000000000000
-0.482297000000000 6.502370000000000 -1.190340000000000 48.000000000000000
-0.915613000000000 6.633330000000000 -0.983080000000000 2.000000000000000
-0.685020000000000 6.541690000000000 -1.070500000000000 1.000000000000000
-1.123550000000000 6.649180000000000 -0.905758000000000 8.000000000000000
-0.480676000000000 6.802330000000000 -1.244930000000000 6.000000000000000
-0.887705000000000 6.601180000000000 -0.977851000000000 2.000000000000000
-0.662181000000000 6.544040000000000 -1.070500000000000 0.000000000000000
-1.102270000000000 6.664800000000000 -0.907355000000000 8.000000000000000
-0.456929000000000 6.803970000000000 -1.244930000000000 6.000000000000000
-0.865685000000000 6.612090000000000 -0.979013000000000 12.000000000000000
-0.637031000000000 6.522730000000000 -1.066640000000000 1.000000000000000
-1.078370000000000 6.664690000000000 -0.906823000000000 7.000000000000000
-0.838599000000000 6.583660000000000 -0.974365000000000 11.000000000000000
-0.614259000000000 6.524920000000000 -1.066640000000000 1.000000000000000
-0.812208000000000 6.559060000000000 -0.970298000000000 10.000000000000000
-0.588985000000000 6.499500000000000 -1.062150000000000 3.000000000000000
-1.026970000000000 6.640720000000000 -0.902563000000000 1.000000000000000
-0.791198000000000 6.577570000000000 -0.972622000000000 11.000000000000000
-0.565951000000000 6.497580000000000 -1.061500000000000 4.000000000000000
-1.003190000000000 6.640340000000000 -0.902030000000000 1.000000000000000
-0.772822000000000 6.619600000000000 -0.978432000000000 2.000000000000000
-0.543267000000000 6.499520000000000 -1.061500000000000 5.000000000000000
-0.979427000000000 6.639880000000000 -0.901498000000000 1.000000000000000
-0.744369000000000 6.575070000000000 -0.971460000000000 2.000000000000000
-0.520261000000000 6.497440000000000 -1.060860000000000 4.000000000000000
-0.954549000000000 6.631490000000000 -0.899900000000000 7.000000000000000
-1.172230000000000 6.680780000000000 -0.850859000000000 5.000000000000000
-0.717098000000000 6.538290000000000 -0.965650000000000 3.000000000000000
-0.498409000000000 6.495190000000000 -1.060220000000000 6.000000000000000
-0.927034000000000 6.595360000000000 -0.894575000000000 6.000000000000000
-1.150740000000000 6.688540000000000 -0.851357000000000 0.000000000000000
-0.694994000000000 6.536690000000000 -0.965069000000000 4.000000000000000
-0.902392000000000 6.586770000000000 -0.892978000000000 7.000000000000000
-1.123430000000000 6.669030000000000 -0.848370000000000 0.000000000000000
-0.670554000000000 6.523330000000000 -0.962745000000000 6.000000000000000
-0.881492000000000 6.605600000000000 -0.895108000000000 6.000000000000000
-1.098210000000000 6.661170000000000 -0.846876000000000 0.000000000000000
-0.646215000000000 6.509880000000000 -0.960421000000000 7.000000000000000
-0.852812000000000 6.565390000000000 -0.889251000000000 1.000000000000000
-1.071160000000000 6.641450000000000 -0.843889000000000 0.000000000000000
-0.623865000000000 6.516040000000000 -0.961002000000000 8.000000000000000
-0.833368000000000 6.595860000000000 -0.892978000000000 1.000000000000000
-1.049830000000000 6.656910000000000 -0.845383000000000 4.000000000000000
-0.601116000000000 6.518170000000000 -0.961002000000000 6.000000000000000
-0.805990000000000 6.563310000000000 -0.888186000000000 1.000000000000000
-1.018120000000000 6.605620000000000 -0.838412000000000 4.000000000000000
-0.577311000000000 6.508410000000000 -0.959259000000000 10.000000000000000
-0.783075000000000 6.566090000000000 -0.888186000000000 2.000000000000000
-0.996236000000000 6.616980000000000 -0.839408000000000 4.000000000000000
-0.553917000000000 6.502500000000000 -0.958097000000000 12.000000000000000
-0.760606000000000 6.572720000000000 -0.888718000000000 7.000000000000000
-0.972555000000000 6.616490000000000 -0.838910000000000 3.000000000000000
-0.530249000000000 6.492560000000000 -0.956354000000000 12.000000000000000
-0.738542000000000 6.583210000000000 -0.889783000000000 8.000000000000000
-1.181380000000000 6.687630000000000 -0.815810000000000 13.000000000000000
-0.507582000000000 6.494370000000000 -0.956354000000000 13.000000000000000
-0.713705000000000 6.558040000000000 -0.886056000000000 8.000000000000000
-1.159870000000000 6.695420000000000 -0.816287000000000 2.000000000000000
-0.928046000000000 6.626890000000000 -0.839408000000000 0.000000000000000
-0.481024000000000 6.428920000000000 -0.946476000000000 33.000000000000000
-0.689978000000000 6.552600000000000 -0.884991000000000 7.000000000000000
-1.132510000000000 6.675940000000000 -0.813424000000000 1.000000000000000
-0.900078000000000 6.594700000000000 -0.834927000000000 0.000000000000000
-0.465899000000000 6.533200000000000 -0.961583000000000 15.000000000000000
-1.109200000000000 6.679850000000000 -0.813424000000000 1.000000000000000
-0.881237000000000 6.629270000000000 -0.838910000000000 3.000000000000000
-0.639952000000000 6.513860000000000 -0.879133000000000 1.000000000000000
-1.081410000000000 6.656240000000000 -0.810085000000000 1.000000000000000
-0.852998000000000 6.592950000000000 -0.833932000000000 4.000000000000000
-0.618332000000000 6.527900000000000 -0.880731000000000 1.000000000000000
-1.060040000000000 6.671740000000000 -0.811516000000000 10.000000000000000
-0.826511000000000 6.568320000000000 -0.830446000000000 4.000000000000000
-0.595182000000000 6.526070000000000 -0.880198000000000 2.000000000000000
-1.028210000000000 6.620460000000000 -0.804837000000000 7.000000000000000
-0.803578000000000 6.571160000000000 -0.830446000000000 4.000000000000000
-0.572398000000000 6.528110000000000 -0.880198000000000 9.000000000000000
-1.004500000000000 6.620080000000000 -0.804360000000000 7.000000000000000
-0.779700000000000 6.566050000000000 -0.829451000000000 1.000000000000000
-0.547612000000000 6.506360000000000 -0.877003000000000 10.000000000000000
-0.983135000000000 6.635340000000000 -0.805791000000000 7.000000000000000
-0.759500000000000 6.592390000000000 -0.832438000000000 0.000000000000000
-0.521392000000000 6.464770000000000 -0.871146000000000 9.000000000000000
-0.968493000000000 6.697690000000000 -0.812947000000000 1.000000000000000
-0.732079000000000 6.555550000000000 -0.827459000000000 0.000000000000000
-1.177060000000000 6.686360000000000 -1.638090000000000 50.000000000000000
-1.178100000000000 6.699130000000000 -0.793026000000000 33.000000000000000
-0.496993000000000 6.442830000000000 -0.867951000000000 9.000000000000000
-0.933460000000000 6.618440000000000 -0.802929000000000 0.000000000000000
-0.706205000000000 6.530450000000000 -0.823974000000000 0.000000000000000
-1.160320000000000 6.728750000000000 -1.647470000000000 22.000000000000000
-1.153360000000000 6.695370000000000 -0.792099000000000 8.000000000000000
-0.909270000000000 6.613790000000000 -0.801974000000000 0.000000000000000
-0.685883000000000 6.556560000000000 -0.826961000000000 4.000000000000000
-1.127760000000000 6.679080000000000 -1.634330000000000 9.000000000000000
-1.124700000000000 6.668010000000000 -0.788394000000000 7.000000000000000
-0.884069000000000 6.601180000000000 -0.800066000000000 1.000000000000000
-0.660996000000000 6.539170000000000 -0.824472000000000 4.000000000000000
-1.100000000000000 6.656120000000000 -1.627770000000000 10.000000000000000
-1.102710000000000 6.679740000000000 -0.789320000000000 5.000000000000000
-0.862562000000000 6.616040000000000 -0.801497000000000 8.000000000000000
-0.637010000000000 6.529580000000000 -0.822978000000000 5.000000000000000
-1.075520000000000 6.652240000000000 -1.625890000000000 37.000000000000000
-1.078120000000000 6.675700000000000 -0.788394000000000 8.000000000000000
-0.836464000000000 6.595370000000000 -0.798635000000000 8.000000000000000
-0.613470000000000 6.523870000000000 -0.821983000000000 4.000000000000000
-1.049260000000000 6.636750000000000 -1.621200000000000 45.000000000000000
-1.055430000000000 6.683350000000000 -0.788857000000000 42.000000000000000
-0.813437000000000 6.598250000000000 -0.798635000000000 10.000000000000000
-0.588547000000000 6.502250000000000 -0.818996000000000 1.000000000000000
-1.027270000000000 6.648060000000000 -1.623070000000000 37.000000000000000
-1.027850000000000 6.659500000000000 -0.785614000000000 22.000000000000000
-0.787567000000000 6.577390000000000 -0.795772000000000 7.000000000000000
-0.566535000000000 6.512170000000000 -0.819991000000000 1.000000000000000
-1.002900000000000 6.643920000000000 -1.621200000000000 34.000000000000000
-1.001640000000000 6.643410000000000 -0.783298000000000 14.000000000000000
-0.768728000000000 6.615600000000000 -0.800066000000000 0.000000000000000
-0.541488000000000 6.486420000000000 -0.816506000000000 0.000000000000000
-0.966663000000000 6.558900000000000 -1.599620000000000 24.000000000000000
-0.980177000000000 6.658660000000000 -0.784688000000000 16.000000000000000
-0.744741000000000 6.610350000000000 -0.799112000000000 1.000000000000000
-0.518843000000000 6.488280000000000 -0.816506000000000 0.000000000000000
-0.949297000000000 6.600720000000000 -1.609000000000000 8.000000000000000
-0.964837000000000 6.717090000000000 -0.791173000000000 7.000000000000000
-0.716492000000000 6.565540000000000 -0.793387000000000 0.000000000000000
-0.497402000000000 6.505880000000000 -0.818498000000000 6.000000000000000
-0.927331000000000 6.611700000000000 -1.610880000000000 8.000000000000000
-0.933668000000000 6.665340000000000 -0.784688000000000 5.000000000000000
-0.690233000000000 6.536400000000000 -0.789570000000000 2.000000000000000
-0.900033000000000 6.584070000000000 -1.603370000000000 8.000000000000000
-0.903409000000000 6.617380000000000 -0.778666000000000 4.000000000000000
-0.667816000000000 6.542720000000000 -0.790047000000000 8.000000000000000
-0.877558000000000 6.591030000000000 -1.604310000000000 45.000000000000000
-0.883970000000000 6.648060000000000 -0.781909000000000 20.000000000000000
-0.643026000000000 6.525250000000000 -0.787662000000000 7.000000000000000
-0.854546000000000 6.594050000000000 -1.604310000000000 41.000000000000000
-0.855660000000000 6.611700000000000 -0.777276000000000 31.000000000000000
-0.618367000000000 6.507690000000000 -0.785277000000000 8.000000000000000
-0.830064000000000 6.585420000000000 -1.601500000000000 36.000000000000000
-0.827614000000000 6.575230000000000 -0.772644000000000 30.000000000000000
-0.598180000000000 6.537490000000000 -0.788616000000000 6.000000000000000
-0.807072000000000 6.588280000000000 -1.601500000000000 34.000000000000000
-0.804657000000000 6.578080000000000 -0.772644000000000 28.000000000000000
-0.577444000000000 6.563280000000000 -0.791479000000000 1.000000000000000
-0.779017000000000 6.548580000000000 -1.591180000000000 24.000000000000000
-0.784971000000000 6.608470000000000 -0.775887000000000 14.000000000000000
-0.549183000000000 6.501940000000000 -0.783845000000000 1.000000000000000
-0.760166000000000 6.586030000000000 -1.599620000000000 10.000000000000000
-0.760078000000000 6.595380000000000 -0.774034000000000 12.000000000000000
-0.526804000000000 6.507770000000000 -0.784323000000000 1.000000000000000
-0.735010000000000 6.569320000000000 -1.594930000000000 11.000000000000000
-0.733964000000000 6.570350000000000 -0.770791000000000 10.000000000000000