# This PCD file was generated using the MATLAB® pcwrite function
# from Computer Vision Toolbox®.
# .PCD v.7 - Point Cloud Data file format
VERSION .7
FIELDS x y z intensity
SIZE 8 8 8 8
TYPE F F F F
COUNT 1 1 1 1
WIDTH 475
HEIGHT 1
VIEWPOINT 0 0 0 1 0 0 0
POINTS 475
DATA ascii
0.342506000000000 7.023140000000000 -1.144390000000000 14.000000000000000
0.346942000000000 7.088670000000000 -0.781026000000000 30.000000000000000
0.586085000000000 7.086290000000000 -1.298090000000000 17.000000000000000
0.590365000000000 7.122900000000000 -0.800437000000000 6.000000000000000
0.136665000000000 7.047120000000000 -1.034790000000000 15.000000000000000
0.137866000000000 7.045590000000000 -0.761810000000000 55.000000000000000
0.368874000000000 7.057380000000000 -1.150180000000000 13.000000000000000
0.370851000000000 7.071530000000000 -0.779275000000000 27.000000000000000
0.599286000000000 7.065710000000000 -0.684043000000000 8.000000000000000
0.611494000000000 7.092040000000000 -1.299530000000000 26.000000000000000
0.615909000000000 7.128710000000000 -0.801327000000000 5.000000000000000
0.161535000000000 7.058470000000000 -1.036530000000000 13.000000000000000
0.162275000000000 7.037120000000000 -0.760950000000000 39.000000000000000
0.392713000000000 7.064000000000000 -1.151460000000000 2.000000000000000
0.397398000000000 7.125840000000000 -0.785401000000000 9.000000000000000
0.623762000000000 7.075590000000000 -0.685195000000000 14.000000000000000
0.632551000000000 7.062540000000000 -1.294500000000000 26.000000000000000
0.637414000000000 7.102870000000000 -0.798656000000000 5.000000000000000
0.184526000000000 7.042070000000000 -1.034210000000000 16.000000000000000
0.186239000000000 7.060390000000000 -0.763529000000000 28.000000000000000
0.417601000000000 7.066530000000000 -1.152100000000000 2.000000000000000
0.420388000000000 7.092660000000000 -0.781901000000000 7.000000000000000
-0.028322300000000 7.024860000000000 -0.943564000000000 73.000000000000000
0.648821000000000 7.077330000000000 -0.685579000000000 19.000000000000000
0.657929000000000 7.068120000000000 -1.295940000000000 30.000000000000000
-0.017325900000000 7.040410000000000 -0.747435000000000 42.000000000000000
0.663311000000000 7.112480000000000 -0.799992000000000 6.000000000000000
0.207579000000000 6.989960000000000 -1.026660000000000 46.000000000000000
0.210527000000000 7.047780000000000 -0.762240000000000 15.000000000000000
0.440786000000000 7.041390000000000 -1.148250000000000 2.000000000000000
0.443399000000000 7.063370000000000 -0.778838000000000 7.000000000000000
-0.003792260000000 7.009060000000000 -0.941434000000000 21.000000000000000
0.675030000000000 7.090880000000000 -0.687115000000000 16.000000000000000
0.681463000000000 7.054030000000000 -1.293780000000000 39.000000000000000
0.007204790000000 6.996680000000000 -0.742790000000000 13.000000000000000
0.680092000000000 7.027030000000000 -0.790643000000000 19.000000000000000
0.233290000000000 7.028740000000000 -1.032470000000000 55.000000000000000
0.235525000000000 7.058920000000000 -0.763529000000000 15.000000000000000
0.466925000000000 7.063440000000000 -1.152100000000000 2.000000000000000
0.469893000000000 7.089550000000000 -0.781901000000000 6.000000000000000
0.020755800000000 7.036780000000000 -0.945162000000000 14.000000000000000
0.030493000000000 7.016500000000000 -0.744901000000000 15.000000000000000
0.257175000000000 7.043750000000000 -1.034790000000000 47.000000000000000
0.259807000000000 7.081950000000000 -0.766109000000000 13.000000000000000
0.489525000000000 7.050040000000000 -1.150180000000000 6.000000000000000
0.490363000000000 7.044320000000000 -0.777088000000000 18.000000000000000
0.044015900000000 7.024780000000000 -0.943564000000000 13.000000000000000
0.055265500000000 7.052150000000000 -0.748702000000000 17.000000000000000
0.282393000000000 7.058630000000000 -1.037110000000000 48.000000000000000
0.282610000000000 7.033310000000000 -0.760950000000000 30.000000000000000
0.513557000000000 7.040410000000000 -1.148890000000000 7.000000000000000
0.516979000000000 7.070330000000000 -0.780151000000000 21.000000000000000
0.068884800000000 7.060260000000000 -0.948356000000000 12.000000000000000
0.079926800000000 7.055890000000000 -0.749124000000000 20.000000000000000
0.305483000000000 7.022020000000000 -1.031890000000000 9.000000000000000
0.307853000000000 7.048180000000000 -0.762670000000000 44.000000000000000
0.538731000000000 7.046450000000000 -1.150180000000000 11.000000000000000
0.542871000000000 7.084340000000000 -0.781901000000000 24.000000000000000
0.092584000000000 6.988620000000000 -0.938772000000000 34.000000000000000
0.104379000000000 7.043640000000000 -0.747857000000000 47.000000000000000
0.333151000000000 7.088110000000000 -1.041760000000000 8.000000000000000
0.333391000000000 7.066920000000000 -0.764819000000000 40.000000000000000
0.567416000000000 7.095690000000000 -1.158530000000000 10.000000000000000
0.568867000000000 7.098250000000000 -0.783651000000000 23.000000000000000
0.117775000000000 7.035820000000000 -0.945162000000000 42.000000000000000
0.129402000000000 7.067100000000000 -0.750391000000000 42.000000000000000
0.356693000000000 7.063190000000000 -1.038280000000000 9.000000000000000
0.357453000000000 7.053800000000000 -0.763529000000000 39.000000000000000
0.587911000000000 7.042520000000000 -1.150180000000000 2.000000000000000
0.590327000000000 7.056600000000000 -0.779275000000000 5.000000000000000
0.142494000000000 7.043300000000000 -0.946226000000000 38.000000000000000
0.153984000000000 7.062620000000000 -0.749968000000000 30.000000000000000
0.382200000000000 7.077710000000000 -1.040600000000000 13.000000000000000
0.384440000000000 7.096190000000000 -0.768259000000000 14.000000000000000
0.617965000000000 7.103350000000000 -1.160460000000000 1.000000000000000
0.618063000000000 7.090150000000000 -0.783213000000000 5.000000000000000
0.167455000000000 7.058610000000000 -0.948356000000000 42.000000000000000
0.178535000000000 7.058070000000000 -0.749546000000000 38.000000000000000
0.403723000000000 7.021020000000000 -1.032470000000000 24.000000000000000
0.408521000000000 7.082890000000000 -0.766969000000000 11.000000000000000
0.638130000000000 7.050040000000000 -1.152100000000000 1.000000000000000
-0.035908000000000 7.045740000000000 -0.734331000000000 71.000000000000000
0.643527000000000 7.095870000000000 -0.784088000000000 5.000000000000000
0.191554000000000 7.038170000000000 -0.945694000000000 11.000000000000000
-0.024696900000000 7.005060000000000 -0.878740000000000 27.000000000000000
0.204087000000000 7.089210000000000 -0.752924000000000 10.000000000000000
0.431120000000000 7.066970000000000 -1.039440000000000 30.000000000000000
0.433971000000000 7.093330000000000 -0.768259000000000 9.000000000000000
0.667540000000000 7.098870000000000 -1.160460000000000 1.000000000000000
-0.011300700000000 7.037870000000000 -0.733502000000000 66.000000000000000
0.669038000000000 7.101490000000000 -0.784964000000000 5.000000000000000
0.217094000000000 7.069160000000000 -0.949954000000000 7.000000000000000
-0.000245355000000 7.028910000000000 -0.881727000000000 34.000000000000000
0.228704000000000 7.084480000000000 -0.752502000000000 9.000000000000000
0.455786000000000 7.065420000000000 -1.039440000000000 34.000000000000000
0.457445000000000 7.071930000000000 -0.766109000000000 9.000000000000000
0.687251000000000 7.057320000000000 -1.154030000000000 9.000000000000000
0.011990100000000 7.010020000000000 -0.730599000000000 53.000000000000000
0.687179000000000 7.043830000000000 -0.778838000000000 11.000000000000000
0.239321000000000 7.032740000000000 -0.945162000000000 9.000000000000000
0.022894100000000 6.977280000000000 -0.875255000000000 26.000000000000000
0.251205000000000 7.055850000000000 -0.749546000000000 10.000000000000000
0.480285000000000 7.079660000000000 -1.041760000000000 21.000000000000000
0.479545000000000 7.050540000000000 -0.763959000000000 23.000000000000000
0.036583700000000 7.033810000000000 -0.733087000000000 52.000000000000000
0.265206000000000 7.067510000000000 -0.949954000000000 9.000000000000000
0.047517900000000 7.016850000000000 -0.880233000000000 33.000000000000000
0.276454000000000 7.070830000000000 -0.751235000000000 12.000000000000000
0.508374000000000 7.125310000000000 -1.048740000000000 7.000000000000000
0.505288000000000 7.064690000000000 -0.765679000000000 29.000000000000000
0.061274400000000 7.049550000000000 -0.734746000000000 58.000000000000000
0.287600000000000 7.011090000000000 -0.942499000000000 22.000000000000000
0.072133200000000 7.028540000000000 -0.881727000000000 32.000000000000000
0.300965000000000 7.065850000000000 -0.750813000000000 29.000000000000000
0.530879000000000 7.091920000000000 -1.044090000000000 5.000000000000000
0.531730000000000 7.086670000000000 -0.768259000000000 22.000000000000000
0.085590700000000 7.025420000000000 -0.732258000000000 100.000000000000000
0.314188000000000 7.057570000000000 -0.948889000000000 25.000000000000000
0.098335800000000 7.059980000000000 -0.885710000000000 11.000000000000000
0.327780000000000 7.084570000000000 -0.752924000000000 29.000000000000000
0.555320000000000 7.070200000000000 -1.041180000000000 5.000000000000000
0.557076000000000 7.076750000000000 -0.767399000000000 24.000000000000000
0.111403000000000 7.029040000000000 -0.732673000000000 101.000000000000000
0.340053000000000 7.056370000000000 -0.948889000000000 31.000000000000000
0.122564000000000 7.035780000000000 -0.882723000000000 9.000000000000000
0.352310000000000 7.079410000000000 -0.752502000000000 31.000000000000000
0.577730000000000 7.040610000000000 -1.037110000000000 16.000000000000000
0.581450000000000 7.070800000000000 -0.766969000000000 8.000000000000000
0.136476000000000 7.056450000000000 -0.735575000000000 101.000000000000000
0.365296000000000 7.067020000000000 -0.950486000000000 32.000000000000000
0.147538000000000 7.055150000000000 -0.885212000000000 8.000000000000000
0.377866000000000 7.094020000000000 -0.754191000000000 23.000000000000000
0.601291000000000 7.026720000000000 -1.035370000000000 21.000000000000000
0.610205000000000 7.116270000000000 -0.772128000000000 7.000000000000000
0.161743000000000 7.083780000000000 -0.738478000000000 100.000000000000000
0.390618000000000 7.077570000000000 -0.952084000000000 8.000000000000000
0.172358000000000 7.062530000000000 -0.886208000000000 7.000000000000000
0.627922000000000 7.048230000000000 -1.038860000000000 23.000000000000000
0.634334000000000 7.106180000000000 -0.771268000000000 6.000000000000000
0.186574000000000 7.087140000000000 -0.738892000000000 44.000000000000000
0.416250000000000 7.092000000000000 -0.954214000000000 4.000000000000000
-0.031563800000000 7.009530000000000 -0.842049000000000 40.000000000000000
0.196124000000000 7.030150000000000 -0.882225000000000 21.000000000000000
0.426185000000000 7.071360000000000 -0.752080000000000 6.000000000000000
0.654346000000000 7.065700000000000 -1.041760000000000 31.000000000000000
-0.020488500000000 6.987510000000000 -0.714698000000000 41.000000000000000
0.657299000000000 7.084120000000000 -0.769118000000000 6.000000000000000
0.211548000000000 7.094400000000000 -0.739722000000000 25.000000000000000
0.439526000000000 7.066760000000000 -0.951019000000000 6.000000000000000
-0.007135960000000 7.049310000000000 -0.846820000000000 46.000000000000000
0.221036000000000 7.041320000000000 -0.883719000000000 24.000000000000000
0.451879000000000 7.085710000000000 -0.753769000000000 6.000000000000000
0.680899000000000 7.083070000000000 -1.044670000000000 43.000000000000000
0.003911470000000 7.003460000000000 -0.716326000000000 49.000000000000000
0.675161000000000 7.010530000000000 -0.761380000000000 23.000000000000000
0.235649000000000 7.073740000000000 -0.737648000000000 27.000000000000000
0.464711000000000 7.073100000000000 -0.952084000000000 6.000000000000000
0.017451100000000 7.041350000000000 -0.845866000000000 44.000000000000000
0.246582000000000 7.068270000000000 -0.887204000000000 23.000000000000000
0.475275000000000 7.064240000000000 -0.751657000000000 13.000000000000000
0.028390300000000 7.011360000000000 -0.717140000000000 73.000000000000000
0.261071000000000 7.092750000000000 -0.739722000000000 26.000000000000000
0.488029000000000 7.051660000000000 -0.949421000000000 13.000000000000000
0.041911400000000 7.021390000000000 -0.843481000000000 42.000000000000000
0.271254000000000 7.067370000000000 -0.887204000000000 21.000000000000000
0.500493000000000 7.070480000000000 -0.752502000000000 18.000000000000000
0.052864400000000 7.011220000000000 -0.717140000000000 54.000000000000000
0.285187000000000 7.075900000000000 -0.738063000000000 74.000000000000000
0.513504000000000 7.061770000000000 -0.951019000000000 16.000000000000000
0.066533100000000 7.033120000000000 -0.844912000000000 43.000000000000000
0.296420000000000 7.078270000000000 -0.888697000000000 6.000000000000000
0.526938000000000 7.092490000000000 -0.755036000000000 18.000000000000000
0.077293900000000 7.007010000000000 -0.716733000000000 53.000000000000000
0.307956000000000 7.059010000000000 -0.736404000000000 93.000000000000000
0.537520000000000 7.067940000000000 -0.952084000000000 23.000000000000000
0.089855400000000 7.032860000000000 -0.844912000000000 15.000000000000000
0.321666000000000 7.089090000000000 -0.890191000000000 5.000000000000000
0.551384000000000 7.086640000000000 -0.754613000000000 25.000000000000000
0.101810000000000 7.010680000000000 -0.717140000000000 64.000000000000000
0.334579000000000 7.073730000000000 -0.738063000000000 88.000000000000000
0.564052000000000 7.073820000000000 -0.953149000000000 21.000000000000000
0.115697000000000 7.036450000000000 -0.845389000000000 14.000000000000000
0.346409000000000 7.087920000000000 -0.890191000000000 4.000000000000000
0.577085000000000 7.096560000000000 -0.755880000000000 6.000000000000000
0.126066000000000 6.998350000000000 -0.715919000000000 100.000000000000000
0.359874000000000 7.084440000000000 -0.739307000000000 74.000000000000000
0.590714000000000 7.095510000000000 -0.956344000000000 4.000000000000000
0.140891000000000 7.067770000000000 -0.849206000000000 13.000000000000000
0.370941000000000 7.082710000000000 -0.889693000000000 4.000000000000000
0.600844000000000 7.082620000000000 -0.754613000000000 4.000000000000000
0.150922000000000 7.017760000000000 -0.717954000000000 101.000000000000000
0.383150000000000 7.079240000000000 -0.738892000000000 23.000000000000000
0.613898000000000 7.089570000000000 -0.955811000000000 3.000000000000000
0.164328000000000 7.067270000000000 -0.849206000000000 13.000000000000000
0.392219000000000 7.041810000000000 -0.884714000000000 15.000000000000000
0.625026000000000 7.088510000000000 -0.755458000000000 4.000000000000000
0.174983000000000 7.049040000000000 -0.721210000000000 52.000000000000000
0.408545000000000 7.089770000000000 -0.740136000000000 18.000000000000000
0.638998000000000 7.091330000000000 -0.956344000000000 4.000000000000000
0.188147000000000 7.034890000000000 -0.845389000000000 39.000000000000000
0.420143000000000 7.075980000000000 -0.889195000000000 17.000000000000000
-0.025038500000000 7.032320000000000 -0.819892000000000 101.000000000000000
0.652458000000000 7.102010000000000 -0.757147000000000 4.000000000000000
0.200705000000000 7.044370000000000 -0.720803000000000 36.000000000000000
0.435989000000000 7.112050000000000 -0.742624000000000 14.000000000000000
0.663503000000000 7.073150000000000 -0.954214000000000 4.000000000000000
0.214775000000000 7.061940000000000 -0.848729000000000 32.000000000000000
0.446325000000000 7.078360000000000 -0.889693000000000 17.000000000000000
0.000737676000000 7.044290000000000 -0.821282000000000 57.000000000000000
0.672430000000000 7.036220000000000 -0.750391000000000 15.000000000000000
0.226266000000000 7.035640000000000 -0.719989000000000 30.000000000000000
0.458288000000000 7.090720000000000 -0.740551000000000 13.000000000000000
0.682738000000000 7.027510000000000 -0.948356000000000 29.000000000000000
0.239397000000000 7.096910000000000 -0.853022000000000 29.000000000000000
0.468822000000000 7.080880000000000 -0.890191000000000 19.000000000000000
0.022893700000000 7.052190000000000 -0.822208000000000 64.000000000000000
0.249211000000000 7.058750000000000 -0.722431000000000 38.000000000000000
0.480872000000000 7.057320000000000 -0.737234000000000 34.000000000000000
0.263430000000000 7.076190000000000 -0.850637000000000 33.000000000000000
0.047563900000000 7.060020000000000 -0.823135000000000 62.000000000000000
0.273849000000000 7.057840000000000 -0.722431000000000 32.000000000000000
0.508347000000000 7.095280000000000 -0.741380000000000 37.000000000000000
0.287967000000000 7.071260000000000 -0.850160000000000 10.000000000000000
0.519114000000000 7.089310000000000 -0.891684000000000 3.000000000000000
0.072370200000000 7.075700000000000 -0.824988000000000 62.000000000000000
0.298484000000000 7.056840000000000 -0.722431000000000 40.000000000000000
0.534304000000000 7.109330000000000 -0.743039000000000 34.000000000000000
0.314052000000000 7.101950000000000 -0.853976000000000 7.000000000000000
0.543553000000000 7.083500000000000 -0.891187000000000 3.000000000000000
0.096850500000000 7.059510000000000 -0.823135000000000 100.000000000000000
0.323115000000000 7.055760000000000 -0.722431000000000 46.000000000000000
0.558181000000000 7.095530000000000 -0.741795000000000 41.000000000000000
0.110285000000000 7.051720000000000 -0.707671000000000 40.000000000000000
0.337894000000000 7.080980000000000 -0.851591000000000 9.000000000000000
0.567641000000000 7.073640000000000 -0.890191000000000 3.000000000000000
0.121834000000000 7.079000000000000 -0.825451000000000 91.000000000000000
0.348918000000000 7.078430000000000 -0.724873000000000 39.000000000000000
0.585226000000000 7.121290000000000 -0.744697000000000 11.000000000000000
0.134214000000000 7.015480000000000 -0.704077000000000 100.000000000000000
0.361390000000000 7.055960000000000 -0.848729000000000 6.000000000000000
0.589348000000000 7.036020000000000 -0.885710000000000 11.000000000000000
0.146297000000000 7.066610000000000 -0.824061000000000 80.000000000000000
0.372785000000000 7.061280000000000 -0.723245000000000 27.000000000000000
0.609741000000000 7.115240000000000 -0.744283000000000 8.000000000000000
0.159242000000000 7.038840000000000 -0.706473000000000 100.000000000000000
0.384499000000000 7.026890000000000 -0.845389000000000 22.000000000000000
0.616665000000000 7.065560000000000 -0.889693000000000 13.000000000000000
0.171540000000000 7.089890000000000 -0.826840000000000 66.000000000000000
0.398549000000000 7.079800000000000 -0.725280000000000 23.000000000000000
0.635281000000000 7.121000000000000 -0.745112000000000 9.000000000000000
0.412026000000000 7.077050000000000 -0.851591000000000 24.000000000000000
0.643119000000000 7.083120000000000 -0.892182000000000 16.000000000000000
0.196397000000000 7.093220000000000 -0.827304000000000 50.000000000000000
0.423022000000000 7.074390000000000 -0.724873000000000 20.000000000000000
0.658665000000000 7.102890000000000 -0.743453000000000 9.000000000000000
0.436972000000000 7.079530000000000 -0.852068000000000 22.000000000000000
0.668958000000000 7.092690000000000 -0.893676000000000 16.000000000000000
0.220784000000000 7.080570000000000 -0.825914000000000 51.000000000000000
0.446960000000000 7.060960000000000 -0.723652000000000 17.000000000000000
0.677737000000000 7.041140000000000 -0.737234000000000 27.000000000000000
0.462198000000000 7.085890000000000 -0.853022000000000 21.000000000000000
0.246187000000000 7.099610000000000 -0.828230000000000 40.000000000000000
0.472931000000000 7.079200000000000 -0.725687000000000 32.000000000000000
0.488564000000000 7.108010000000000 -0.855885000000000 5.000000000000000
0.270665000000000 7.090770000000000 -0.827304000000000 44.000000000000000
0.497080000000000 7.069570000000000 -0.724873000000000 29.000000000000000
0.513658000000000 7.110220000000000 -0.856362000000000 5.000000000000000
0.295249000000000 7.085810000000000 -0.826840000000000 61.000000000000000
0.522341000000000 7.075730000000000 -0.725687000000000 23.000000000000000
0.537533000000000 7.112440000000000 -0.856839000000000 5.000000000000000
0.318566000000000 7.080830000000000 -0.826377000000000 58.000000000000000
0.546720000000000 7.085860000000000 -0.726908000000000 25.000000000000000
0.561731000000000 7.102600000000000 -0.855885000000000 5.000000000000000
0.343858000000000 7.091580000000000 -0.827767000000000 55.000000000000000
0.571131000000000 7.079940000000000 -0.726501000000000 20.000000000000000
0.581616000000000 7.041220000000000 -0.848729000000000 16.000000000000000
0.369229000000000 7.102240000000000 -0.829157000000000 52.000000000000000
0.594172000000000 7.058080000000000 -0.724466000000000 16.000000000000000
0.607213000000000 7.051020000000000 -0.850160000000000 20.000000000000000
0.394679000000000 7.112810000000000 -0.830546000000000 32.000000000000000
0.621239000000000 7.083710000000000 -0.727315000000000 15.000000000000000
0.406308000000000 7.076750000000000 -0.711265000000000 38.000000000000000
0.636431000000000 7.100280000000000 -0.856362000000000 23.000000000000000
0.417097000000000 7.091630000000000 -0.828230000000000 34.000000000000000
0.647974000000000 7.117280000000000 -0.730978000000000 17.000000000000000
0.429049000000000 7.063450000000000 -0.710067000000000 39.000000000000000
0.660341000000000 7.102090000000000 -0.856839000000000 30.000000000000000
0.441105000000000 7.098140000000000 -0.829157000000000 51.000000000000000
0.668580000000000 7.083400000000000 -0.727722000000000 35.000000000000000
0.455999000000000 7.097650000000000 -0.713662000000000 40.000000000000000
0.684746000000000 7.095790000000000 -0.856362000000000 42.000000000000000
0.467639000000000 7.104400000000000 -0.830083000000000 41.000000000000000
0.476736000000000 7.036450000000000 -0.707671000000000 61.000000000000000
0.492710000000000 7.106690000000000 -0.830546000000000 30.000000000000000
0.504124000000000 7.074450000000000 -0.711665000000000 55.000000000000000
0.518092000000000 7.112850000000000 -0.831473000000000 26.000000000000000
0.528815000000000 7.072640000000000 -0.711665000000000 54.000000000000000
0.542581000000000 7.122980000000000 -0.832862000000000 29.000000000000000
0.554126000000000 7.094660000000000 -0.714061000000000 39.000000000000000
0.567126000000000 7.117080000000000 -0.832399000000000 27.000000000000000
0.580506000000000 7.112510000000000 -0.716058000000000 38.000000000000000
0.592295000000000 7.119020000000000 -0.832862000000000 53.000000000000000
0.604317000000000 7.098550000000000 -0.714860000000000 38.000000000000000
0.615557000000000 7.113050000000000 -0.832399000000000 45.000000000000000
0.627853000000000 7.096500000000000 -0.714860000000000 41.000000000000000
0.641452000000000 7.122730000000000 -0.833789000000000 50.000000000000000
0.652986000000000 7.098230000000000 -0.715259000000000 39.000000000000000
0.665940000000000 7.116500000000000 -0.833326000000000 52.000000000000000
-0.029963700000000 6.978780000000000 -0.795139000000000 48.000000000000000
-0.006813350000000 6.971000000000000 -1.448960000000000 71.000000000000000
-0.005641270000000 7.026540000000000 -0.800573000000000 42.000000000000000
0.017579100000000 6.994480000000000 -1.453840000000000 68.000000000000000
0.018907300000000 7.034460000000000 -0.801479000000000 32.000000000000000
0.041024700000000 7.037460000000000 -1.462790000000000 66.000000000000000
0.042329800000000 7.050260000000000 -0.803290000000000 28.000000000000000
0.065480200000000 7.025530000000000 -1.460350000000000 53.000000000000000
0.066939500000000 7.050070000000000 -0.803290000000000 23.000000000000000
0.090254400000000 7.044840000000000 -1.464420000000000 46.000000000000000
0.091290400000000 7.029920000000000 -0.801026000000000 52.000000000000000
0.115960000000000 7.037510000000000 -0.801932000000000 60.000000000000000
0.126719000000000 7.020940000000000 -0.690996000000000 29.000000000000000
0.139977000000000 7.071440000000000 -1.470120000000000 10.000000000000000
0.140842000000000 7.052950000000000 -0.803743000000000 60.000000000000000
0.150883000000000 7.004540000000000 -0.689429000000000 66.000000000000000
0.164021000000000 7.043510000000000 -1.464420000000000 10.000000000000000
0.165367000000000 7.048450000000000 -0.803290000000000 72.000000000000000
-0.042455500000000 7.326780000000000 -1.337600000000000 30.000000000000000
0.189131000000000 7.062470000000000 -1.468490000000000 11.000000000000000
0.190398000000000 7.063720000000000 -0.805101000000000 25.000000000000000
-0.016109400000000 6.992410000000000 -1.276540000000000 100.000000000000000
-0.014964900000000 7.028050000000000 -0.787082000000000 72.000000000000000
0.212242000000000 7.010870000000000 -1.457910000000000 34.000000000000000
0.214207000000000 7.035200000000000 -0.801932000000000 22.000000000000000
0.008382850000000 7.063260000000000 -1.289470000000000 101.000000000000000
0.009567700000000 7.028060000000000 -0.787082000000000 23.000000000000000
0.238167000000000 7.053140000000000 -1.466860000000000 32.000000000000000
0.239707000000000 7.062220000000000 -0.805101000000000 14.000000000000000
0.032964500000000 7.047440000000000 -1.286600000000000 65.000000000000000
0.034196600000000 7.047860000000000 -0.789308000000000 23.000000000000000
0.264749000000000 7.071790000000000 -1.470930000000000 35.000000000000000
0.264993000000000 7.045400000000000 -0.803290000000000 16.000000000000000
0.058893000000000 7.059080000000000 -1.288750000000000 47.000000000000000
0.060129600000000 7.059610000000000 -0.790643000000000 22.000000000000000
0.288632000000000 7.051260000000000 -1.466860000000000 34.000000000000000
0.289257000000000 7.036490000000000 -0.802384000000000 34.000000000000000
0.083393700000000 7.047030000000000 -1.286600000000000 47.000000000000000
0.084676400000000 7.051410000000000 -0.789753000000000 25.000000000000000
0.315057000000000 7.063230000000000 -0.805554000000000 38.000000000000000
0.108535000000000 7.082100000000000 -1.293060000000000 10.000000000000000
0.109043000000000 7.035170000000000 -0.787972000000000 52.000000000000000
0.338789000000000 7.068630000000000 -1.470930000000000 9.000000000000000
0.338947000000000 7.046210000000000 -0.803743000000000 51.000000000000000
0.132663000000000 7.050210000000000 -1.287320000000000 7.000000000000000
0.133600000000000 7.034750000000000 -0.787972000000000 48.000000000000000
0.364064000000000 7.079140000000000 -1.473380000000000 8.000000000000000
0.364565000000000 7.064830000000000 -0.806007000000000 50.000000000000000
0.156303000000000 7.061530000000000 -1.289470000000000 8.000000000000000
0.157548000000000 7.062080000000000 -0.791088000000000 38.000000000000000
0.386681000000000 7.062250000000000 -1.470120000000000 9.000000000000000
0.387991000000000 7.063580000000000 -0.806007000000000 17.000000000000000
0.179619000000000 7.057040000000000 -1.288750000000000 9.000000000000000
0.180457000000000 7.041650000000000 -0.788862000000000 37.000000000000000
0.411421000000000 7.041240000000000 -1.466050000000000 24.000000000000000
0.416202000000000 7.101790000000000 -0.810535000000000 9.000000000000000
-0.030461200000000 7.037450000000000 -0.774462000000000 8.000000000000000
0.423033000000000 7.029270000000000 -0.692955000000000 35.000000000000000
0.204223000000000 7.013070000000000 -1.280850000000000 33.000000000000000
0.207079000000000 7.068760000000000 -0.791979000000000 15.000000000000000
0.435492000000000 7.051560000000000 -1.468490000000000 30.000000000000000
0.437540000000000 7.064670000000000 -0.806460000000000 11.000000000000000
-0.008293590000000 6.988050000000000 -1.137330000000000 20.000000000000000
-0.007111940000000 7.025580000000000 -0.773150000000000 25.000000000000000
0.447350000000000 7.043720000000000 -0.694522000000000 26.000000000000000
0.229600000000000 7.039840000000000 -1.285880000000000 37.000000000000000
0.232274000000000 7.083880000000000 -0.793759000000000 14.000000000000000
0.461890000000000 7.077360000000000 -1.474190000000000 25.000000000000000
0.462976000000000 7.075000000000000 -0.807818000000000 10.000000000000000
0.016126600000000 6.999880000000000 -1.139250000000000 5.000000000000000
0.017333100000000 6.993760000000000 -0.769649000000000 14.000000000000000
0.471402000000000 7.034170000000000 -0.693738000000000 45.000000000000000
0.255308000000000 7.070460000000000 -1.291630000000000 40.000000000000000
0.257576000000000 7.098920000000000 -0.795540000000000 12.000000000000000
0.486428000000000 7.091410000000000 -1.477450000000000 24.000000000000000
0.485344000000000 7.057560000000000 -0.806007000000000 23.000000000000000
0.039494300000000 7.027420000000000 -1.143750000000000 5.000000000000000
0.040686400000000 7.021490000000000 -0.772712000000000 18.000000000000000
0.491932000000000 6.992860000000000 -0.689821000000000 100.000000000000000
0.278753000000000 7.069570000000000 -1.291630000000000 35.000000000000000
0.280014000000000 7.070220000000000 -0.792424000000000 14.000000000000000
0.510263000000000 7.059790000000000 -0.806460000000000 26.000000000000000
0.064060300000000 7.031190000000000 -1.144390000000000 5.000000000000000
0.065269600000000 7.029260000000000 -0.773587000000000 16.000000000000000
0.517511000000000 7.006980000000000 -0.691388000000000 100.000000000000000
0.304779000000000 7.100010000000000 -1.297370000000000 8.000000000000000
0.304350000000000 7.061260000000000 -0.791533000000000 35.000000000000000
0.535038000000000 7.076130000000000 -1.475000000000000 8.000000000000000
0.535504000000000 7.065890000000000 -0.807365000000000 26.000000000000000
0.088404300000000 7.015130000000000 -1.141820000000000 11.000000000000000
0.089653500000000 7.017060000000000 -0.772275000000000 37.000000000000000
0.543195000000000 7.021010000000000 -0.692955000000000 43.000000000000000
0.329196000000000 7.091040000000000 -1.295940000000000 6.000000000000000
0.329737000000000 7.076040000000000 -0.793314000000000 31.000000000000000
0.562517000000000 7.093640000000000 -1.479070000000000 7.000000000000000
0.563602000000000 7.091610000000000 -0.810535000000000 30.000000000000000
0.114180000000000 7.018710000000000 -1.142470000000000 17.000000000000000
0.115764000000000 7.040540000000000 -0.774900000000000 47.000000000000000
0.574071000000000 7.082450000000000 -0.699222000000000 33.000000000000000
0.353946000000000 7.089850000000000 -1.295940000000000 6.000000000000000
0.354634000000000 7.078810000000000 -0.793759000000000 28.000000000000000
0.584425000000000 7.072220000000000 -1.475000000000000 11.000000000000000
0.585804000000000 7.073860000000000 -0.808724000000000 9.000000000000000
0.137609000000000 7.026190000000000 -1.143750000000000 17.000000000000000
0.139111000000000 7.040120000000000 -0.774900000000000 35.000000000000000
0.595880000000000 7.060680000000000 -0.697264000000000 38.000000000000000
0.378455000000000 7.061000000000000 -1.290910000000000 6.000000000000000
0.379936000000000 7.065560000000000 -0.792424000000000 23.000000000000000
0.611016000000000 7.077840000000000 -1.476630000000000 17.000000000000000
0.611727000000000 7.071670000000000 -0.808724000000000 10.000000000000000
0.163635000000000 7.037480000000000 -1.145680000000000 21.000000000000000
0.165192000000000 7.051480000000000 -0.776213000000000 34.000000000000000
0.621937000000000 7.046440000000000 -0.696089000000000 43.000000000000000
0.403207000000000 7.039920000000000 -1.287320000000000 27.000000000000000
0.406970000000000 7.083960000000000 -0.794650000000000 8.000000000000000
0.635368000000000 7.071760000000000 -1.475820000000000 25.000000000000000
0.636764000000000 7.073450000000000 -0.809177000000000 11.000000000000000
0.188094000000000 7.032920000000000 -1.145040000000000 14.000000000000000
0.190555000000000 7.078690000000000 -0.779275000000000 20.000000000000000
0.646390000000000 7.056230000000000 -0.697264000000000 50.000000000000000
0.427502000000000 7.054250000000000 -1.290190000000000 30.000000000000000
0.430459000000000 7.082570000000000 -0.794650000000000 8.000000000000000
-0.018185700000000 6.993020000000000 -1.026660000000000 87.000000000000000
-0.017057300000000 7.031010000000000 -0.760090000000000 94.000000000000000
0.658957000000000 7.057800000000000 -1.473380000000000 28.000000000000000
0.659971000000000 7.055350000000000 -0.807365000000000 15.000000000000000
0.213716000000000 7.067730000000000 -1.150820000000000 3.000000000000000
0.215504000000000 7.085930000000000 -0.780151000000000 12.000000000000000
0.672147000000000 7.065820000000000 -0.698439000000000 55.000000000000000
0.453382000000000 7.072350000000000 -1.293780000000000 30.000000000000000
0.456709000000000 7.104830000000000 -0.797321000000000 8.000000000000000
0.006256330000000 7.028650000000000 -1.031890000000000 52.000000000000000
0.007477130000000 7.023080000000000 -0.759230000000000 25.000000000000000
0.684722000000000 7.067150000000000 -1.475820000000000 47.000000000000000
0.683826000000000 7.045100000000000 -0.806460000000000 23.000000000000000
0.237188000000000 7.031430000000000 -1.145040000000000 3.000000000000000
0.239160000000000 7.053340000000000 -0.776650000000000 10.000000000000000
0.478863000000000 7.082510000000000 -1.295940000000000 27.000000000000000
0.480969000000000 7.095260000000000 -0.796430000000000 18.000000000000000
0.030669500000000 7.000890000000000 -1.027820000000000 49.000000000000000
0.032046500000000 7.034940000000000 -0.760520000000000 24.000000000000000
0.262318000000000 7.046340000000000 -1.147610000000000 3.000000000000000
0.264671000000000 7.076300000000000 -0.779275000000000 10.000000000000000
0.493721000000000 7.081860000000000 -0.684811000000000 16.000000000000000
0.504037000000000 7.069750000000000 -0.793759000000000 21.000000000000000
0.054951200000000 6.980950000000000 -1.024910000000000 49.000000000000000
0.056698900000000 7.046710000000000 -0.761810000000000 19.000000000000000
0.285789000000000 7.017770000000000 -1.143110000000000 10.000000000000000
0.287583000000000 7.031640000000000 -0.774462000000000 25.000000000000000
0.518729000000000 7.084060000000000 -0.685195000000000 20.000000000000000
0.526832000000000 7.059370000000000 -1.292340000000000 5.000000000000000
0.529602000000000 7.079840000000000 -0.795095000000000 22.000000000000000
0.080083400000000 7.047990000000000 -1.034790000000000 53.000000000000000
0.081158500000000 7.034540000000000 -0.760520000000000 24.000000000000000
0.310458000000000 7.020670000000000 -1.143750000000000 13.000000000000000
0.313184000000000 7.054420000000000 -0.777088000000000 26.000000000000000
0.544063000000000 7.090150000000000 -0.685963000000000 22.000000000000000
0.554536000000000 7.096720000000000 -1.299530000000000 5.000000000000000
0.554622000000000 7.081910000000000 -0.795540000000000 22.000000000000000
0.104626000000000 7.043710000000000 -1.034210000000000 19.000000000000000
0.105414000000000 7.014340000000000 -0.758370000000000 72.000000000000000
0.336656000000000 7.055040000000000 -1.149530000000000 14.000000000000000
0.339328000000000 7.085060000000000 -0.780588000000000 28.000000000000000
0.579625000000000 7.098660000000000 -1.300250000000000 6.000000000000000
0.581933000000000 7.111620000000000 -0.799102000000000 10.000000000000000
0.129213000000000 7.043300000000000 -1.034210000000000 16.000000000000000
0.130561000000000 7.049710000000000 -0.762240000000000 60.000000000000000