# This PCD file was generated using the MATLAB® pcwrite function
# from Computer Vision Toolbox®.
# .PCD v.7 - Point Cloud Data file format
VERSION .7
FIELDS x y z intensity
SIZE 8 8 8 8
TYPE F F F F
COUNT 1 1 1 1
WIDTH 510
HEIGHT 1
VIEWPOINT 0 0 0 1 0 0 0
POINTS 510
DATA ascii
-0.352822000000000 7.793760000000000 -0.813113000000000 19.000000000000000
-0.100078000000000 7.737860000000000 -1.039410000000000 73.000000000000000
-0.595418000000000 7.813010000000000 -0.941282000000000 9.000000000000000
-0.340454000000000 7.791440000000000 -0.978314000000000 5.000000000000000
-0.583104000000000 7.813400000000000 -0.801390000000000 4.000000000000000
-0.327309000000000 7.802840000000000 -0.813943000000000 17.000000000000000
-0.825109000000000 7.845120000000000 -0.791537000000000 32.000000000000000
-0.074456400000000 7.742110000000000 -1.039940000000000 81.000000000000000
-0.570949000000000 7.834750000000000 -0.943668000000000 48.000000000000000
-0.313975000000000 7.776670000000000 -0.976322000000000 5.000000000000000
-0.811780000000000 7.836700000000000 -0.918557000000000 33.000000000000000
-0.555776000000000 7.795440000000000 -0.799354000000000 5.000000000000000
-0.299917000000000 7.799960000000000 -0.813528000000000 84.000000000000000
-0.794097000000000 7.812310000000000 -0.787943000000000 31.000000000000000
-0.540024000000000 7.785190000000000 -0.937466000000000 39.000000000000000
-0.285949000000000 7.753920000000000 -0.973335000000000 29.000000000000000
-0.785606000000000 7.851350000000000 -0.919947000000000 50.000000000000000
-0.527754000000000 7.785420000000000 -0.798133000000000 5.000000000000000
-0.271715000000000 7.773120000000000 -0.810625000000000 76.000000000000000
-0.769154000000000 7.838800000000000 -0.790339000000000 21.000000000000000
-0.513106000000000 7.790990000000000 -0.937943000000000 47.000000000000000
-0.259279000000000 7.766770000000000 -0.974829000000000 33.000000000000000
-0.756668000000000 7.838220000000000 -0.918094000000000 44.000000000000000
-0.501595000000000 7.803100000000000 -0.799762000000000 28.000000000000000
-0.244956000000000 7.785950000000000 -0.811869000000000 74.000000000000000
-0.739163000000000 7.813700000000000 -0.787544000000000 20.000000000000000
-0.485413000000000 7.784800000000000 -0.936989000000000 8.000000000000000
-0.232403000000000 7.775560000000000 -0.975824000000000 34.000000000000000
-0.729671000000000 7.844770000000000 -0.918557000000000 43.000000000000000
-0.472906000000000 7.780970000000000 -0.797320000000000 29.000000000000000
-0.217887000000000 7.790740000000000 -0.812284000000000 76.000000000000000
-0.713327000000000 7.832090000000000 -0.789141000000000 25.000000000000000
-0.458703000000000 7.794380000000000 -0.937943000000000 7.000000000000000
-0.204422000000000 7.744590000000000 -0.971841000000000 39.000000000000000
-0.701929000000000 7.843310000000000 -0.918094000000000 36.000000000000000
-0.446197000000000 7.790520000000000 -0.798133000000000 30.000000000000000
-0.190107000000000 7.767590000000000 -0.809796000000000 23.000000000000000
-0.683901000000000 7.810740000000000 -0.786745000000000 49.000000000000000
-0.431273000000000 7.791970000000000 -0.937466000000000 10.000000000000000
-0.177569000000000 7.753190000000000 -0.972837000000000 8.000000000000000
-0.666719000000000 7.754670000000000 -0.907440000000000 12.000000000000000
-0.418360000000000 7.780110000000000 -0.796912000000000 32.000000000000000
-0.163075000000000 7.772180000000000 -0.810211000000000 25.000000000000000
-0.657632000000000 7.824980000000000 -0.787943000000000 33.000000000000000
-0.403866000000000 7.789460000000000 -0.936989000000000 16.000000000000000
-0.150658000000000 7.761700000000000 -0.973833000000000 8.000000000000000
-0.645523000000000 7.828230000000000 -0.915778000000000 12.000000000000000
-0.391399000000000 7.785500000000000 -0.797320000000000 7.000000000000000
-0.136292000000000 7.792590000000000 -0.812284000000000 30.000000000000000
-0.629675000000000 7.819290000000000 -0.787144000000000 35.000000000000000
-0.376865000000000 7.794790000000000 -0.937466000000000 38.000000000000000
-0.123627000000000 7.766140000000000 -0.974331000000000 8.000000000000000
-0.617568000000000 7.822510000000000 -0.914851000000000 13.000000000000000
-0.364592000000000 7.794770000000000 -0.798133000000000 8.000000000000000
-0.108756000000000 7.769150000000000 -0.809796000000000 97.000000000000000
-0.603905000000000 7.841290000000000 -0.789141000000000 17.000000000000000
-0.348764000000000 7.776220000000000 -0.935080000000000 38.000000000000000
-0.096271000000000 7.746680000000000 -0.971841000000000 27.000000000000000
-0.592650000000000 7.856310000000000 -0.918557000000000 46.000000000000000
-0.336865000000000 7.784070000000000 -0.796912000000000 8.000000000000000
-0.573320000000000 7.799680000000000 -0.784748000000000 13.000000000000000
-0.321782000000000 7.781360000000000 -0.935557000000000 41.000000000000000
-0.564937000000000 7.854370000000000 -0.918094000000000 55.000000000000000
-0.308426000000000 7.753390000000000 -0.793656000000000 28.000000000000000
-0.548870000000000 7.841340000000000 -0.788742000000000 14.000000000000000
-0.294768000000000 7.786400000000000 -0.936035000000000 30.000000000000000
-0.536169000000000 7.816560000000000 -0.913462000000000 60.000000000000000
-0.283293000000000 7.770270000000000 -0.795285000000000 42.000000000000000
-0.520217000000000 7.803410000000000 -0.784748000000000 16.000000000000000
-0.268946000000000 7.787340000000000 -0.936035000000000 43.000000000000000
-0.508434000000000 7.790550000000000 -0.910219000000000 66.000000000000000
-0.257261000000000 7.763210000000000 -0.794470000000000 38.000000000000000
-0.491720000000000 7.785310000000000 -0.782751000000000 43.000000000000000
-0.241269000000000 7.772350000000000 -0.934126000000000 43.000000000000000
-0.481098000000000 7.812180000000000 -0.912535000000000 15.000000000000000
-0.229275000000000 7.780010000000000 -0.796098000000000 44.000000000000000
-0.465727000000000 7.806850000000000 -0.784748000000000 35.000000000000000
-0.214355000000000 7.781080000000000 -0.935080000000000 50.000000000000000
-0.452674000000000 7.793980000000000 -0.910219000000000 14.000000000000000
-0.201496000000000 7.756900000000000 -0.793656000000000 13.000000000000000
-0.437803000000000 7.796500000000000 -0.783550000000000 39.000000000000000
-0.186620000000000 7.757960000000000 -0.932218000000000 21.000000000000000
-0.425898000000000 7.803450000000000 -0.911146000000000 14.000000000000000
-0.175044000000000 7.785400000000000 -0.796506000000000 14.000000000000000
-0.410167000000000 7.790040000000000 -0.782751000000000 31.000000000000000
-0.160110000000000 7.786360000000000 -0.935557000000000 14.000000000000000
-0.399467000000000 7.820760000000000 -0.912999000000000 49.000000000000000
-0.147262000000000 7.754140000000000 -0.793249000000000 13.000000000000000
-0.384536000000000 7.823220000000000 -0.785946000000000 29.000000000000000
-0.132523000000000 7.763050000000000 -0.932695000000000 17.000000000000000
-0.371976000000000 7.818140000000000 -0.912535000000000 77.000000000000000
-0.120441000000000 7.770520000000000 -0.794877000000000 26.000000000000000
-0.355410000000000 7.784760000000000 -0.781953000000000 17.000000000000000
-0.105424000000000 7.763460000000000 -0.932695000000000 30.000000000000000
-0.343634000000000 7.795580000000000 -0.909756000000000 81.000000000000000
-0.328066000000000 7.781970000000000 -0.781553000000000 18.000000000000000
-0.078524100000000 7.783640000000000 -0.935080000000000 67.000000000000000
-0.317065000000000 7.812610000000000 -0.911609000000000 77.000000000000000
-0.300900000000000 7.783070000000000 -0.781553000000000 44.000000000000000
-0.290381000000000 7.829550000000000 -0.913462000000000 16.000000000000000
-0.273171000000000 7.768170000000000 -0.779956000000000 38.000000000000000
-0.261181000000000 7.774920000000000 -0.906977000000000 16.000000000000000
-0.246683000000000 7.788960000000000 -0.781953000000000 39.000000000000000
-0.234279000000000 7.783730000000000 -0.907903000000000 16.000000000000000
-0.218708000000000 7.761930000000000 -0.779157000000000 36.000000000000000
-0.206685000000000 7.768610000000000 -0.906050000000000 26.000000000000000
-0.191809000000000 7.770600000000000 -0.779956000000000 31.000000000000000
-0.180484000000000 7.809010000000000 -0.910683000000000 95.000000000000000
-0.164852000000000 7.779180000000000 -0.780755000000000 31.000000000000000
-0.152835000000000 7.789730000000000 -0.908367000000000 94.000000000000000
-0.137486000000000 7.767770000000000 -0.779557000000000 22.000000000000000
-0.125258000000000 7.766380000000000 -0.905587000000000 99.000000000000000
-0.110314000000000 7.764220000000000 -0.779157000000000 55.000000000000000
-0.097896500000000 7.746900000000000 -0.903271000000000 101.000000000000000
-0.812566000000000 7.854990000000000 -0.899739000000000 20.000000000000000
-0.793868000000000 7.793830000000000 -0.770907000000000 40.000000000000000
-0.782376000000000 7.830100000000000 -0.896569000000000 31.000000000000000
-0.766657000000000 7.796560000000000 -0.770907000000000 38.000000000000000
-0.753514000000000 7.816960000000000 -0.894758000000000 28.000000000000000
-0.738311000000000 7.787300000000000 -0.769732000000000 42.000000000000000
-0.727493000000000 7.818400000000000 -1.632110000000000 12.000000000000000
-0.725120000000000 7.807670000000000 -0.893400000000000 26.000000000000000
-0.709676000000000 7.773970000000000 -0.768165000000000 34.000000000000000
-0.699579000000000 7.813990000000000 -0.893853000000000 25.000000000000000
-0.683892000000000 7.776280000000000 -0.768165000000000 42.000000000000000
-0.675267000000000 7.834880000000000 -1.634550000000000 3.000000000000000
-0.673321000000000 7.828260000000000 -0.895211000000000 6.000000000000000
-0.656744000000000 7.778620000000000 -0.768165000000000 42.000000000000000
-0.645333000000000 7.805960000000000 -1.628040000000000 3.000000000000000
-0.648278000000000 7.858290000000000 -0.898381000000000 4.000000000000000
-0.629909000000000 7.784830000000000 -0.768557000000000 34.000000000000000
-0.618699000000000 7.815970000000000 -1.629670000000000 6.000000000000000
-0.617089000000000 7.812960000000000 -0.892947000000000 4.000000000000000
-0.600273000000000 7.755230000000000 -0.765423000000000 28.000000000000000
-0.590822000000000 7.810280000000000 -1.628040000000000 18.000000000000000
-0.584728000000000 7.747700000000000 -0.885249000000000 19.000000000000000
-0.576132000000000 7.796980000000000 -0.769340000000000 13.000000000000000
-0.561301000000000 7.781040000000000 -1.621530000000000 16.000000000000000
-0.558536000000000 7.761580000000000 -0.886608000000000 27.000000000000000
-0.804079000000000 7.818280000000000 -0.758170000000000 19.000000000000000
-0.545278000000000 7.747320000000000 -0.764248000000000 20.000000000000000
-0.788528000000000 7.787250000000000 -0.876563000000000 34.000000000000000
-0.536282000000000 7.814210000000000 -1.628040000000000 16.000000000000000
-0.531982000000000 7.771420000000000 -0.887513000000000 32.000000000000000
-0.774422000000000 7.797260000000000 -0.755865000000000 38.000000000000000
-0.519851000000000 7.753060000000000 -0.764640000000000 11.000000000000000
-0.765412000000000 7.817510000000000 -0.879680000000000 21.000000000000000
-0.511132000000000 7.827670000000000 -1.630480000000000 4.000000000000000
-0.507242000000000 7.789000000000000 -0.889324000000000 27.000000000000000
-0.749702000000000 7.811680000000000 -0.757018000000000 37.000000000000000
-0.492784000000000 7.754830000000000 -0.764640000000000 43.000000000000000
-0.740040000000000 7.811340000000000 -1.432430000000000 38.000000000000000
-0.740232000000000 7.827920000000000 -0.880570000000000 19.000000000000000
-0.483322000000000 7.821590000000000 -1.628850000000000 4.000000000000000
-0.483716000000000 7.850230000000000 -0.896117000000000 5.000000000000000
-0.723163000000000 7.822180000000000 -0.757786000000000 41.000000000000000
-0.465951000000000 7.760470000000000 -0.765031000000000 43.000000000000000
-0.711537000000000 7.830580000000000 -0.880570000000000 27.000000000000000
-0.456472000000000 7.831050000000000 -1.630480000000000 3.000000000000000
-0.453313000000000 7.800290000000000 -0.890230000000000 7.000000000000000
-0.695854000000000 7.824650000000000 -0.757786000000000 61.000000000000000
-0.438184000000000 7.750130000000000 -0.763856000000000 39.000000000000000
-0.686869000000000 7.847800000000000 -1.438170000000000 3.000000000000000
-0.686274000000000 7.856780000000000 -0.883241000000000 5.000000000000000
-0.427849000000000 7.809130000000000 -1.625600000000000 5.000000000000000
-0.426516000000000 7.809760000000000 -0.891136000000000 7.000000000000000
-0.666504000000000 7.803230000000000 -0.755481000000000 100.000000000000000
-0.410918000000000 7.747640000000000 -0.763465000000000 39.000000000000000
-0.657165000000000 7.822700000000000 -1.433140000000000 3.000000000000000
-0.657848000000000 7.847250000000000 -0.881905000000000 4.000000000000000
-0.400587000000000 7.810580000000000 -1.625600000000000 22.000000000000000
-0.396818000000000 7.763570000000000 -0.885702000000000 16.000000000000000
-0.638286000000000 7.793610000000000 -0.754329000000000 101.000000000000000
-0.383280000000000 7.737100000000000 -0.762289000000000 11.000000000000000
-0.630904000000000 7.820910000000000 -1.432430000000000 16.000000000000000
-0.631184000000000 7.841460000000000 -0.881015000000000 4.000000000000000
-0.371870000000000 7.753180000000000 -1.613390000000000 18.000000000000000
-0.370881000000000 7.760880000000000 -0.885249000000000 35.000000000000000
-0.612126000000000 7.791710000000000 -0.753945000000000 100.000000000000000
-0.357989000000000 7.746280000000000 -0.763073000000000 12.000000000000000
-0.602390000000000 7.807370000000000 -1.429550000000000 17.000000000000000
-0.599537000000000 7.788130000000000 -0.874783000000000 6.000000000000000
-0.346022000000000 7.781820000000000 -1.619090000000000 19.000000000000000
-0.343436000000000 7.754180000000000 -0.884344000000000 43.000000000000000
-0.584924000000000 7.793800000000000 -0.753945000000000 60.000000000000000
-0.330947000000000 7.747480000000000 -0.763073000000000 12.000000000000000
-0.574266000000000 7.797660000000000 -1.427400000000000 20.000000000000000
-0.572639000000000 7.794140000000000 -0.875228000000000 23.000000000000000
-0.318856000000000 7.782980000000000 -1.619090000000000 7.000000000000000
-0.317177000000000 7.775190000000000 -0.886608000000000 48.000000000000000
-0.814836000000000 7.834190000000000 -0.866785000000000 7.000000000000000
-0.558000000000000 7.799770000000000 -0.754329000000000 63.000000000000000
-0.302653000000000 7.716770000000000 -0.759939000000000 40.000000000000000
-0.545392000000000 7.776060000000000 -1.423090000000000 22.000000000000000
-0.544042000000000 7.776260000000000 -0.873002000000000 24.000000000000000
-0.292566000000000 7.807530000000000 -1.623970000000000 4.000000000000000
-0.289590000000000 7.764330000000000 -0.885249000000000 10.000000000000000
-0.787882000000000 7.840940000000000 -0.867223000000000 11.000000000000000
-0.531310000000000 7.809610000000000 -0.755097000000000 54.000000000000000
-0.276425000000000 7.737670000000000 -0.761898000000000 49.000000000000000
-0.522431000000000 7.840740000000000 -1.434580000000000 3.000000000000000
-0.517685000000000 7.790010000000000 -0.874337000000000 30.000000000000000
-0.265178000000000 7.804590000000000 -1.623160000000000 5.000000000000000
-0.262486000000000 7.765300000000000 -0.885249000000000 7.000000000000000
-0.757667000000000 7.800170000000000 -1.275480000000000 29.000000000000000
-0.759740000000000 7.835730000000000 -0.866348000000000 6.000000000000000
-0.502252000000000 7.783610000000000 -0.752409000000000 65.000000000000000
-0.249927000000000 7.754500000000000 -0.763465000000000 45.000000000000000
-0.492579000000000 7.803240000000000 -1.427400000000000 3.000000000000000
-0.492238000000000 7.819540000000000 -0.877454000000000 9.000000000000000
-0.239175000000000 7.801510000000000 -1.622340000000000 8.000000000000000
-0.236976000000000 7.774070000000000 -0.886155000000000 9.000000000000000
-0.733640000000000 7.822300000000000 -1.278690000000000 18.000000000000000
-0.734493000000000 7.846120000000000 -0.867223000000000 6.000000000000000
-0.477411000000000 7.801130000000000 -0.753945000000000 90.000000000000000
-0.223406000000000 7.727430000000000 -0.760723000000000 44.000000000000000
-0.466230000000000 7.796980000000000 -1.425960000000000 3.000000000000000
-0.465831000000000 7.813190000000000 -0.876563000000000 5.000000000000000
-0.210666000000000 7.755320000000000 -1.612570000000000 22.000000000000000
-0.209516000000000 7.762930000000000 -0.884796000000000 13.000000000000000
-0.704556000000000 7.805150000000000 -1.275480000000000 16.000000000000000
-0.705317000000000 7.828840000000000 -0.865035000000000 6.000000000000000
-0.448571000000000 7.774920000000000 -0.751256000000000 89.000000000000000
-0.196228000000000 7.720210000000000 -0.759939000000000 12.000000000000000
-0.440780000000000 7.829990000000000 -1.431710000000000 20.000000000000000
-0.437887000000000 7.802870000000000 -0.875228000000000 5.000000000000000
-0.183037000000000 7.732520000000000 -1.607690000000000 24.000000000000000
-0.181951000000000 7.743750000000000 -0.882532000000000 44.000000000000000
-0.675600000000000 7.787900000000000 -1.272260000000000 16.000000000000000
-0.672841000000000 7.771830000000000 -0.858472000000000 26.000000000000000
-0.422291000000000 7.792340000000000 -0.752793000000000 76.000000000000000
-0.169366000000000 7.724820000000000 -0.760331000000000 13.000000000000000
-0.412409000000000 7.811830000000000 -1.428120000000000 23.000000000000000
-0.411065000000000 7.812290000000000 -0.876118000000000 6.000000000000000
-0.156202000000000 7.740940000000000 -1.609320000000000 33.000000000000000
-0.154680000000000 7.732420000000000 -0.881174000000000 52.000000000000000
-0.648084000000000 7.786270000000000 -1.271620000000000 7.000000000000000
-0.647024000000000 7.789990000000000 -0.860222000000000 35.000000000000000
-0.394685000000000 7.785810000000000 -0.752025000000000 21.000000000000000
-0.142840000000000 7.749250000000000 -0.762681000000000 14.000000000000000
-0.637078000000000 7.819120000000000 -0.741574000000000 43.000000000000000
-0.384363000000000 7.797500000000000 -1.425240000000000 25.000000000000000
-0.382623000000000 7.789850000000000 -0.873447000000000 33.000000000000000
-0.129703000000000 7.772760000000000 -1.615830000000000 28.000000000000000
-0.127426000000000 7.717010000000000 -0.879363000000000 59.000000000000000
-0.622156000000000 7.804230000000000 -1.274190000000000 3.000000000000000
-0.621404000000000 7.812010000000000 -0.862410000000000 33.000000000000000
-0.367317000000000 7.783170000000000 -0.751640000000000 19.000000000000000
-0.114897000000000 7.690000000000000 -0.756805000000000 40.000000000000000
-0.610709000000000 7.833200000000000 -0.742703000000000 24.000000000000000
-0.356062000000000 7.775210000000000 -1.420930000000000 25.000000000000000
-0.354704000000000 7.775260000000000 -0.871666000000000 40.000000000000000
-0.102881000000000 7.796670000000000 -1.620710000000000 24.000000000000000
-0.100953000000000 7.753180000000000 -0.883438000000000 70.000000000000000
-0.593410000000000 7.786670000000000 -1.270980000000000 2.000000000000000
-0.594433000000000 7.818100000000000 -0.862847000000000 23.000000000000000
-0.339799000000000 7.776450000000000 -0.750872000000000 16.000000000000000
-0.330250000000000 7.807860000000000 -1.426680000000000 5.000000000000000
-0.327561000000000 7.776450000000000 -0.871666000000000 35.000000000000000
-0.075360500000000 7.765650000000000 -1.614200000000000 28.000000000000000
-0.566226000000000 7.788690000000000 -1.270980000000000 3.000000000000000
-0.568290000000000 7.835990000000000 -0.864598000000000 16.000000000000000
-0.312012000000000 7.761670000000000 -0.749336000000000 23.000000000000000
-0.554318000000000 7.813440000000000 -0.740444000000000 17.000000000000000
-0.302840000000000 7.805030000000000 -1.425960000000000 7.000000000000000
-0.300721000000000 7.785490000000000 -0.872557000000000 25.000000000000000
-0.800906000000000 7.845280000000000 -0.852522000000000 44.000000000000000
-0.048325800000000 7.777610000000000 -1.616640000000000 31.000000000000000
-0.540125000000000 7.806380000000000 -1.273550000000000 26.000000000000000
-0.540112000000000 7.826030000000000 -0.863285000000000 21.000000000000000
-0.285063000000000 7.766690000000000 -0.749720000000000 64.000000000000000
-0.527041000000000 7.815330000000000 -0.740444000000000 29.000000000000000
-0.275455000000000 7.802110000000000 -1.425240000000000 9.000000000000000
-0.273683000000000 7.790460000000000 -0.873002000000000 6.000000000000000
-0.774635000000000 7.845340000000000 -1.157390000000000 53.000000000000000
-0.772736000000000 7.840110000000000 -0.851662000000000 5.000000000000000
-0.021176600000000 7.777730000000000 -1.616640000000000 33.000000000000000
-0.513390000000000 7.816090000000000 -1.274830000000000 24.000000000000000
-0.511751000000000 7.811990000000000 -0.861535000000000 26.000000000000000
-0.258083000000000 7.771620000000000 -0.750104000000000 84.000000000000000
-0.498232000000000 7.793280000000000 -0.738186000000000 50.000000000000000
-0.247844000000000 7.791220000000000 -1.423090000000000 14.000000000000000
-0.246110000000000 7.779450000000000 -0.871666000000000 9.000000000000000
-0.741993000000000 7.792840000000000 -1.149250000000000 34.000000000000000
-0.743107000000000 7.819010000000000 -0.849083000000000 5.000000000000000
-0.485859000000000 7.813900000000000 -1.274190000000000 29.000000000000000
-0.483495000000000 7.797860000000000 -0.859785000000000 23.000000000000000
-0.230835000000000 7.768490000000000 -0.749720000000000 93.000000000000000
-0.471266000000000 7.798940000000000 -0.738562000000000 64.000000000000000
-0.220089000000000 7.772370000000000 -1.419500000000000 19.000000000000000
-0.218730000000000 7.772320000000000 -0.870776000000000 10.000000000000000
-0.713341000000000 7.779620000000000 -1.146930000000000 37.000000000000000
-0.716171000000000 7.825510000000000 -0.849512000000000 5.000000000000000
-0.456499000000000 7.780080000000000 -1.268410000000000 10.000000000000000
-0.456969000000000 7.811410000000000 -0.861097000000000 23.000000000000000
-0.204030000000000 7.781190000000000 -0.750872000000000 23.000000000000000
-0.444947000000000 7.792510000000000 -0.737809000000000 69.000000000000000
-0.194412000000000 7.777000000000000 -1.420210000000000 12.000000000000000
-0.192757000000000 7.765050000000000 -0.869886000000000 44.000000000000000
-0.688235000000000 7.789830000000000 -1.148090000000000 51.000000000000000
-0.689868000000000 7.823880000000000 -0.849083000000000 35.000000000000000
-0.431787000000000 7.801260000000000 -1.271620000000000 4.000000000000000
-0.431063000000000 7.812880000000000 -0.861097000000000 15.000000000000000
-0.177678000000000 7.757940000000000 -0.748568000000000 22.000000000000000
-0.419745000000000 7.805880000000000 -0.738938000000000 84.000000000000000
-0.168621000000000 7.777600000000000 -1.420210000000000 15.000000000000000
-0.167177000000000 7.773590000000000 -0.870776000000000 51.000000000000000
-0.664075000000000 7.811790000000000 -1.150990000000000 12.000000000000000
-0.663247000000000 7.818200000000000 -0.848223000000000 45.000000000000000
-0.403736000000000 7.786940000000000 -1.269050000000000 3.000000000000000
-0.402352000000000 7.786540000000000 -0.858034000000000 14.000000000000000
-0.150674000000000 7.762500000000000 -0.748952000000000 24.000000000000000
-0.390535000000000 7.795430000000000 -0.737809000000000 100.000000000000000
-0.140043000000000 7.774230000000000 -1.419500000000000 22.000000000000000
-0.138330000000000 7.754280000000000 -0.868550000000000 56.000000000000000
-0.636402000000000 7.826000000000000 -1.152740000000000 5.000000000000000
-0.632336000000000 7.792830000000000 -0.845213000000000 34.000000000000000
-0.376361000000000 7.784360000000000 -1.268410000000000 4.000000000000000
-0.374596000000000 7.775980000000000 -0.856722000000000 43.000000000000000
-0.123260000000000 7.743070000000000 -0.747032000000000 27.000000000000000
-0.363136000000000 7.792770000000000 -0.737433000000000 100.000000000000000
-0.112905000000000 7.774670000000000 -1.419500000000000 35.000000000000000
-0.111376000000000 7.762670000000000 -0.869440000000000 72.000000000000000
-0.608159000000000 7.816340000000000 -1.150990000000000 6.000000000000000
-0.605745000000000 7.802920000000000 -0.846073000000000 41.000000000000000
-0.349363000000000 7.789570000000000 -1.269050000000000 26.000000000000000
-0.347982000000000 7.789160000000000 -0.858034000000000 49.000000000000000
-0.096033000000000 7.727530000000000 -0.745495000000000 72.000000000000000
-0.335246000000000 7.778070000000000 -0.735927000000000 74.000000000000000
-0.085939300000000 7.790760000000000 -1.422370000000000 41.000000000000000
-0.579698000000000 7.802630000000000 -1.148670000000000 6.000000000000000
-0.582032000000000 7.852580000000000 -0.851232000000000 5.000000000000000
-0.322170000000000 7.790750000000000 -1.269050000000000 28.000000000000000
-0.320300000000000 7.778410000000000 -0.856722000000000 49.000000000000000
-0.308093000000000 7.779200000000000 -0.735927000000000 101.000000000000000
-0.058684600000000 7.783140000000000 -1.420930000000000 63.000000000000000
-0.809970000000000 7.849980000000000 -0.837802000000000 43.000000000000000
-0.553297000000000 7.816440000000000 -1.150410000000000 48.000000000000000
-0.550136000000000 7.791090000000000 -0.844353000000000 7.000000000000000
-0.294525000000000 7.779990000000000 -1.267120000000000 29.000000000000000
-0.292847000000000 7.771530000000000 -0.855847000000000 13.000000000000000
-0.792250000000000 7.825370000000000 -1.056450000000000 21.000000000000000
-0.280937000000000 7.780220000000000 -0.735927000000000 100.000000000000000
-0.031388500000000 7.751820000000000 -1.415190000000000 47.000000000000000
-0.780197000000000 7.829010000000000 -0.835269000000000 4.000000000000000
-0.523618000000000 7.782790000000000 -1.145180000000000 49.000000000000000
-0.523203000000000 7.796940000000000 -0.844783000000000 6.000000000000000
-0.266824000000000 7.765180000000000 -1.264550000000000 28.000000000000000
-0.265582000000000 7.768540000000000 -0.855409000000000 12.000000000000000
-0.768399000000000 7.863590000000000 -1.061240000000000 5.000000000000000
-0.253647000000000 7.777180000000000 -0.735551000000000 96.000000000000000
-0.752864000000000 7.831680000000000 -0.835269000000000 4.000000000000000
-0.495692000000000 7.772720000000000 -1.143440000000000 50.000000000000000
-0.495478000000000 7.790780000000000 -0.843924000000000 33.000000000000000
-0.239230000000000 7.750280000000000 -1.261980000000000 4.000000000000000
-0.239195000000000 7.793260000000000 -0.858034000000000 10.000000000000000
-0.738343000000000 7.838600000000000 -1.057520000000000 4.000000000000000
-0.226962000000000 7.793940000000000 -0.737056000000000 100.000000000000000
-0.724788000000000 7.826340000000000 -0.834424000000000 5.000000000000000
-0.470700000000000 7.809960000000000 -1.148670000000000 35.000000000000000
-0.467803000000000 7.784520000000000 -0.843064000000000 45.000000000000000
-0.212499000000000 7.762910000000000 -1.263910000000000 4.000000000000000
-0.211665000000000 7.782120000000000 -0.856722000000000 15.000000000000000
-0.710619000000000 7.837180000000000 -1.056980000000000 4.000000000000000
-0.199143000000000 7.770800000000000 -0.734798000000000 57.000000000000000
-0.694288000000000 7.793170000000000 -0.830624000000000 25.000000000000000
-0.442314000000000 7.791800000000000 -1.145770000000000 14.000000000000000
-0.440403000000000 7.782130000000000 -0.842634000000000 46.000000000000000
-0.185494000000000 7.767550000000000 -1.264550000000000 5.000000000000000
-0.184028000000000 7.762940000000000 -0.854534000000000 51.000000000000000
-0.682569000000000 7.831720000000000 -1.055920000000000 6.000000000000000
-0.172369000000000 7.787370000000000 -0.736303000000000 56.000000000000000
-0.665724000000000 7.779690000000000 -0.828935000000000 25.000000000000000
-0.415323000000000 7.797250000000000 -1.146350000000000 22.000000000000000
-0.412392000000000 7.767740000000000 -0.840914000000000 39.000000000000000
-0.158299000000000 7.764210000000000 -1.263910000000000 28.000000000000000
-0.156849000000000 7.759560000000000 -0.854096000000000 61.000000000000000
-0.653245000000000 7.810350000000000 -1.052720000000000 38.000000000000000
-0.145110000000000 7.783940000000000 -0.735927000000000 45.000000000000000
-0.642142000000000 7.825570000000000 -0.833580000000000 31.000000000000000
-0.387513000000000 7.786790000000000 -1.144600000000000 31.000000000000000
-0.386457000000000 7.792960000000000 -0.843494000000000 17.000000000000000
-0.381014000000000 7.765400000000000 -0.719873000000000 39.000000000000000
-0.130862000000000 7.744970000000000 -1.260700000000000 28.000000000000000
-0.129895000000000 7.768010000000000 -0.854972000000000 72.000000000000000
-0.622178000000000 7.765160000000000 -1.046330000000000 34.000000000000000
-0.117757000000000 7.772460000000000 -0.734798000000000 60.000000000000000
-0.613887000000000 7.815870000000000 -0.832313000000000 32.000000000000000
-0.360147000000000 7.784140000000000 -1.144020000000000 31.000000000000000
-0.358886000000000 7.786320000000000 -0.842634000000000 17.000000000000000
-0.353180000000000 7.750770000000000 -0.718397000000000 46.000000000000000
-0.103509000000000 7.721700000000000 -1.256840000000000 30.000000000000000
-0.102674000000000 7.760470000000000 -0.854096000000000 97.000000000000000
-0.595977000000000 7.779140000000000 -1.047930000000000 39.000000000000000
-0.586601000000000 7.817970000000000 -0.832313000000000 8.000000000000000
-0.333480000000000 7.797210000000000 -1.145770000000000 33.000000000000000
-0.331197000000000 7.775610000000000 -0.841344000000000 28.000000000000000
-0.326458000000000 7.759910000000000 -0.719135000000000 49.000000000000000
-0.076945800000000 7.761490000000000 -1.263270000000000 49.000000000000000
-0.569398000000000 7.789080000000000 -1.049000000000000 10.000000000000000
-0.560103000000000 7.811930000000000 -0.831468000000000 6.000000000000000
-0.306530000000000 7.770600000000000 -1.141700000000000 29.000000000000000
-0.305722000000000 7.784610000000000 -0.842204000000000 41.000000000000000
-0.299027000000000 7.717170000000000 -0.715078000000000 100.000000000000000
-0.051259500000000 7.769600000000000 -1.264550000000000 41.000000000000000
-0.803419000000000 7.852250000000000 -0.822650000000000 23.000000000000000
-0.544393000000000 7.802790000000000 -1.050590000000000 8.000000000000000
-0.789979000000000 7.842540000000000 -0.988769000000000 32.000000000000000
-0.532019000000000 7.801940000000000 -0.830201000000000 6.000000000000000
-0.280115000000000 7.791390000000000 -1.144600000000000 21.000000000000000
-0.278405000000000 7.781650000000000 -0.841774000000000 23.000000000000000
-0.272087000000000 7.718170000000000 -0.715078000000000 101.000000000000000
-0.776004000000000 7.855010000000000 -0.822650000000000 9.000000000000000
-0.516628000000000 7.796730000000000 -1.049530000000000 14.000000000000000
-0.760678000000000 7.825500000000000 -0.986280000000000 8.000000000000000
-0.504012000000000 7.791840000000000 -0.828935000000000 15.000000000000000
-0.251375000000000 7.744860000000000 -1.137630000000000 66.000000000000000
-0.250470000000000 7.758730000000000 -0.839195000000000 26.000000000000000
-0.246029000000000 7.746940000000000 -0.717660000000000 101.000000000000000
-0.746694000000000 7.837870000000000 -0.820577000000000 9.000000000000000
-0.489658000000000 7.802450000000000 -1.050060000000000 15.000000000000000
-0.733358000000000 7.828100000000000 -0.986280000000000 11.000000000000000
-0.477053000000000 7.797520000000000 -0.829357000000000 33.000000000000000
-0.225141000000000 7.773380000000000 -1.141700000000000 80.000000000000000
-0.223500000000000 7.763530000000000 -0.839624000000000 25.000000000000000
-0.218873000000000 7.743770000000000 -0.717291000000000 101.000000000000000
-0.718966000000000 7.836460000000000 -0.820162000000000 9.000000000000000
-0.462185000000000 7.800150000000000 -1.049530000000000 27.000000000000000
-0.705672000000000 7.826660000000000 -0.985782000000000 8.000000000000000
-0.450519000000000 7.811050000000000 -0.830624000000000 37.000000000000000
-0.197502000000000 7.754340000000000 -1.138790000000000 74.000000000000000
-0.196499000000000 7.768240000000000 -0.840054000000000 70.000000000000000
-0.191940000000000 7.748470000000000 -0.717660000000000 100.000000000000000
-0.688461000000000 7.803260000000000 -0.816430000000000 46.000000000000000
-0.434072000000000 7.785880000000000 -1.047400000000000 35.000000000000000
-0.674921000000000 7.789540000000000 -0.980803000000000 20.000000000000000
-0.422605000000000 7.800660000000000 -0.829357000000000 40.000000000000000
-0.171737000000000 7.814330000000000 -1.147510000000000 24.000000000000000
-0.169035000000000 7.752970000000000 -0.838335000000000 74.000000000000000
-0.164806000000000 7.745110000000000 -0.717291000000000 101.000000000000000
-0.661218000000000 7.805610000000000 -0.816430000000000 43.000000000000000
-0.407098000000000 7.791310000000000 -1.047930000000000 26.000000000000000
-0.649042000000000 7.807670000000000 -0.982795000000000 27.000000000000000
-0.395373000000000 7.802090000000000 -0.829357000000000 10.000000000000000
-0.143947000000000 7.787180000000000 -1.143440000000000 15.000000000000000
-0.141898000000000 7.749540000000000 -0.837905000000000 75.000000000000000
-0.137770000000000 7.745640000000000 -0.717291000000000 101.000000000000000
-0.635577000000000 7.827700000000000 -0.818504000000000 43.000000000000000
-0.379513000000000 7.784760000000000 -1.046870000000000 27.000000000000000
-0.623044000000000 7.825710000000000 -0.984786000000000 27.000000000000000
-0.367949000000000 7.799450000000000 -0.828935000000000 11.000000000000000
-0.116408000000000 7.763890000000000 -1.139960000000000 13.000000000000000
-0.115023000000000 7.761920000000000 -0.839195000000000 99.000000000000000
-0.110618000000000 7.738110000000000 -0.716554000000000 101.000000000000000
-0.607942000000000 7.825910000000000 -0.818089000000000 32.000000000000000
-0.352157000000000 7.782080000000000 -1.046330000000000 32.000000000000000
-0.593916000000000 7.804090000000000 -0.981799000000000 28.000000000000000
-0.340722000000000 7.800680000000000 -0.828935000000000 10.000000000000000
-0.089351700000000 7.768210000000000 -1.140540000000000 19.000000000000000
-0.087838400000000 7.754320000000000 -0.838335000000000 23.000000000000000
-0.582092000000000 7.847820000000000 -0.820162000000000 10.000000000000000
-0.324825000000000 7.779300000000000 -1.045800000000000 44.000000000000000
-0.564660000000000 7.778410000000000 -0.978314000000000 5.000000000000000
-0.312692000000000 7.781950000000000 -0.826823000000000 13.000000000000000
-0.061886300000000 7.724940000000000 -1.134140000000000 72.000000000000000
-0.811943000000000 7.832950000000000 -0.805460000000000 31.000000000000000
-0.553292000000000 7.829960000000000 -0.818089000000000 11.000000000000000
-0.298275000000000 7.796230000000000 -1.047930000000000 51.000000000000000
-0.797754000000000 7.842850000000000 -0.947007000000000 41.000000000000000
-0.539419000000000 7.808050000000000 -0.981799000000000 3.000000000000000
-0.285380000000000 7.779020000000000 -0.826401000000000 35.000000000000000
-0.783407000000000 7.823850000000000 -0.804239000000000 5.000000000000000
-0.526490000000000 7.839780000000000 -0.818918000000000 10.000000000000000
-0.270370000000000 7.777420000000000 -1.045270000000000 13.000000000000000
-0.767268000000000 7.813970000000000 -0.943191000000000 39.000000000000000
-0.512420000000000 7.813850000000000 -0.982297000000000 4.000000000000000
-0.258224000000000 7.779970000000000 -0.826401000000000 37.000000000000000
-0.754179000000000 7.806740000000000 -0.802204000000000 4.000000000000000
-0.497605000000000 7.817750000000000 -0.816430000000000 56.000000000000000
-0.242477000000000 7.754540000000000 -1.042070000000000 10.000000000000000
-0.736993000000000 7.784970000000000 -0.939374000000000 37.000000000000000
-0.483667000000000 7.791820000000000 -0.979309000000000 24.000000000000000
-0.231065000000000 7.780830000000000 -0.826401000000000 39.000000000000000
-0.726555000000000 7.805360000000000 -0.801797000000000 5.000000000000000
-0.468402000000000 7.787670000000000 -0.813113000000000 54.000000000000000
-0.215847000000000 7.771190000000000 -1.044200000000000 8.000000000000000
-0.712698000000000 7.819140000000000 -0.943191000000000 36.000000000000000
-0.455537000000000 7.777610000000000 -0.977318000000000 29.000000000000000
-0.204529000000000 7.805440000000000 -0.828935000000000 27.000000000000000
-0.701079000000000 7.827670000000000 -0.803832000000000 44.000000000000000
-0.441440000000000 7.793230000000000 -0.813528000000000 55.000000000000000
-0.188335000000000 7.756040000000000 -1.042070000000000 15.000000000000000
-0.684707000000000 7.813670000000000 -0.942237000000000 8.000000000000000
-0.428385000000000 7.779150000000000 -0.977318000000000 28.000000000000000
-0.176650000000000 7.778270000000000 -0.825979000000000 27.000000000000000
-0.672728000000000 7.818170000000000 -0.802611000000000 44.000000000000000
-0.414867000000000 7.806640000000000 -0.814772000000000 58.000000000000000
-0.161507000000000 7.768540000000000 -1.043670000000000 78.000000000000000
-0.658759000000000 7.831840000000000 -0.944145000000000 5.000000000000000
-0.401433000000000 7.784570000000000 -0.977816000000000 29.000000000000000
-0.149268000000000 7.766910000000000 -0.824712000000000 32.000000000000000
-0.147833000000000 7.762750000000000 -0.703861000000000 45.000000000000000
-0.643470000000000 7.796680000000000 -0.800169000000000 27.000000000000000
-0.387023000000000 7.796120000000000 -0.813528000000000 19.000000000000000
-0.134114000000000 7.753200000000000 -1.041540000000000 69.000000000000000
-0.630779000000000 7.826170000000000 -0.943191000000000 5.000000000000000
-0.376572000000000 7.805680000000000 -0.980305000000000 5.000000000000000
-0.123574000000000 7.771340000000000 -0.825134000000000 44.000000000000000
-0.122215000000000 7.771170000000000 -0.704584000000000 59.000000000000000
-0.617611000000000 7.798770000000000 -0.800169000000000 27.000000000000000