# This PCD file was generated using the MATLAB® pcwrite function
# from Computer Vision Toolbox®.
# .PCD v.7 - Point Cloud Data file format
VERSION .7
FIELDS x y z intensity
SIZE 8 8 8 8
TYPE F F F F
COUNT 1 1 1 1
WIDTH 348
HEIGHT 1
VIEWPOINT 0 0 0 1 0 0 0
POINTS 348
DATA ascii
0.672855000000000 6.032850000000000 -1.261730000000000 26.000000000000000
0.669327000000000 5.991720000000000 -0.686917000000000 100.000000000000000
0.499224000000000 6.074780000000000 -1.112750000000000 100.000000000000000
0.694357000000000 6.034360000000000 -1.262550000000000 101.000000000000000
0.689328000000000 5.981460000000000 -0.686011000000000 65.000000000000000
0.520762000000000 6.076920000000000 -1.113470000000000 88.000000000000000
0.714033000000000 6.020230000000000 -1.260100000000000 101.000000000000000
0.712078000000000 5.994800000000000 -0.687823000000000 75.000000000000000
0.542321000000000 6.078990000000000 -1.114190000000000 97.000000000000000
0.732669000000000 5.998260000000000 -1.256030000000000 101.000000000000000
0.732517000000000 5.988330000000000 -0.687370000000000 86.000000000000000
0.562448000000000 6.065300000000000 -1.112030000000000 97.000000000000000
0.757509000000000 6.026750000000000 -1.262550000000000 101.000000000000000
0.754408000000000 5.993630000000000 -0.688276000000000 86.000000000000000
0.583616000000000 6.063300000000000 -1.112030000000000 96.000000000000000
0.778542000000000 6.024070000000000 -1.262550000000000 101.000000000000000
0.773285000000000 5.975190000000000 -0.686464000000000 90.000000000000000
0.604387000000000 6.057310000000000 -1.111320000000000 52.000000000000000
0.799565000000000 6.021320000000000 -1.262550000000000 42.000000000000000
0.796233000000000 5.988210000000000 -0.688276000000000 91.000000000000000
0.625123000000000 6.051250000000000 -1.110600000000000 54.000000000000000
0.819521000000000 6.010730000000000 -1.260920000000000 53.000000000000000
0.814980000000000 5.969650000000000 -0.686464000000000 100.000000000000000
0.645603000000000 6.053060000000000 -1.111320000000000 51.000000000000000
0.838906000000000 6.004100000000000 -1.260100000000000 58.000000000000000
0.834221000000000 5.962970000000000 -0.686011000000000 100.000000000000000
0.665242000000000 6.046970000000000 -1.110600000000000 62.000000000000000
0.863192000000000 6.024400000000000 -1.264990000000000 57.000000000000000
0.853902000000000 5.952160000000000 -0.685106000000000 101.000000000000000
0.481906000000000 6.052950000000000 -0.988252000000000 33.000000000000000
0.687401000000000 6.044490000000000 -1.110600000000000 79.000000000000000
0.880802000000000 5.998100000000000 -1.260100000000000 82.000000000000000
0.875830000000000 5.957010000000000 -0.686011000000000 100.000000000000000
0.504340000000000 6.066970000000000 -0.990823000000000 3.000000000000000
0.707579000000000 6.034240000000000 -1.109160000000000 100.000000000000000
0.898822000000000 5.975620000000000 -1.256030000000000 101.000000000000000
0.896026000000000 5.949980000000000 -0.685559000000000 101.000000000000000
0.525173000000000 6.061240000000000 -0.990180000000000 3.000000000000000
0.728166000000000 6.027830000000000 -1.108440000000000 99.000000000000000
0.917442000000000 5.964870000000000 -1.254410000000000 101.000000000000000
0.916357000000000 5.950910000000000 -0.686011000000000 101.000000000000000
0.543855000000000 6.043740000000000 -0.987610000000000 3.000000000000000
0.749606000000000 6.037100000000000 -1.110600000000000 101.000000000000000
0.941302000000000 5.980970000000000 -1.258480000000000 101.000000000000000
0.937124000000000 5.947670000000000 -0.686011000000000 101.000000000000000
0.565316000000000 6.045730000000000 -0.988252000000000 4.000000000000000
0.769179000000000 6.022730000000000 -1.108440000000000 101.000000000000000
0.962796000000000 5.981520000000000 -1.259290000000000 101.000000000000000
0.958512000000000 5.948290000000000 -0.686464000000000 101.000000000000000
0.587178000000000 6.051580000000000 -0.989538000000000 23.000000000000000
0.789686000000000 6.016110000000000 -1.107720000000000 84.000000000000000
0.980490000000000 5.958800000000000 -1.255220000000000 101.000000000000000
0.979916000000000 5.948830000000000 -0.686917000000000 101.000000000000000
0.608299000000000 6.049490000000000 -0.989538000000000 34.000000000000000
0.812258000000000 6.025010000000000 -1.109880000000000 98.000000000000000
1.002580000000000 5.963060000000000 -1.256850000000000 71.000000000000000
0.999356000000000 5.937530000000000 -0.686011000000000 101.000000000000000
0.629003000000000 6.043410000000000 -0.988895000000000 35.000000000000000
0.831127000000000 6.006550000000000 -1.107010000000000 100.000000000000000
1.023390000000000 5.959530000000000 -1.256850000000000 74.000000000000000
1.016710000000000 5.914420000000000 -0.683747000000000 101.000000000000000
0.648405000000000 6.025470000000000 -0.986325000000000 36.000000000000000
0.852089000000000 6.003610000000000 -1.107010000000000 100.000000000000000
0.474354000000000 6.080150000000000 -0.895347000000000 55.000000000000000
1.044860000000000 5.959780000000000 -1.257660000000000 77.000000000000000
1.038030000000000 5.914750000000000 -0.684200000000000 101.000000000000000
0.668562000000000 6.015330000000000 -0.985040000000000 45.000000000000000
0.871427000000000 5.996860000000000 -1.106290000000000 100.000000000000000
0.494514000000000 6.078540000000000 -0.895347000000000 83.000000000000000
1.066000000000000 5.963990000000000 -1.259290000000000 92.000000000000000
1.059040000000000 5.919100000000000 -0.685106000000000 101.000000000000000
0.894093000000000 6.005460000000000 -1.108440000000000 101.000000000000000
0.508701000000000 5.993970000000000 -0.883146000000000 47.000000000000000
1.081890000000000 5.933260000000000 -1.253590000000000 101.000000000000000
1.073280000000000 5.880180000000000 -0.681031000000000 101.000000000000000
0.709954000000000 6.014560000000000 -0.985682000000000 4.000000000000000
0.909713000000000 5.967290000000000 -1.101980000000000 101.000000000000000
0.532060000000000 6.019750000000000 -0.887213000000000 63.000000000000000
1.103310000000000 5.933300000000000 -1.254410000000000 101.000000000000000
1.101070000000000 5.915470000000000 -0.685559000000000 101.000000000000000
0.730468000000000 6.008120000000000 -0.985040000000000 5.000000000000000
0.931751000000000 5.971860000000000 -1.103410000000000 101.000000000000000
0.556329000000000 6.053330000000000 -0.892442000000000 83.000000000000000
1.124750000000000 5.933260000000000 -1.255220000000000 101.000000000000000
1.119490000000000 5.899880000000000 -0.684200000000000 101.000000000000000
0.750945000000000 6.001620000000000 -0.984397000000000 5.000000000000000
0.955071000000000 5.984110000000000 -1.106290000000000 101.000000000000000
0.576704000000000 6.043470000000000 -0.891280000000000 78.000000000000000
1.146200000000000 5.933140000000000 -1.256030000000000 101.000000000000000
1.138570000000000 5.888130000000000 -0.683295000000000 101.000000000000000
0.771386000000000 5.995050000000000 -0.983755000000000 9.000000000000000
0.972785000000000 5.961320000000000 -1.102700000000000 101.000000000000000
0.597796000000000 6.041420000000000 -0.891280000000000 11.000000000000000
1.167660000000000 5.932950000000000 -1.256850000000000 101.000000000000000
1.156810000000000 5.872420000000000 -0.681936000000000 101.000000000000000
0.795931000000000 6.019710000000000 -0.988252000000000 41.000000000000000
0.998119000000000 5.985060000000000 -1.107720000000000 101.000000000000000
1.000860000000000 5.995030000000000 -0.680683000000000 28.000000000000000
0.618478000000000 6.035360000000000 -0.890699000000000 9.000000000000000
1.186050000000000 5.917320000000000 -1.254410000000000 101.000000000000000
0.817470000000000 6.020810000000000 -0.988895000000000 50.000000000000000
1.017960000000000 5.981720000000000 -1.107720000000000 101.000000000000000
1.021400000000000 5.995600000000000 -0.681128000000000 22.000000000000000
0.640154000000000 6.049020000000000 -0.893023000000000 9.000000000000000
0.836887000000000 6.014160000000000 -0.988252000000000 52.000000000000000
1.036450000000000 5.970550000000000 -1.106290000000000 101.000000000000000
0.658921000000000 6.035060000000000 -0.891280000000000 11.000000000000000
0.854529000000000 5.987750000000000 -0.984397000000000 59.000000000000000
0.480586000000000 6.094180000000000 -0.821092000000000 73.000000000000000
1.057630000000000 5.962840000000000 -1.105570000000000 101.000000000000000
0.675709000000000 5.985410000000000 -0.884308000000000 29.000000000000000
0.874282000000000 5.976920000000000 -0.983112000000000 20.000000000000000
0.496648000000000 6.029250000000000 -0.812573000000000 20.000000000000000
1.077040000000000 5.951370000000000 -1.104130000000000 101.000000000000000
0.694767000000000 5.967290000000000 -0.881984000000000 62.000000000000000
0.894555000000000 5.969920000000000 -0.982469000000000 9.000000000000000
0.520405000000000 6.059080000000000 -0.816833000000000 25.000000000000000
1.097090000000000 5.943700000000000 -1.103410000000000 101.000000000000000
0.716535000000000 5.972690000000000 -0.883146000000000 67.000000000000000
0.916739000000000 5.982530000000000 -0.985040000000000 8.000000000000000
0.541200000000000 6.065220000000000 -0.817897000000000 32.000000000000000
1.120430000000000 5.959370000000000 -1.107010000000000 101.000000000000000
0.740213000000000 6.001700000000000 -0.887794000000000 94.000000000000000
0.933946000000000 5.955890000000000 -0.981184000000000 11.000000000000000
0.559805000000000 6.035660000000000 -0.814170000000000 31.000000000000000
1.134860000000000 5.916580000000000 -1.099820000000000 101.000000000000000
0.764700000000000 6.018580000000000 -0.890699000000000 100.000000000000000
0.958273000000000 5.968020000000000 -0.983755000000000 14.000000000000000
0.582304000000000 6.037510000000000 -0.814703000000000 41.000000000000000
1.158040000000000 5.920100000000000 -1.101260000000000 101.000000000000000
0.784187000000000 5.996120000000000 -0.887794000000000 15.000000000000000
0.982530000000000 5.992090000000000 -0.988252000000000 73.000000000000000
0.602322000000000 6.035550000000000 -0.814703000000000 43.000000000000000
1.173570000000000 5.901000000000000 -1.098390000000000 200.000000000000000
0.805123000000000 6.009310000000000 -0.890118000000000 16.000000000000000
1.001480000000000 5.976940000000000 -0.986325000000000 91.000000000000000
0.622979000000000 6.029470000000000 -0.814170000000000 52.000000000000000
0.825016000000000 5.998630000000000 -0.888956000000000 17.000000000000000
1.016350000000000 5.938380000000000 -0.980542000000000 91.000000000000000
0.645285000000000 6.039080000000000 -0.815768000000000 53.000000000000000
0.460818000000000 6.074800000000000 -0.764230000000000 4.000000000000000
0.847609000000000 6.007470000000000 -0.890699000000000 20.000000000000000
1.036390000000000 5.930910000000000 -0.979899000000000 99.000000000000000
0.665057000000000 6.024970000000000 -0.814170000000000 57.000000000000000
0.483591000000000 6.092940000000000 -0.766719000000000 28.000000000000000
0.865741000000000 5.984890000000000 -0.887794000000000 22.000000000000000
1.061240000000000 5.950580000000000 -0.983755000000000 100.000000000000000
0.686084000000000 6.022610000000000 -0.814170000000000 40.000000000000000
0.502889000000000 6.067480000000000 -0.763732000000000 4.000000000000000
0.881404000000000 5.946590000000000 -0.882565000000000 99.000000000000000
1.082010000000000 5.946840000000000 -0.983755000000000 10.000000000000000
0.705715000000000 6.008370000000000 -0.812573000000000 40.000000000000000
0.524066000000000 6.065690000000000 -0.763732000000000 5.000000000000000
0.900375000000000 5.931740000000000 -0.880822000000000 100.000000000000000
1.099880000000000 5.927500000000000 -0.981184000000000 15.000000000000000
0.727160000000000 6.009810000000000 -0.813105000000000 54.000000000000000
0.545946000000000 6.071730000000000 -0.764728000000000 6.000000000000000
0.925936000000000 5.959850000000000 -0.885470000000000 101.000000000000000
1.120560000000000 5.923620000000000 -0.981184000000000 16.000000000000000
0.748134000000000 6.007230000000000 -0.813105000000000 51.000000000000000
0.566399000000000 6.061880000000000 -0.763732000000000 6.000000000000000
0.951082000000000 5.983940000000000 -0.889537000000000 101.000000000000000
1.140490000000000 5.915800000000000 -0.980542000000000 17.000000000000000
0.768595000000000 6.000650000000000 -0.812573000000000 52.000000000000000
0.582959000000000 6.012460000000000 -0.757758000000000 35.000000000000000
0.970060000000000 5.968860000000000 -0.887794000000000 101.000000000000000
1.165700000000000 5.935020000000000 -0.984397000000000 98.000000000000000
0.789019000000000 5.994000000000000 -0.812040000000000 74.000000000000000
0.601959000000000 5.990650000000000 -0.755268000000000 32.000000000000000
0.995428000000000 5.992770000000000 -0.891861000000000 23.000000000000000
1.187960000000000 5.938660000000000 -0.985682000000000 10.000000000000000
0.810468000000000 5.995140000000000 -0.812573000000000 76.000000000000000
0.623871000000000 6.008360000000000 -0.757758000000000 42.000000000000000
1.011990000000000 5.969930000000000 -0.888956000000000 26.000000000000000
0.830344000000000 5.992420000000000 -0.812573000000000 82.000000000000000
0.455296000000000 6.095080000000000 -0.734229000000000 1.000000000000000
0.646753000000000 6.033880000000000 -0.761243000000000 46.000000000000000
1.035150000000000 5.986040000000000 -0.891861000000000 32.000000000000000
0.852930000000000 6.001260000000000 -0.814170000000000 98.000000000000000
0.475020000000000 6.073650000000000 -0.731843000000000 34.000000000000000
0.668864000000000 6.031470000000000 -0.761243000000000 58.000000000000000
1.051580000000000 5.951030000000000 -0.887213000000000 34.000000000000000
0.871587000000000 5.982550000000000 -0.812040000000000 71.000000000000000
0.494601000000000 6.052170000000000 -0.729458000000000 11.000000000000000
0.692169000000000 6.048810000000000 -0.763732000000000 8.000000000000000
1.067430000000000 5.920060000000000 -0.883146000000000 101.000000000000000
0.891879000000000 5.975550000000000 -0.811508000000000 80.000000000000000
0.516399000000000 6.058320000000000 -0.730412000000000 12.000000000000000
0.711420000000000 6.030590000000000 -0.761741000000000 7.000000000000000
1.084510000000000 5.896830000000000 -0.880240000000000 101.000000000000000
0.911092000000000 5.968640000000000 -0.810975000000000 99.000000000000000
0.536836000000000 6.060530000000000 -0.730889000000000 13.000000000000000
0.729980000000000 6.016380000000000 -0.760247000000000 9.000000000000000
1.106240000000000 5.904870000000000 -0.881984000000000 101.000000000000000
0.931309000000000 5.961510000000000 -0.810443000000000 99.000000000000000
0.558717000000000 6.066530000000000 -0.731843000000000 14.000000000000000
0.750976000000000 6.013790000000000 -0.760247000000000 10.000000000000000
1.130560000000000 5.920410000000000 -0.884889000000000 101.000000000000000
0.952738000000000 5.962140000000000 -0.810975000000000 100.000000000000000
0.577243000000000 6.036860000000000 -0.728504000000000 55.000000000000000
0.767919000000000 5.979640000000000 -0.756264000000000 30.000000000000000
1.148190000000000 5.900890000000000 -0.882565000000000 101.000000000000000
0.974184000000000 5.962690000000000 -0.811508000000000 101.000000000000000
0.595570000000000 6.007150000000000 -0.725164000000000 57.000000000000000
0.786711000000000 5.961190000000000 -0.754272000000000 50.000000000000000
1.169550000000000 5.900730000000000 -0.883146000000000 138.000000000000000
0.996297000000000 5.967070000000000 -0.812573000000000 101.000000000000000
0.621402000000000 6.052440000000000 -0.730889000000000 53.000000000000000
0.810179000000000 5.978070000000000 -0.756762000000000 67.000000000000000
1.017790000000000 5.967460000000000 -0.813105000000000 101.000000000000000
0.642945000000000 6.054180000000000 -0.731366000000000 54.000000000000000
0.834322000000000 5.998790000000000 -0.759749000000000 78.000000000000000
0.458073000000000 6.069510000000000 -0.709647000000000 31.000000000000000
1.036570000000000 5.952160000000000 -0.811508000000000 101.000000000000000
0.664507000000000 6.055850000000000 -0.731843000000000 65.000000000000000
0.854696000000000 5.991910000000000 -0.759251000000000 83.000000000000000
0.482976000000000 6.128590000000000 -1.483280000000000 101.000000000000000
0.475190000000000 6.016380000000000 -0.703625000000000 97.000000000000000
1.057340000000000 5.948500000000000 -0.811508000000000 101.000000000000000
0.684748000000000 6.045600000000000 -0.730889000000000 18.000000000000000
0.877429000000000 6.008680000000000 -0.761741000000000 15.000000000000000
0.499158000000000 6.076570000000000 -1.471090000000000 101.000000000000000
0.496769000000000 6.034570000000000 -0.705941000000000 101.000000000000000
1.075650000000000 5.937160000000000 -0.810443000000000 101.000000000000000
0.702952000000000 6.027520000000000 -0.728981000000000 19.000000000000000
0.896763000000000 6.001810000000000 -0.761243000000000 15.000000000000000
0.517981000000000 6.059390000000000 -1.467330000000000 101.000000000000000
0.520507000000000 6.076440000000000 -0.711037000000000 101.000000000000000
1.096370000000000 5.933370000000000 -0.810443000000000 101.000000000000000
0.723988000000000 6.025030000000000 -0.728981000000000 20.000000000000000
0.915149000000000 5.974950000000000 -0.758255000000000 16.000000000000000
0.542604000000000 6.084560000000000 -1.473900000000000 101.000000000000000
0.541361000000000 6.058660000000000 -0.709184000000000 101.000000000000000
1.111930000000000 5.902240000000000 -0.806715000000000 101.000000000000000
0.745990000000000 6.030350000000000 -0.729935000000000 24.000000000000000
0.936615000000000 5.975640000000000 -0.758753000000000 15.000000000000000
0.564558000000000 6.090370000000000 -1.475780000000000 101.000000000000000
0.562873000000000 6.060690000000000 -0.709647000000000 101.000000000000000
1.130290000000000 5.886640000000000 -0.805118000000000 101.000000000000000
0.763526000000000 6.000130000000000 -0.726596000000000 24.000000000000000
0.956840000000000 5.968410000000000 -0.758255000000000 18.000000000000000
0.584696000000000 6.076750000000000 -1.472960000000000 101.000000000000000
0.583644000000000 6.054730000000000 -0.709184000000000 101.000000000000000
1.150070000000000 5.878770000000000 -0.804585000000000 101.000000000000000
0.784980000000000 6.001370000000000 -0.727073000000000 62.000000000000000
0.971248000000000 5.925870000000000 -0.753277000000000 73.000000000000000
0.604776000000000 6.052660000000000 -0.709184000000000 101.000000000000000
0.806453000000000 6.002520000000000 -0.727550000000000 75.000000000000000
0.991928000000000 5.922450000000000 -0.753277000000000 80.000000000000000
0.625108000000000 6.053180000000000 -1.468270000000000 31.000000000000000
0.623856000000000 6.030750000000000 -0.706868000000000 101.000000000000000
0.829029000000000 6.011480000000000 -0.728981000000000 75.000000000000000
1.017950000000000 5.950240000000000 -0.757260000000000 83.000000000000000
0.647473000000000 6.062560000000000 -1.471090000000000 33.000000000000000
0.644058000000000 6.020640000000000 -0.705941000000000 101.000000000000000
0.850008000000000 6.008550000000000 -0.728981000000000 75.000000000000000
1.038360000000000 5.950740000000000 -0.757758000000000 83.000000000000000
0.670554000000000 6.087440000000000 -1.477650000000000 35.000000000000000
0.665762000000000 6.034260000000000 -0.707794000000000 101.000000000000000
0.870497000000000 6.009620000000000 -0.729458000000000 35.000000000000000
1.059820000000000 5.950990000000000 -0.758255000000000 83.000000000000000
0.687846000000000 6.050290000000000 -1.469210000000000 101.000000000000000
0.686822000000000 6.031900000000000 -0.707794000000000 101.000000000000000
0.886222000000000 5.971190000000000 -0.725164000000000 24.000000000000000
1.084840000000000 5.970690000000000 -0.761243000000000 19.000000000000000
0.707603000000000 6.036260000000000 -1.466400000000000 101.000000000000000
0.707410000000000 6.025520000000000 -0.707331000000000 101.000000000000000
0.908850000000000 5.979840000000000 -0.726596000000000 23.000000000000000
1.102060000000000 5.947350000000000 -0.758753000000000 21.000000000000000
0.727737000000000 6.026040000000000 -1.464520000000000 101.000000000000000
0.728438000000000 6.023020000000000 -0.707331000000000 101.000000000000000
0.932771000000000 5.996250000000000 -0.728981000000000 29.000000000000000
1.118830000000000 5.928060000000000 -0.756762000000000 22.000000000000000
0.750590000000000 6.046740000000000 -1.470150000000000 101.000000000000000
0.748898000000000 6.024510000000000 -0.707794000000000 101.000000000000000
0.953897000000000 6.000970000000000 -0.729935000000000 22.000000000000000
1.140730000000000 5.936010000000000 -0.758255000000000 20.000000000000000
0.774080000000000 6.071220000000000 -1.476720000000000 101.000000000000000
0.768368000000000 6.018050000000000 -0.707331000000000 101.000000000000000
0.966317000000000 5.938640000000000 -0.722779000000000 72.000000000000000
1.156640000000000 5.896540000000000 -0.753775000000000 83.000000000000000
0.789787000000000 6.010380000000000 -1.462640000000000 43.000000000000000
0.790434000000000 6.007180000000000 -0.706404000000000 101.000000000000000
0.988996000000000 5.946980000000000 -0.724210000000000 72.000000000000000
0.813869000000000 6.038550000000000 -1.470150000000000 38.000000000000000
0.811413000000000 6.012400000000000 -0.707331000000000 101.000000000000000
1.012700000000000 5.967160000000000 -0.727073000000000 75.000000000000000
0.832292000000000 6.024260000000000 -1.467330000000000 49.000000000000000
0.830257000000000 6.001810000000000 -0.706404000000000 101.000000000000000
1.032170000000000 5.955760000000000 -0.726119000000000 75.000000000000000
0.854913000000000 6.025020000000000 -1.468270000000000 76.000000000000000
0.855043000000000 6.018390000000000 -0.708720000000000 101.000000000000000
1.056410000000000 5.971680000000000 -0.728504000000000 75.000000000000000
0.874260000000000 6.010460000000000 -1.465460000000000 101.000000000000000
0.874901000000000 6.007510000000000 -0.707794000000000 101.000000000000000
1.075840000000000 5.960140000000000 -0.727550000000000 23.000000000000000
0.894662000000000 6.003520000000000 -1.464520000000000 101.000000000000000
0.895866000000000 6.004410000000000 -0.707794000000000 101.000000000000000
1.095910000000000 5.952440000000000 -0.727073000000000 24.000000000000000
0.915026000000000 5.996520000000000 -1.463580000000000 101.000000000000000
0.916220000000000 5.997320000000000 -0.707331000000000 101.000000000000000
1.115220000000000 5.940770000000000 -0.726119000000000 32.000000000000000
0.935352000000000 5.989450000000000 -1.462640000000000 101.000000000000000
0.937149000000000 5.994090000000000 -0.707331000000000 101.000000000000000
1.136700000000000 5.940740000000000 -0.726596000000000 36.000000000000000
0.961161000000000 6.016860000000000 -1.470150000000000 101.000000000000000
0.956811000000000 5.982930000000000 -0.706404000000000 101.000000000000000
1.145000000000000 5.878470000000000 -0.719439000000000 72.000000000000000
0.979230000000000 6.002130000000000 -1.467330000000000 100.000000000000000
0.975366000000000 5.971890000000000 -0.705478000000000 101.000000000000000
1.001450000000000 6.006350000000000 -1.469210000000000 95.000000000000000
0.994897000000000 5.960610000000000 -0.704551000000000 101.000000000000000
1.017840000000000 5.975980000000000 -1.462640000000000 92.000000000000000
1.015700000000000 5.957100000000000 -0.704551000000000 101.000000000000000
1.042700000000000 5.995380000000000 -1.468270000000000 100.000000000000000
1.036490000000000 5.953520000000000 -0.704551000000000 101.000000000000000
1.060900000000000 5.976390000000000 -1.464520000000000 101.000000000000000
1.055870000000000 5.942040000000000 -0.703625000000000 101.000000000000000
1.082450000000000 5.976470000000000 -1.465460000000000 101.000000000000000
1.076610000000000 5.938320000000000 -0.703625000000000 101.000000000000000
1.100850000000000 5.965200000000000 -1.463580000000000 101.000000000000000
1.097740000000000 5.942530000000000 -0.704551000000000 101.000000000000000
1.123420000000000 5.964950000000000 -1.464520000000000 101.000000000000000
1.118040000000000 5.930660000000000 -0.703625000000000 101.000000000000000
1.143080000000000 5.949340000000000 -1.461710000000000 101.000000000000000
1.139020000000000 5.922620000000000 -0.703162000000000 101.000000000000000
1.165490000000000 5.964800000000000 -1.466400000000000 101.000000000000000
1.153800000000000 5.899510000000000 -0.700846000000000 101.000000000000000
0.467678000000000 6.058660000000000 -0.692351000000000 34.000000000000000
0.489765000000000 6.081900000000000 -1.268240000000000 101.000000000000000
0.486905000000000 6.033220000000000 -0.689634000000000 50.000000000000000
0.508696000000000 6.052840000000000 -1.262550000000000 101.000000000000000
0.507629000000000 6.027530000000000 -0.689181000000000 57.000000000000000
0.530129000000000 6.066720000000000 -1.265800000000000 101.000000000000000
0.527267000000000 6.021850000000000 -0.688728000000000 56.000000000000000
0.549885000000000 6.049230000000000 -1.262550000000000 101.000000000000000
0.548645000000000 6.023930000000000 -0.689181000000000 49.000000000000000
0.572101000000000 6.058970000000000 -1.264990000000000 101.000000000000000
0.568920000000000 6.014070000000000 -0.688276000000000 57.000000000000000
0.594305000000000 6.056840000000000 -1.264990000000000 101.000000000000000
0.592126000000000 6.023810000000000 -0.689634000000000 53.000000000000000
0.616236000000000 6.062520000000000 -1.266620000000000 23.000000000000000
0.612344000000000 6.013800000000000 -0.688728000000000 74.000000000000000
0.635346000000000 6.040850000000000 -1.262550000000000 29.000000000000000
0.630834000000000 5.987910000000000 -0.686011000000000 100.000000000000000
0.657275000000000 6.046390000000000 -1.264170000000000 32.000000000000000
0.652592000000000 5.993570000000000 -0.686917000000000 101.000000000000000
0.479645000000000 6.056620000000000 -1.109160000000000 95.000000000000000