# This PCD file was generated using the MATLAB® pcwrite function
# from Computer Vision Toolbox®.
# .PCD v.7 - Point Cloud Data file format
VERSION .7
FIELDS x y z intensity
SIZE 8 8 8 8
TYPE F F F F
COUNT 1 1 1 1
WIDTH 314
HEIGHT 1
VIEWPOINT 0 0 0 1 0 0 0
POINTS 314
DATA ascii
-1.505660000000000 5.394110000000000 -1.164050000000000 101.000000000000000
-1.470180000000000 5.338920000000000 -1.151020000000000 101.000000000000000
-1.457700000000000 5.366690000000000 -1.155910000000000 101.000000000000000
-1.443010000000000 5.386880000000000 -1.159160000000000 101.000000000000000
-1.423190000000000 5.388100000000000 -1.158350000000000 101.000000000000000
-1.408330000000000 5.408190000000000 -1.161610000000000 100.000000000000000
-1.380680000000000 5.378940000000000 -1.154280000000000 101.000000000000000
-1.360930000000000 5.379930000000000 -1.153470000000000 101.000000000000000
-1.344980000000000 5.396040000000000 -1.155910000000000 101.000000000000000
-1.504200000000000 5.365030000000000 -1.017210000000000 10.000000000000000
-1.328940000000000 5.412120000000000 -1.158350000000000 101.000000000000000
-1.486520000000000 5.374040000000000 -1.017930000000000 101.000000000000000
-1.309120000000000 5.412920000000000 -1.157540000000000 101.000000000000000
-1.465680000000000 5.371600000000000 -1.016490000000000 101.000000000000000
-1.292030000000000 5.425070000000000 -1.159160000000000 101.000000000000000
-1.442830000000000 5.361490000000000 -1.013620000000000 101.000000000000000
-1.270410000000000 5.418110000000000 -1.156720000000000 95.000000000000000
-1.423090000000000 5.362690000000000 -1.012900000000000 101.000000000000000
-1.256770000000000 5.445410000000000 -1.161610000000000 61.000000000000000
-1.410340000000000 5.390470000000000 -1.017210000000000 101.000000000000000
-1.236020000000000 5.442120000000000 -1.159980000000000 62.000000000000000
-1.392500000000000 5.399170000000000 -1.017930000000000 101.000000000000000
-1.219580000000000 5.457870000000000 -1.162420000000000 63.000000000000000
-1.374610000000000 5.407810000000000 -1.018650000000000 54.000000000000000
-1.200630000000000 5.458060000000000 -1.161610000000000 101.000000000000000
-1.357630000000000 5.416150000000000 -1.019360000000000 60.000000000000000
-1.181570000000000 5.462220000000000 -1.161610000000000 101.000000000000000
-1.338720000000000 5.420860000000000 -1.019360000000000 57.000000000000000
-1.161680000000000 5.462480000000000 -1.160790000000000 101.000000000000000
-1.498820000000000 5.365280000000000 -0.906648000000000 92.000000000000000
-1.314200000000000 5.402560000000000 -1.015050000000000 45.000000000000000
-1.146620000000000 5.485670000000000 -1.164860000000000 101.000000000000000
-1.481130000000000 5.374290000000000 -0.907290000000000 52.000000000000000
-1.301760000000000 5.433900000000000 -1.020080000000000 56.000000000000000
-1.125880000000000 5.481960000000000 -1.163230000000000 101.000000000000000
-1.465470000000000 5.390850000000000 -0.909218000000000 38.000000000000000
-1.280110000000000 5.422870000000000 -1.017210000000000 101.000000000000000
-1.107700000000000 5.485670000000000 -1.163230000000000 101.000000000000000
-1.443490000000000 5.380430000000000 -0.906648000000000 43.000000000000000
-1.267470000000000 5.450080000000000 -1.021520000000000 101.000000000000000
-1.090830000000000 5.501020000000000 -1.165680000000000 39.000000000000000
-1.426720000000000 5.393070000000000 -0.907933000000000 39.000000000000000
-1.245730000000000 5.447020000000000 -1.020080000000000 101.000000000000000
-1.072370000000000 5.508640000000000 -1.166490000000000 38.000000000000000
-1.409880000000000 5.405660000000000 -0.909218000000000 35.000000000000000
-1.231890000000000 5.474360000000000 -1.024390000000000 100.000000000000000
-1.052400000000000 5.508510000000000 -1.165680000000000 40.000000000000000
-1.388060000000000 5.399080000000000 -0.907290000000000 51.000000000000000
-1.210230000000000 5.467110000000000 -1.022240000000000 87.000000000000000
-1.034610000000000 5.519840000000000 -1.167300000000000 42.000000000000000
-1.372110000000000 5.415370000000000 -0.909218000000000 53.000000000000000
-1.193650000000000 5.482830000000000 -1.024390000000000 27.000000000000000
-1.013210000000000 5.511870000000000 -1.164860000000000 56.000000000000000
-1.351290000000000 5.412470000000000 -0.907933000000000 53.000000000000000
-1.170510000000000 5.463670000000000 -1.020080000000000 27.000000000000000
-1.515130000000000 5.387000000000000 -0.821558000000000 2.000000000000000
-0.994924000000000 5.515200000000000 -1.164860000000000 100.000000000000000
-1.335220000000000 5.424580000000000 -0.909218000000000 53.000000000000000
-1.149950000000000 5.455970000000000 -1.017930000000000 29.000000000000000
-1.488790000000000 5.361490000000000 -0.816910000000000 101.000000000000000
-0.975667000000000 5.518640000000000 -1.164860000000000 100.000000000000000
-1.313480000000000 5.417700000000000 -0.907290000000000 39.000000000000000
-1.135530000000000 5.487130000000000 -1.022960000000000 27.000000000000000
-1.477490000000000 5.397450000000000 -0.821558000000000 101.000000000000000
-0.957734000000000 5.529730000000000 -1.166490000000000 101.000000000000000
-1.296400000000000 5.429930000000000 -0.908575000000000 30.000000000000000
-1.117150000000000 5.494910000000000 -1.023670000000000 26.000000000000000
-1.452450000000000 5.379650000000000 -0.818072000000000 101.000000000000000
-0.935806000000000 5.517590000000000 -1.163230000000000 101.000000000000000
-1.274730000000000 5.422900000000000 -0.906648000000000 25.000000000000000
-1.094110000000000 5.479480000000000 -1.020080000000000 51.000000000000000
-1.430600000000000 5.373210000000000 -0.816329000000000 100.000000000000000
-0.919106000000000 5.536280000000000 -1.166490000000000 100.000000000000000
-1.255790000000000 5.427310000000000 -0.906648000000000 21.000000000000000
-1.078010000000000 5.498720000000000 -1.022960000000000 54.000000000000000
-1.415860000000000 5.393480000000000 -0.818653000000000 101.000000000000000
-0.897892000000000 5.527850000000000 -1.164050000000000 25.000000000000000
-1.237710000000000 5.435510000000000 -0.907290000000000 21.000000000000000
-1.060290000000000 5.510170000000000 -1.024390000000000 59.000000000000000
-1.400000000000000 5.409890000000000 -0.820396000000000 100.000000000000000
-0.884734000000000 5.569630000000000 -1.172190000000000 27.000000000000000
-1.222180000000000 5.455210000000000 -0.909860000000000 19.000000000000000
-1.041050000000000 5.513840000000000 -1.024390000000000 57.000000000000000
-1.381110000000000 5.414740000000000 -0.820396000000000 55.000000000000000
-0.864686000000000 5.568820000000000 -1.171380000000000 28.000000000000000
-1.201430000000000 5.451730000000000 -0.908575000000000 22.000000000000000
-1.022520000000000 5.521310000000000 -1.025110000000000 40.000000000000000
-1.361230000000000 5.415690000000000 -0.819815000000000 47.000000000000000
-0.845830000000000 5.575670000000000 -1.172190000000000 22.000000000000000
-1.186580000000000 5.475180000000000 -0.911788000000000 30.000000000000000
-1.002530000000000 5.520970000000000 -1.024390000000000 17.000000000000000
-1.339460000000000 5.408880000000000 -0.818072000000000 43.000000000000000
-0.822345000000000 5.551470000000000 -1.166490000000000 68.000000000000000
-1.163350000000000 5.459990000000000 -0.908575000000000 22.000000000000000
-1.513470000000000 5.405720000000000 -0.753999000000000 46.000000000000000
-0.981878000000000 5.516690000000000 -1.022960000000000 17.000000000000000
-1.321510000000000 5.417370000000000 -0.818653000000000 51.000000000000000
-1.146710000000000 5.475610000000000 -0.910503000000000 25.000000000000000
-1.491430000000000 5.399500000000000 -0.752402000000000 101.000000000000000
-0.965995000000000 5.539470000000000 -1.026550000000000 17.000000000000000
-1.311840000000000 5.460430000000000 -0.824463000000000 45.000000000000000
-1.124400000000000 5.464110000000000 -0.907933000000000 24.000000000000000
-1.469450000000000 5.393200000000000 -0.750804000000000 65.000000000000000
-0.946653000000000 5.542810000000000 -1.026550000000000 15.000000000000000
-1.286400000000000 5.438020000000000 -0.820396000000000 87.000000000000000
-1.103760000000000 5.460260000000000 -0.906648000000000 20.000000000000000
-1.446500000000000 5.382980000000000 -0.748674000000000 51.000000000000000
-0.924054000000000 5.526670000000000 -1.022960000000000 13.000000000000000
-1.270100000000000 5.454040000000000 -0.822139000000000 64.000000000000000
-1.089490000000000 5.483250000000000 -0.909860000000000 17.000000000000000
-1.429650000000000 5.391580000000000 -0.749207000000000 55.000000000000000
-0.905086000000000 5.525820000000000 -1.022240000000000 43.000000000000000
-1.252000000000000 5.458220000000000 -0.822139000000000 81.000000000000000
-1.071860000000000 5.494770000000000 -0.911146000000000 13.000000000000000
-1.416840000000000 5.419550000000000 -0.752402000000000 67.000000000000000
-0.891394000000000 5.563920000000000 -1.028700000000000 50.000000000000000
-1.232940000000000 5.462560000000000 -0.822139000000000 55.000000000000000
-1.052670000000000 5.498480000000000 -0.911146000000000 12.000000000000000
-1.391980000000000 5.401430000000000 -0.749207000000000 71.000000000000000
-0.872576000000000 5.570880000000000 -1.029420000000000 58.000000000000000
-1.211300000000000 5.455240000000000 -0.820396000000000 50.000000000000000
-1.033470000000000 5.502120000000000 -0.911146000000000 13.000000000000000
-1.371160000000000 5.398570000000000 -0.748142000000000 101.000000000000000
-0.852529000000000 5.570000000000000 -1.028700000000000 55.000000000000000
-1.191400000000000 5.455570000000000 -0.819815000000000 27.000000000000000
-1.014260000000000 5.505690000000000 -0.911146000000000 13.000000000000000
-1.353270000000000 5.407170000000000 -0.748674000000000 101.000000000000000
-0.833663000000000 5.576840000000000 -1.029420000000000 66.000000000000000
-1.174010000000000 5.467430000000000 -0.820977000000000 30.000000000000000
-0.994333000000000 5.505320000000000 -0.910503000000000 16.000000000000000
-1.335340000000000 5.415710000000000 -0.749207000000000 101.000000000000000
-1.501770000000000 5.374390000000000 -0.700005000000000 72.000000000000000
-0.813623000000000 5.575820000000000 -1.028700000000000 64.000000000000000
-1.155740000000000 5.475370000000000 -0.821558000000000 30.000000000000000
-0.975798000000000 5.512640000000000 -0.911146000000000 16.000000000000000
-1.318300000000000 5.428050000000000 -0.750272000000000 100.000000000000000
-1.480770000000000 5.367860000000000 -0.698511000000000 92.000000000000000
-1.139990000000000 5.490790000000000 -0.823301000000000 27.000000000000000
-0.957512000000000 5.515850000000000 -0.911146000000000 12.000000000000000
-1.302140000000000 5.440100000000000 -0.751337000000000 100.000000000000000
-1.464110000000000 5.380660000000000 -0.699507000000000 92.000000000000000
-1.118440000000000 5.483110000000000 -0.821558000000000 22.000000000000000
-0.938252000000000 5.519160000000000 -0.911146000000000 15.000000000000000
-1.284050000000000 5.448470000000000 -0.751869000000000 54.000000000000000
-1.441210000000000 5.370400000000000 -0.697515000000000 92.000000000000000
-1.100850000000000 5.494740000000000 -0.822720000000000 36.000000000000000
-0.918981000000000 5.522400000000000 -0.911146000000000 12.000000000000000
-1.264130000000000 5.449060000000000 -0.751337000000000 44.000000000000000
-1.423470000000000 5.379240000000000 -0.698013000000000 92.000000000000000
-1.083190000000000 5.506310000000000 -0.823882000000000 35.000000000000000
-0.900967000000000 5.533360000000000 -0.912431000000000 11.000000000000000
-1.241570000000000 5.437980000000000 -0.749207000000000 40.000000000000000
-1.408690000000000 5.399530000000000 -0.700005000000000 92.000000000000000
-1.063210000000000 5.506180000000000 -0.823301000000000 37.000000000000000
-0.883510000000000 5.548170000000000 -0.914358000000000 9.000000000000000
-1.221710000000000 5.438410000000000 -0.748674000000000 41.000000000000000
-1.386870000000000 5.392890000000000 -0.698511000000000 92.000000000000000
-1.041780000000000 5.498190000000000 -0.821558000000000 31.000000000000000
-0.863890000000000 5.543270000000000 -0.913073000000000 9.000000000000000
-1.206240000000000 5.454040000000000 -0.750272000000000 40.000000000000000
-1.372880000000000 5.412840000000000 -0.700503000000000 92.000000000000000
-1.023540000000000 5.501610000000000 -0.821558000000000 30.000000000000000
-0.845130000000000 5.550160000000000 -0.913716000000000 6.000000000000000
-1.186350000000000 5.454350000000000 -0.749739000000000 62.000000000000000
-1.515320000000000 5.320270000000000 -1.590620000000000 5.000000000000000
-1.352050000000000 5.409900000000000 -0.699507000000000 92.000000000000000
-1.008590000000000 5.528510000000000 -0.825044000000000 21.000000000000000
-0.830397000000000 5.584310000000000 -0.918856000000000 15.000000000000000
-1.168960000000000 5.466210000000000 -0.750804000000000 53.000000000000000
-1.504020000000000 5.351430000000000 -1.598360000000000 101.000000000000000
-1.508790000000000 5.372020000000000 -0.670300000000000 6.000000000000000
-1.332210000000000 5.410740000000000 -0.699009000000000 92.000000000000000
-0.988588000000000 5.528100000000000 -0.824463000000000 18.000000000000000
-0.804094000000000 5.540290000000000 -0.911146000000000 32.000000000000000
-1.150690000000000 5.474130000000000 -0.751337000000000 52.000000000000000
-1.480190000000000 5.338130000000000 -1.592830000000000 101.000000000000000
-1.486850000000000 5.365780000000000 -0.668869000000000 28.000000000000000
-1.312380000000000 5.411500000000000 -0.698511000000000 92.000000000000000
-0.972701000000000 5.551010000000000 -0.827368000000000 18.000000000000000
-1.131570000000000 5.478120000000000 -0.751337000000000 55.000000000000000
-1.463580000000000 5.350680000000000 -1.595050000000000 100.000000000000000
-1.473350000000000 5.390090000000000 -0.671254000000000 35.000000000000000
-1.299010000000000 5.439210000000000 -0.701498000000000 89.000000000000000
-0.949301000000000 5.530970000000000 -0.823882000000000 17.000000000000000
-1.113230000000000 5.485920000000000 -0.751869000000000 44.000000000000000
-1.440890000000000 5.340910000000000 -1.590620000000000 100.000000000000000
-1.455560000000000 5.399030000000000 -0.671731000000000 26.000000000000000
-1.283650000000000 5.459160000000000 -0.703490000000000 89.000000000000000
-0.933268000000000 5.553760000000000 -0.826787000000000 13.000000000000000
-1.096400000000000 5.501440000000000 -0.753467000000000 25.000000000000000
-1.421250000000000 5.342190000000000 -1.589520000000000 100.000000000000000
-1.436700000000000 5.404080000000000 -0.671731000000000 24.000000000000000
-1.260110000000000 5.444280000000000 -0.701000000000000 89.000000000000000
-0.910665000000000 5.537460000000000 -0.823882000000000 27.000000000000000
-1.077190000000000 5.505230000000000 -0.753467000000000 29.000000000000000
-1.403570000000000 5.350840000000000 -1.590620000000000 100.000000000000000
-1.412800000000000 5.389850000000000 -0.669346000000000 21.000000000000000
-1.241980000000000 5.452510000000000 -0.701498000000000 71.000000000000000
-0.891959000000000 5.544520000000000 -0.824463000000000 29.000000000000000
-1.055720000000000 5.497280000000000 -0.751869000000000 25.000000000000000
-1.383920000000000 5.351980000000000 -1.589520000000000 101.000000000000000
-1.405900000000000 5.440900000000000 -0.675071000000000 12.000000000000000
-1.223810000000000 5.460690000000000 -0.701996000000000 89.000000000000000
-0.876904000000000 5.574960000000000 -0.828530000000000 31.000000000000000
-1.039690000000000 5.512430000000000 -0.753467000000000 21.000000000000000
-1.371860000000000 5.378890000000000 -1.596150000000000 101.000000000000000
-1.378040000000000 5.407040000000000 -0.670300000000000 8.000000000000000
-1.207410000000000 5.472470000000000 -0.702992000000000 80.000000000000000
-0.853596000000000 5.546550000000000 -0.823882000000000 31.000000000000000
-1.020440000000000 5.516030000000000 -0.753467000000000 22.000000000000000
-1.344640000000000 5.350090000000000 -1.586200000000000 101.000000000000000
-1.356250000000000 5.400260000000000 -0.668869000000000 41.000000000000000
-1.189980000000000 5.484400000000000 -0.703988000000000 89.000000000000000
-1.517980000000000 5.345180000000000 -1.340680000000000 26.000000000000000
-0.836583000000000 5.565150000000000 -0.826206000000000 29.000000000000000
-1.000480000000000 5.515660000000000 -0.752934000000000 32.000000000000000
-1.329660000000000 5.369680000000000 -1.590620000000000 101.000000000000000
-1.339300000000000 5.412680000000000 -0.669823000000000 58.000000000000000
-1.170000000000000 5.484640000000000 -0.703490000000000 89.000000000000000
-1.505600000000000 5.372910000000000 -1.346310000000000 101.000000000000000
-0.819451000000000 5.583700000000000 -0.828530000000000 36.000000000000000
-0.982604000000000 5.526920000000000 -0.753999000000000 37.000000000000000
-1.316370000000000 5.396700000000000 -1.597260000000000 101.000000000000000
-1.320400000000000 5.417320000000000 -0.669823000000000 64.000000000000000
-1.151660000000000 5.492580000000000 -0.703988000000000 89.000000000000000
-1.479590000000000 5.351900000000000 -1.339740000000000 100.000000000000000
-0.963305000000000 5.530320000000000 -0.753999000000000 26.000000000000000
-1.293930000000000 5.386310000000000 -1.592830000000000 74.000000000000000
-1.307040000000000 5.445070000000000 -0.672685000000000 54.000000000000000
-1.132480000000000 5.496560000000000 -0.703988000000000 82.000000000000000
-1.463970000000000 5.368290000000000 -1.342550000000000 100.000000000000000
-0.945995000000000 5.545370000000000 -0.755597000000000 30.000000000000000
-1.275120000000000 5.390790000000000 -1.592830000000000 62.000000000000000
-1.114860000000000 5.508260000000000 -0.704983000000000 77.000000000000000
-1.444210000000000 5.369610000000000 -1.341620000000000 100.000000000000000
-0.926293000000000 5.540660000000000 -0.754532000000000 27.000000000000000
-1.259860000000000 5.406220000000000 -1.596150000000000 66.000000000000000
-1.094270000000000 5.500250000000000 -0.703490000000000 66.000000000000000
-1.426390000000000 5.374370000000000 -1.341620000000000 89.000000000000000
-0.906307000000000 5.539940000000000 -0.753999000000000 12.000000000000000
-1.238400000000000 5.399350000000000 -1.592830000000000 63.000000000000000
-1.078110000000000 5.519620000000000 -0.705481000000000 59.000000000000000
-1.408610000000000 5.383080000000000 -1.342550000000000 100.000000000000000
-0.891975000000000 5.574390000000000 -0.758259000000000 10.000000000000000
-1.220390000000000 5.407390000000000 -1.593940000000000 66.000000000000000
-1.056590000000000 5.511660000000000 -0.703988000000000 59.000000000000000
-1.394670000000000 5.406790000000000 -1.347250000000000 101.000000000000000
-0.873124000000000 5.581390000000000 -0.758792000000000 9.000000000000000
-1.199840000000000 5.404110000000000 -1.591730000000000 100.000000000000000
-1.038810000000000 5.523110000000000 -0.704983000000000 51.000000000000000
-1.369080000000000 5.385240000000000 -1.340680000000000 101.000000000000000
-0.849443000000000 5.556970000000000 -0.755064000000000 9.000000000000000
-1.183430000000000 5.419530000000000 -1.595050000000000 100.000000000000000
-1.018810000000000 5.522800000000000 -0.704485000000000 52.000000000000000
-1.352160000000000 5.397530000000000 -1.342550000000000 101.000000000000000
-0.834137000000000 5.587350000000000 -0.758792000000000 12.000000000000000
-1.165310000000000 5.427390000000000 -1.596150000000000 99.000000000000000
-0.999521000000000 5.526320000000000 -0.704485000000000 89.000000000000000
-1.330520000000000 5.390900000000000 -1.339740000000000 101.000000000000000
-0.811199000000000 5.566690000000000 -0.755597000000000 30.000000000000000
-1.150330000000000 5.450230000000000 -1.601680000000000 88.000000000000000
-0.982996000000000 5.545410000000000 -0.706477000000000 89.000000000000000
-1.315370000000000 5.410620000000000 -1.343490000000000 101.000000000000000
-1.126620000000000 5.431630000000000 -1.595050000000000 84.000000000000000
-0.963633000000000 5.548810000000000 -0.706477000000000 89.000000000000000
-1.298280000000000 5.422740000000000 -1.345370000000000 73.000000000000000
-1.112250000000000 5.458130000000000 -1.601680000000000 39.000000000000000
-0.943592000000000 5.548230000000000 -0.705979000000000 55.000000000000000
-1.280240000000000 5.431030000000000 -1.346310000000000 60.000000000000000
-1.090180000000000 5.446900000000000 -1.597260000000000 29.000000000000000
-0.925189000000000 5.551320000000000 -0.705979000000000 38.000000000000000
-1.264860000000000 5.446600000000000 -1.349120000000000 50.000000000000000
-1.074330000000000 5.461800000000000 -1.600570000000000 28.000000000000000
-0.910916000000000 5.585860000000000 -0.709962000000000 33.000000000000000
-1.241510000000000 5.432030000000000 -1.344430000000000 47.000000000000000
-1.054530000000000 5.461740000000000 -1.599470000000000 37.000000000000000
-0.887036000000000 5.561570000000000 -0.706477000000000 34.000000000000000
-1.223390000000000 5.440130000000000 -1.345370000000000 48.000000000000000
-1.036180000000000 5.469170000000000 -1.600570000000000 29.000000000000000
-0.870063000000000 5.580320000000000 -0.708468000000000 36.000000000000000
-1.207750000000000 5.459550000000000 -1.349120000000000 101.000000000000000
-1.013570000000000 5.453850000000000 -1.595050000000000 71.000000000000000
-0.851176000000000 5.587240000000000 -0.708966000000000 37.000000000000000
-1.182900000000000 5.437140000000000 -1.342550000000000 101.000000000000000
-0.995903000000000 5.464920000000000 -1.597260000000000 81.000000000000000
-0.831084000000000 5.586250000000000 -0.708468000000000 47.000000000000000
-1.164730000000000 5.445040000000000 -1.343490000000000 101.000000000000000
-0.978452000000000 5.471980000000000 -1.598360000000000 84.000000000000000
-1.148270000000000 5.456480000000000 -1.345370000000000 101.000000000000000
-0.960009000000000 5.479150000000000 -1.599470000000000 69.000000000000000
-1.130000000000000 5.464260000000000 -1.346310000000000 101.000000000000000
-0.946079000000000 5.512770000000000 -1.608310000000000 91.000000000000000
-1.113240000000000 5.479600000000000 -1.349120000000000 39.000000000000000
-0.927467000000000 5.519830000000000 -1.609420000000000 28.000000000000000
-1.094870000000000 5.487270000000000 -1.350060000000000 35.000000000000000
-0.906946000000000 5.515450000000000 -1.607200000000000 28.000000000000000
-1.076460000000000 5.494870000000000 -1.351000000000000 24.000000000000000
-0.887078000000000 5.514790000000000 -1.606100000000000 40.000000000000000
-1.055070000000000 5.487140000000000 -1.348180000000000 22.000000000000000
-0.873568000000000 5.548080000000000 -1.614940000000000 38.000000000000000
-1.037590000000000 5.494430000000000 -1.349120000000000 20.000000000000000
-0.849519000000000 5.520700000000000 -1.606100000000000 39.000000000000000
-1.021240000000000 5.513310000000000 -1.352870000000000 90.000000000000000
-0.829101000000000 5.516030000000000 -1.603890000000000 99.000000000000000
-1.001290000000000 5.513020000000000 -1.351940000000000 100.000000000000000
-0.979313000000000 5.501170000000000 -1.348180000000000 100.000000000000000
-0.960104000000000 5.504550000000000 -1.348180000000000 95.000000000000000
-0.940884000000000 5.507870000000000 -1.348180000000000 100.000000000000000
-0.926142000000000 5.537970000000000 -1.354750000000000 17.000000000000000
-0.906515000000000 5.533330000000000 -1.352870000000000 16.000000000000000
-0.888777000000000 5.540150000000000 -1.353810000000000 16.000000000000000
-0.873882000000000 5.577940000000000 -1.362260000000000 17.000000000000000
-0.848310000000000 5.534690000000000 -1.351000000000000 16.000000000000000
-0.835139000000000 5.572080000000000 -1.359440000000000 101.000000000000000