# This PCD file was generated using the MATLAB® pcwrite function
# from Computer Vision Toolbox®.
# .PCD v.7 - Point Cloud Data file format
VERSION .7
FIELDS x y z intensity
SIZE 8 8 8 8
TYPE F F F F
COUNT 1 1 1 1
WIDTH 420
HEIGHT 1
VIEWPOINT 0 0 0 1 0 0 0
POINTS 420
DATA ascii
-2.005430000000000 7.337670000000000 -0.866684000000000 40.000000000000000
-1.985080000000000 7.353990000000000 -1.583270000000000 36.000000000000000
-1.993510000000000 7.390330000000000 -0.872118000000000 15.000000000000000
-1.955370000000000 7.345730000000000 -1.580010000000000 7.000000000000000
-1.965660000000000 7.389560000000000 -0.871212000000000 12.000000000000000
-1.932700000000000 7.363880000000000 -1.582460000000000 7.000000000000000
-1.945900000000000 7.419440000000000 -0.873929000000000 13.000000000000000
-1.910910000000000 7.385740000000000 -1.585710000000000 6.000000000000000
-1.915020000000000 7.406950000000000 -0.871665000000000 12.000000000000000
-1.885120000000000 7.392370000000000 -1.585710000000000 7.000000000000000
-1.885220000000000 7.398190000000000 -0.869853000000000 22.000000000000000
-1.861210000000000 7.406500000000000 -1.587340000000000 8.000000000000000
-1.864230000000000 7.423990000000000 -0.872118000000000 19.000000000000000
-1.837230000000000 7.420560000000000 -1.588970000000000 9.000000000000000
-1.841160000000000 7.442030000000000 -0.873476000000000 22.000000000000000
-1.812610000000000 7.426610000000000 -1.588970000000000 8.000000000000000
-1.821180000000000 7.467400000000000 -0.875740000000000 12.000000000000000
-1.783010000000000 7.417660000000000 -1.585710000000000 4.000000000000000
-1.796040000000000 7.477580000000000 -0.876193000000000 8.000000000000000
-2.002290000000000 7.378790000000000 -1.395790000000000 39.000000000000000
-1.997500000000000 7.366260000000000 -0.854749000000000 21.000000000000000
-1.763420000000000 7.450510000000000 -1.591410000000000 4.000000000000000
-1.766260000000000 7.468330000000000 -0.874382000000000 7.000000000000000
-1.979990000000000 7.403910000000000 -0.858311000000000 14.000000000000000
-1.738290000000000 7.460440000000000 -1.592220000000000 3.000000000000000
-1.744690000000000 7.493800000000000 -0.876646000000000 6.000000000000000
-1.955740000000000 7.411620000000000 -1.399380000000000 4.000000000000000
-1.961230000000000 7.437680000000000 -0.861427000000000 12.000000000000000
-1.714870000000000 7.477910000000000 -1.594670000000000 5.000000000000000
-1.713190000000000 7.476600000000000 -0.873929000000000 15.000000000000000
-1.926890000000000 7.406970000000000 -1.397230000000000 5.000000000000000
-1.933260000000000 7.436790000000000 -0.860537000000000 12.000000000000000
-1.684440000000000 7.464750000000000 -1.590600000000000 8.000000000000000
-1.687960000000000 7.486420000000000 -0.874382000000000 15.000000000000000
-1.899070000000000 7.406030000000000 -1.395790000000000 7.000000000000000
-1.904330000000000 7.431940000000000 -0.859201000000000 19.000000000000000
-1.661770000000000 7.485880000000000 -1.593850000000000 8.000000000000000
-1.666980000000000 7.515540000000000 -0.877099000000000 13.000000000000000
-1.868380000000000 7.393540000000000 -1.392200000000000 15.000000000000000
-1.879350000000000 7.442390000000000 -0.859646000000000 21.000000000000000
-1.638970000000000 7.506940000000000 -1.597110000000000 7.000000000000000
-1.639040000000000 7.513550000000000 -0.876193000000000 12.000000000000000
-1.849220000000000 7.426750000000000 -1.397230000000000 11.000000000000000
-1.853360000000000 7.448910000000000 -0.859646000000000 20.000000000000000
-1.608650000000000 7.493470000000000 -1.593040000000000 5.000000000000000
-1.617810000000000 7.542540000000000 -0.878910000000000 7.000000000000000
-1.823280000000000 7.433160000000000 -1.397230000000000 15.000000000000000
-1.833020000000000 7.478500000000000 -0.862317000000000 22.000000000000000
-1.582480000000000 7.499040000000000 -1.593040000000000 4.000000000000000
-1.590650000000000 7.544250000000000 -0.878457000000000 6.000000000000000
-1.577300000000000 7.539580000000000 -0.757980000000000 13.000000000000000
-1.807490000000000 7.481550000000000 -1.405130000000000 3.000000000000000
-1.811570000000000 7.504170000000000 -0.864543000000000 7.000000000000000
-1.561860000000000 7.531360000000000 -1.598740000000000 2.000000000000000
-1.564300000000000 7.549760000000000 -0.878457000000000 6.000000000000000
-2.024860000000000 7.397580000000000 -0.844033000000000 30.000000000000000
-1.550970000000000 7.545040000000000 -0.757980000000000 15.000000000000000
-1.775900000000000 7.464840000000000 -1.400820000000000 4.000000000000000
-1.782610000000000 7.498850000000000 -0.863208000000000 7.000000000000000
-1.541040000000000 7.563630000000000 -1.604430000000000 3.000000000000000
-1.538730000000000 7.559070000000000 -0.878910000000000 9.000000000000000
-1.987290000000000 7.356030000000000 -1.240130000000000 14.000000000000000
-1.983480000000000 7.347030000000000 -0.837470000000000 18.000000000000000
-1.520680000000000 7.530890000000000 -0.756022000000000 56.000000000000000
-1.750730000000000 7.474830000000000 -1.401540000000000 4.000000000000000
-1.755510000000000 7.501150000000000 -0.862763000000000 6.000000000000000
-1.512320000000000 7.557440000000000 -1.601990000000000 8.000000000000000
-1.510780000000000 7.556600000000000 -0.878004000000000 9.000000000000000
-1.962620000000000 7.366740000000000 -1.240780000000000 5.000000000000000
-1.966010000000000 7.384640000000000 -0.840970000000000 17.000000000000000
-1.499810000000000 7.563490000000000 -0.758764000000000 55.000000000000000
-1.725050000000000 7.476760000000000 -1.400820000000000 4.000000000000000
-1.727060000000000 7.491440000000000 -0.860982000000000 14.000000000000000
-1.488010000000000 7.566260000000000 -1.602810000000000 7.000000000000000
-1.491080000000000 7.588870000000000 -0.881174000000000 7.000000000000000
-1.937170000000000 7.369380000000000 -1.240130000000000 5.000000000000000
-1.947570000000000 7.414190000000000 -0.843595000000000 14.000000000000000
-1.480050000000000 7.595770000000000 -0.761506000000000 12.000000000000000
-1.693710000000000 7.459710000000000 -1.396510000000000 13.000000000000000
-1.705290000000000 7.516810000000000 -0.863208000000000 16.000000000000000
-1.460840000000000 7.567560000000000 -1.601990000000000 7.000000000000000
-1.468340000000000 7.613540000000000 -0.883438000000000 6.000000000000000
-1.913420000000000 7.383750000000000 -1.241420000000000 4.000000000000000
-1.922670000000000 7.424800000000000 -0.844033000000000 16.000000000000000
-1.446050000000000 7.561790000000000 -0.757589000000000 12.000000000000000
-1.675380000000000 7.500140000000000 -1.402970000000000 10.000000000000000
-1.678180000000000 7.518830000000000 -0.862763000000000 15.000000000000000
-1.441710000000000 7.611090000000000 -1.610130000000000 5.000000000000000
-1.439540000000000 7.606900000000000 -0.882079000000000 9.000000000000000
-1.891540000000000 7.405680000000000 -1.243990000000000 14.000000000000000
-1.892810000000000 7.416050000000000 -0.842283000000000 36.000000000000000
-1.427720000000000 7.609830000000000 -0.761898000000000 13.000000000000000
-1.650030000000000 7.509790000000000 -1.403690000000000 10.000000000000000
-1.654480000000000 7.536290000000000 -0.864098000000000 16.000000000000000
-1.417280000000000 7.627630000000000 -1.612570000000000 4.000000000000000
-1.413700000000000 7.615790000000000 -0.882532000000000 9.000000000000000
-1.863750000000000 7.404580000000000 -1.242700000000000 12.000000000000000
-1.872730000000000 7.445750000000000 -0.844908000000000 33.000000000000000
-1.398260000000000 7.599110000000000 -0.760331000000000 14.000000000000000
-1.627130000000000 7.530890000000000 -1.406570000000000 6.000000000000000
-1.630680000000000 7.553680000000000 -0.865434000000000 5.000000000000000
-1.391350000000000 7.636380000000000 -1.613390000000000 2.000000000000000
-1.391380000000000 7.644130000000000 -0.885249000000000 9.000000000000000
-1.839790000000000 7.418710000000000 -1.243990000000000 12.000000000000000
-1.847680000000000 7.456100000000000 -0.845345000000000 31.000000000000000
-1.600020000000000 7.532670000000000 -1.405850000000000 3.000000000000000
-1.607600000000000 7.574880000000000 -0.867214000000000 4.000000000000000
-1.364680000000000 7.641190000000000 -1.613390000000000 4.000000000000000
-1.363290000000000 7.641120000000000 -0.884344000000000 13.000000000000000
-1.817630000000000 7.440420000000000 -1.246560000000000 13.000000000000000
-1.824480000000000 7.474090000000000 -0.846658000000000 25.000000000000000
-1.572910000000000 7.534360000000000 -1.405130000000000 3.000000000000000
-1.583590000000000 7.592120000000000 -0.868550000000000 4.000000000000000
-1.339350000000000 7.653620000000000 -1.615020000000000 13.000000000000000
-1.791650000000000 7.446720000000000 -1.246560000000000 2.000000000000000
-1.799300000000000 7.484280000000000 -0.847096000000000 12.000000000000000
-1.552670000000000 7.562660000000000 -1.409440000000000 3.000000000000000
-1.552810000000000 7.570070000000000 -0.865434000000000 5.000000000000000
-2.003000000000000 7.362610000000000 -1.120200000000000 68.000000000000000
-2.012500000000000 7.402620000000000 -0.829306000000000 58.000000000000000
-1.766950000000000 7.452620000000000 -1.246560000000000 3.000000000000000
-1.772640000000000 7.482470000000000 -0.846220000000000 9.000000000000000
-1.522130000000000 7.540770000000000 -1.404410000000000 10.000000000000000
-1.528490000000000 7.579080000000000 -0.865879000000000 12.000000000000000
-1.970360000000000 7.338640000000000 -1.115550000000000 40.000000000000000
-1.983810000000000 7.393890000000000 -0.827587000000000 18.000000000000000
-1.739130000000000 7.451060000000000 -1.245280000000000 3.000000000000000
-1.750120000000000 7.504100000000000 -0.847971000000000 9.000000000000000
-1.499070000000000 7.569450000000000 -1.408720000000000 11.000000000000000
-1.503780000000000 7.600220000000000 -0.867660000000000 14.000000000000000
-1.942440000000000 7.341980000000000 -1.114970000000000 43.000000000000000
-1.958730000000000 7.408800000000000 -0.828447000000000 14.000000000000000
-1.713110000000000 7.457080000000000 -1.245280000000000 9.000000000000000
-1.722140000000000 7.502410000000000 -0.847096000000000 19.000000000000000
-1.474140000000000 7.582370000000000 -1.410160000000000 8.000000000000000
-1.478000000000000 7.609330000000000 -0.868105000000000 10.000000000000000
-1.927790000000000 7.390840000000000 -1.121360000000000 34.000000000000000
-1.932860000000000 7.415590000000000 -0.828447000000000 17.000000000000000
-1.687070000000000 7.463020000000000 -1.245280000000000 10.000000000000000
-1.696820000000000 7.512260000000000 -0.847533000000000 21.000000000000000
-1.447660000000000 7.587470000000000 -1.410160000000000 7.000000000000000
-1.458130000000000 7.649590000000000 -0.872111000000000 4.000000000000000
-1.906900000000000 7.416690000000000 -1.124270000000000 31.000000000000000
-1.900040000000000 7.395330000000000 -0.825437000000000 45.000000000000000
-1.669570000000000 7.507400000000000 -1.251700000000000 12.000000000000000
-1.669720000000000 7.514250000000000 -0.847096000000000 23.000000000000000
-1.423340000000000 7.604080000000000 -1.412310000000000 3.000000000000000
-1.427030000000000 7.631190000000000 -0.869440000000000 4.000000000000000
-1.888780000000000 7.453990000000000 -1.128920000000000 10.000000000000000
-1.881040000000000 7.428900000000000 -0.828447000000000 41.000000000000000
-1.645050000000000 7.520890000000000 -1.252990000000000 11.000000000000000
-1.644330000000000 7.523920000000000 -0.847533000000000 20.000000000000000
-1.398920000000000 7.620610000000000 -1.414470000000000 3.000000000000000
-1.400390000000000 7.636120000000000 -0.869440000000000 4.000000000000000
-1.857000000000000 7.437500000000000 -1.125430000000000 10.000000000000000
-1.863760000000000 7.470150000000000 -0.832316000000000 28.000000000000000
-1.620440000000000 7.534310000000000 -1.254270000000000 3.000000000000000
-1.623910000000000 7.556820000000000 -0.850596000000000 8.000000000000000
-1.375100000000000 7.640940000000000 -1.417340000000000 3.000000000000000
-1.376540000000000 7.656610000000000 -0.871221000000000 6.000000000000000
-1.830080000000000 7.440100000000000 -1.124850000000000 10.000000000000000
-1.832930000000000 7.457300000000000 -0.830166000000000 31.000000000000000
-1.594630000000000 7.535780000000000 -1.253630000000000 2.000000000000000
-1.596370000000000 7.550500000000000 -0.849283000000000 8.000000000000000
-1.347010000000000 7.629950000000000 -1.414470000000000 22.000000000000000
-1.797000000000000 7.411510000000000 -1.119620000000000 27.000000000000000
-1.819430000000000 7.509720000000000 -0.835325000000000 11.000000000000000
-1.577160000000000 7.583820000000000 -1.260700000000000 1.000000000000000
-1.570810000000000 7.559920000000000 -0.849721000000000 7.000000000000000
-2.032080000000000 7.397070000000000 -1.030360000000000 19.000000000000000
-2.025910000000000 7.425340000000000 -0.817111000000000 53.000000000000000
-1.777180000000000 7.448840000000000 -1.124270000000000 29.000000000000000
-1.783590000000000 7.481520000000000 -0.831456000000000 11.000000000000000
-1.535930000000000 7.523790000000000 -1.249770000000000 4.000000000000000
-1.541500000000000 7.557830000000000 -0.848846000000000 17.000000000000000
-1.997700000000000 7.377680000000000 -1.026630000000000 43.000000000000000
-1.985250000000000 7.382780000000000 -0.811621000000000 14.000000000000000
-1.755290000000000 7.478420000000000 -1.127750000000000 25.000000000000000
-1.758880000000000 7.499620000000000 -0.832746000000000 9.000000000000000
-1.511750000000000 7.532710000000000 -1.250420000000000 7.000000000000000
-1.522690000000000 7.594090000000000 -0.852346000000000 19.000000000000000
-1.977320000000000 7.399580000000000 -1.028760000000000 10.000000000000000
-1.967150000000000 7.408200000000000 -0.813733000000000 13.000000000000000
-1.730890000000000 7.480050000000000 -1.127170000000000 27.000000000000000
-1.734420000000000 7.501240000000000 -0.832316000000000 17.000000000000000
-1.493080000000000 7.576680000000000 -1.256840000000000 9.000000000000000
-1.496170000000000 7.599360000000000 -0.852346000000000 20.000000000000000
-1.953490000000000 7.414110000000000 -1.029830000000000 11.000000000000000
-1.947330000000000 7.438110000000000 -0.816266000000000 13.000000000000000
-1.713560000000000 7.524630000000000 -1.132980000000000 6.000000000000000
-1.703810000000000 7.487860000000000 -0.830166000000000 25.000000000000000
-1.468120000000000 7.589600000000000 -1.258130000000000 9.000000000000000
-1.468880000000000 7.600630000000000 -0.851909000000000 22.000000000000000
-1.926610000000000 7.417050000000000 -1.029290000000000 11.000000000000000
-1.921350000000000 7.444860000000000 -0.816266000000000 38.000000000000000
-1.685550000000000 7.522840000000000 -1.131820000000000 6.000000000000000
-1.683740000000000 7.520930000000000 -0.833176000000000 23.000000000000000
-1.448250000000000 7.629580000000000 -1.263910000000000 2.000000000000000
-1.440120000000000 7.593990000000000 -0.850596000000000 5.000000000000000
-1.899720000000000 7.419890000000000 -1.028760000000000 26.000000000000000
-1.895670000000000 7.447340000000000 -0.815844000000000 46.000000000000000
-1.662300000000000 7.536120000000000 -1.132980000000000 6.000000000000000
-1.659650000000000 7.530350000000000 -0.833606000000000 23.000000000000000
-1.419320000000000 7.614940000000000 -1.260700000000000 1.000000000000000
-1.422930000000000 7.641720000000000 -0.855409000000000 4.000000000000000
-1.878020000000000 7.437680000000000 -1.030360000000000 22.000000000000000
-1.873540000000000 7.469340000000000 -0.817533000000000 30.000000000000000
-1.626760000000000 7.499330000000000 -1.126590000000000 17.000000000000000
-1.642620000000000 7.578850000000000 -0.838335000000000 7.000000000000000
-1.392020000000000 7.615960000000000 -1.260050000000000 1.000000000000000
-1.390540000000000 7.615350000000000 -0.851909000000000 3.000000000000000
-1.852040000000000 7.444190000000000 -1.030360000000000 23.000000000000000
-1.842680000000000 7.456530000000000 -0.815422000000000 27.000000000000000
-1.606350000000000 7.532060000000000 -1.130660000000000 22.000000000000000
-1.611180000000000 7.561200000000000 -0.835755000000000 5.000000000000000
-1.365430000000000 7.620770000000000 -1.260050000000000 3.000000000000000
-1.363240000000000 7.616250000000000 -0.851471000000000 10.000000000000000
-1.826990000000000 7.454460000000000 -1.030890000000000 21.000000000000000
-1.821340000000000 7.482240000000000 -0.817533000000000 11.000000000000000
-1.581670000000000 7.545370000000000 -1.131820000000000 20.000000000000000
-1.588860000000000 7.586240000000000 -0.837905000000000 7.000000000000000
-2.039780000000000 7.394270000000000 -0.799430000000000 8.000000000000000
-1.806540000000000 7.483910000000000 -1.034090000000000 9.000000000000000
-2.020140000000000 7.368210000000000 -0.958399000000000 21.000000000000000
-1.798000000000000 7.500150000000000 -0.818800000000000 9.000000000000000
-1.556920000000000 7.558590000000000 -1.132980000000000 20.000000000000000
-1.562370000000000 7.591740000000000 -0.837905000000000 6.000000000000000
-2.004550000000000 7.366790000000000 -0.795698000000000 43.000000000000000
-1.780400000000000 7.490170000000000 -1.034090000000000 7.000000000000000
-1.997510000000000 7.386710000000000 -0.959893000000000 26.000000000000000
-1.770890000000000 7.502510000000000 -0.818378000000000 7.000000000000000
-1.534450000000000 7.583380000000000 -1.135890000000000 6.000000000000000
-1.532700000000000 7.581560000000000 -0.836185000000000 20.000000000000000
-1.991200000000000 7.419850000000000 -0.800674000000000 34.000000000000000
-1.755150000000000 7.500200000000000 -1.034620000000000 7.000000000000000
-1.963540000000000 7.362960000000000 -0.955910000000000 21.000000000000000
-1.744690000000000 7.508650000000000 -0.818378000000000 8.000000000000000
-1.501030000000000 7.553750000000000 -1.130660000000000 5.000000000000000
-1.509330000000000 7.602460000000000 -0.837905000000000 20.000000000000000
-1.964270000000000 7.422910000000000 -0.800259000000000 38.000000000000000
-1.724510000000000 7.486960000000000 -1.031960000000000 15.000000000000000
-1.935800000000000 7.362090000000000 -0.954914000000000 22.000000000000000
-1.719360000000000 7.518570000000000 -0.818800000000000 23.000000000000000
-1.478440000000000 7.578370000000000 -1.133560000000000 5.000000000000000
-1.482020000000000 7.603780000000000 -0.837475000000000 18.000000000000000
-1.938340000000000 7.429720000000000 -0.800259000000000 31.000000000000000
-1.696610000000000 7.485210000000000 -1.030890000000000 18.000000000000000
-1.923040000000000 7.418750000000000 -0.961386000000000 22.000000000000000
-1.691360000000000 7.516770000000000 -0.817955000000000 21.000000000000000
-1.454950000000000 7.599030000000000 -1.135890000000000 8.000000000000000
-1.460700000000000 7.636250000000000 -0.840484000000000 5.000000000000000
-1.909730000000000 7.420700000000000 -0.798601000000000 83.000000000000000
-1.676100000000000 7.510140000000000 -1.033550000000000 18.000000000000000
-1.907280000000000 7.459690000000000 -0.965867000000000 7.000000000000000
-1.667280000000000 7.526220000000000 -0.818378000000000 24.000000000000000
-1.428280000000000 7.596040000000000 -1.134730000000000 20.000000000000000
-1.434630000000000 7.637150000000000 -0.840054000000000 5.000000000000000
-1.890660000000000 7.454320000000000 -0.801503000000000 78.000000000000000
-1.650720000000000 7.519810000000000 -1.034090000000000 16.000000000000000
-1.871530000000000 7.427820000000000 -0.960888000000000 6.000000000000000
-1.648620000000000 7.566970000000000 -0.822178000000000 7.000000000000000
-1.403200000000000 7.608760000000000 -1.135890000000000 25.000000000000000
-1.408690000000000 7.646020000000000 -0.840484000000000 5.000000000000000
-1.867520000000000 7.472450000000000 -0.802747000000000 52.000000000000000
-1.633670000000000 7.568160000000000 -1.039940000000000 5.000000000000000
-1.845590000000000 7.434310000000000 -0.960888000000000 5.000000000000000
-1.622200000000000 7.572680000000000 -0.822178000000000 6.000000000000000
-1.375920000000000 7.609720000000000 -1.135310000000000 23.000000000000000
-1.379160000000000 7.635230000000000 -0.838765000000000 5.000000000000000
-1.844280000000000 7.490510000000000 -0.803991000000000 45.000000000000000
-1.601480000000000 7.546670000000000 -1.036220000000000 5.000000000000000
-1.822460000000000 7.452270000000000 -0.962382000000000 13.000000000000000
-1.591660000000000 7.558830000000000 -0.820067000000000 5.000000000000000
-1.351420000000000 7.626160000000000 -1.137050000000000 35.000000000000000
-1.820940000000000 7.508500000000000 -0.805235000000000 16.000000000000000
-1.575940000000000 7.556090000000000 -1.036750000000000 4.000000000000000
-2.043640000000000 7.420390000000000 -0.924585000000000 4.000000000000000
-1.798660000000000 7.462130000000000 -0.962880000000000 17.000000000000000
-1.565770000000000 7.560170000000000 -0.819644000000000 5.000000000000000
-2.010980000000000 7.341860000000000 -0.778597000000000 53.000000000000000
-1.793250000000000 7.502890000000000 -0.803991000000000 17.000000000000000
-1.551670000000000 7.565160000000000 -1.037280000000000 5.000000000000000
-2.013810000000000 7.407960000000000 -0.922199000000000 50.000000000000000
-1.777580000000000 7.483500000000000 -0.964871000000000 16.000000000000000
-1.543080000000000 7.577020000000000 -0.820911000000000 13.000000000000000
-2.000130000000000 7.398420000000000 -0.783888000000000 56.000000000000000
-1.768880000000000 7.516850000000000 -0.804820000000000 15.000000000000000
-1.526030000000000 7.574420000000000 -1.037810000000000 14.000000000000000
-1.972510000000000 7.357410000000000 -0.915043000000000 35.000000000000000
-1.749230000000000 7.486100000000000 -0.964373000000000 15.000000000000000
-1.516070000000000 7.586520000000000 -0.821334000000000 16.000000000000000
-1.973000000000000 7.405700000000000 -0.783888000000000 61.000000000000000
-1.742630000000000 7.522980000000000 -0.804820000000000 38.000000000000000
-1.500350000000000 7.583590000000000 -1.038350000000000 15.000000000000000
-1.950880000000000 7.379610000000000 -0.916951000000000 37.000000000000000
-1.735550000000000 7.546310000000000 -0.971344000000000 4.000000000000000
-1.491880000000000 7.603480000000000 -0.822600000000000 16.000000000000000
-1.943090000000000 7.397150000000000 -0.782260000000000 54.000000000000000
-1.715470000000000 7.525140000000000 -0.804406000000000 48.000000000000000
-1.475380000000000 7.596560000000000 -1.039410000000000 13.000000000000000
-1.933120000000000 7.417120000000000 -0.920768000000000 32.000000000000000
-1.700430000000000 7.513610000000000 -0.966365000000000 4.000000000000000
-1.466840000000000 7.616450000000000 -0.823445000000000 10.000000000000000
-1.919250000000000 7.411590000000000 -0.783074000000000 42.000000000000000
-1.689190000000000 7.531080000000000 -0.804406000000000 44.000000000000000
-1.449600000000000 7.605560000000000 -1.039940000000000 4.000000000000000
-1.913150000000000 7.446900000000000 -0.923630000000000 12.000000000000000
-1.676780000000000 7.531120000000000 -0.967858000000000 4.000000000000000
-1.442460000000000 7.633250000000000 -0.824712000000000 3.000000000000000
-1.895340000000000 7.425960000000000 -0.783888000000000 54.000000000000000
-1.664610000000000 7.544700000000000 -0.805235000000000 36.000000000000000
-1.424500000000000 7.618370000000000 -1.041010000000000 3.000000000000000
-1.885190000000000 7.445830000000000 -0.922676000000000 14.000000000000000
-1.652180000000000 7.544680000000000 -0.968854000000000 4.000000000000000
-1.417250000000000 7.646060000000000 -0.825556000000000 3.000000000000000
-1.874260000000000 7.451820000000000 -0.785923000000000 100.000000000000000
-1.639110000000000 7.554350000000000 -0.805650000000000 9.000000000000000
-1.399330000000000 7.631090000000000 -1.042070000000000 3.000000000000000
-1.853420000000000 7.429250000000000 -0.919814000000000 11.000000000000000
-1.620820000000000 7.527130000000000 -0.965867000000000 11.000000000000000
-1.391980000000000 7.658790000000000 -0.826401000000000 3.000000000000000
-1.848230000000000 7.458320000000000 -0.785923000000000 100.000000000000000
-1.617710000000000 7.583370000000000 -0.808138000000000 12.000000000000000
-1.374790000000000 7.647630000000000 -1.043670000000000 5.000000000000000
-1.837900000000000 7.478100000000000 -0.925062000000000 13.000000000000000
-1.596180000000000 7.540500000000000 -0.966863000000000 11.000000000000000
-1.361050000000000 7.640110000000000 -0.823867000000000 16.000000000000000
-1.823130000000000 7.468590000000000 -0.786330000000000 29.000000000000000
-1.587140000000000 7.569510000000000 -0.806064000000000 9.000000000000000
-1.805250000000000 7.457450000000000 -0.921722000000000 23.000000000000000
-1.573080000000000 7.561570000000000 -0.968854000000000 13.000000000000000
-2.021950000000000 7.363720000000000 -0.890301000000000 83.000000000000000
-1.798910000000000 7.482650000000000 -0.787144000000000 21.000000000000000
-1.561510000000000 7.578900000000000 -0.806479000000000 15.000000000000000
-1.784730000000000 7.486880000000000 -0.924585000000000 27.000000000000000
-1.549860000000000 7.582570000000000 -0.970846000000000 3.000000000000000
-2.011810000000000 7.428260000000000 -0.897249000000000 44.000000000000000
-1.774610000000000 7.496630000000000 -0.787958000000000 25.000000000000000
-1.540320000000000 7.603530000000000 -0.808552000000000 29.000000000000000
-1.756260000000000 7.477290000000000 -0.922676000000000 21.000000000000000
-1.523140000000000 7.579890000000000 -0.969850000000000 2.000000000000000
-1.991270000000000 7.450240000000000 -0.899102000000000 39.000000000000000
-1.746130000000000 7.486970000000000 -0.786330000000000 25.000000000000000
-1.516880000000000 7.624470000000000 -0.810211000000000 26.000000000000000
-1.735520000000000 7.506590000000000 -0.925539000000000 8.000000000000000
-1.496670000000000 7.585160000000000 -0.969850000000000 2.000000000000000
-1.954120000000000 7.414890000000000 -0.894007000000000 30.000000000000000
-1.724440000000000 7.512410000000000 -0.788365000000000 32.000000000000000
-1.487970000000000 7.618000000000000 -0.808967000000000 31.000000000000000
-1.715470000000000 7.539710000000000 -0.928878000000000 7.000000000000000
-1.473960000000000 7.609820000000000 -0.972339000000000 3.000000000000000
-1.938210000000000 7.460120000000000 -0.898639000000000 44.000000000000000
-1.697330000000000 7.514500000000000 -0.787958000000000 36.000000000000000
-1.464360000000000 7.638780000000000 -0.810625000000000 7.000000000000000
-1.683070000000000 7.518530000000000 -0.925539000000000 6.000000000000000
-1.442200000000000 7.587620000000000 -0.968854000000000 10.000000000000000
-1.909200000000000 7.455290000000000 -0.897249000000000 40.000000000000000
-1.672810000000000 7.528150000000000 -0.788772000000000 26.000000000000000
-1.439160000000000 7.651660000000000 -0.811455000000000 7.000000000000000
-1.885450000000000 7.421800000000000 -0.768374000000000 58.000000000000000
-1.663650000000000 7.555380000000000 -0.929355000000000 6.000000000000000
-1.418620000000000 7.608220000000000 -0.970846000000000 12.000000000000000
-1.884140000000000 7.465760000000000 -0.897713000000000 32.000000000000000
-1.647370000000000 7.537830000000000 -0.789179000000000 20.000000000000000
-1.412440000000000 7.656640000000000 -0.811455000000000 7.000000000000000
-1.861460000000000 7.436060000000000 -0.769173000000000 83.000000000000000
-1.628860000000000 7.522330000000000 -0.924585000000000 19.000000000000000
-1.399190000000000 7.652170000000000 -0.975824000000000 11.000000000000000
-1.857110000000000 7.468440000000000 -0.897249000000000 34.000000000000000
-1.622720000000000 7.551320000000000 -0.789993000000000 17.000000000000000
-1.386410000000000 7.665440000000000 -0.811869000000000 11.000000000000000
-1.605900000000000 7.543510000000000 -0.926493000000000 19.000000000000000
-1.369670000000000 7.641380000000000 -0.973833000000000 25.000000000000000
-1.834810000000000 7.490310000000000 -0.899102000000000 42.000000000000000
-1.592240000000000 7.537470000000000 -0.787958000000000 13.000000000000000
-1.584440000000000 7.572390000000000 -0.929355000000000 18.000000000000000
-1.807720000000000 7.492810000000000 -0.898639000000000 33.000000000000000
-1.573200000000000 7.578050000000000 -0.791621000000000 14.000000000000000
-1.556400000000000 7.570100000000000 -0.928401000000000 13.000000000000000
-1.786140000000000 7.518400000000000 -0.900955000000000 29.000000000000000
-1.547530000000000 7.587390000000000 -0.792028000000000 20.000000000000000
-1.539400000000000 7.622200000000000 -0.934126000000000 4.000000000000000
-1.757180000000000 7.512980000000000 -0.899565000000000 23.000000000000000
-1.521040000000000 7.592750000000000 -0.792028000000000 19.000000000000000
-1.506600000000000 7.596360000000000 -0.930309000000000 5.000000000000000
-1.733140000000000 7.522640000000000 -0.900029000000000 17.000000000000000
-1.494320000000000 7.589940000000000 -0.791214000000000 19.000000000000000
-1.481400000000000 7.601310000000000 -0.930309000000000 4.000000000000000
-1.709950000000000 7.536100000000000 -0.900955000000000 17.000000000000000
-1.466110000000000 7.579230000000000 -0.789586000000000 16.000000000000000
-1.454110000000000 7.602540000000000 -0.929832000000000 18.000000000000000
-1.680580000000000 7.534560000000000 -0.900029000000000 16.000000000000000
-1.445740000000000 7.623640000000000 -0.793656000000000 11.000000000000000
-1.429030000000000 7.615370000000000 -0.930787000000000 17.000000000000000
-1.654270000000000 7.540380000000000 -0.900029000000000 17.000000000000000
-1.419850000000000 7.632560000000000 -0.794064000000000 12.000000000000000
-1.401720000000000 7.616410000000000 -0.930309000000000 19.000000000000000
-1.629620000000000 7.553870000000000 -0.900955000000000 20.000000000000000
-1.394620000000000 7.645300000000000 -0.794877000000000 8.000000000000000
-1.377950000000000 7.636890000000000 -0.932218000000000 23.000000000000000
-1.604560000000000 7.559240000000000 -0.900955000000000 20.000000000000000
-1.365760000000000 7.630290000000000 -0.792842000000000 22.000000000000000
-1.592820000000000 7.575490000000000 -0.776761000000000 32.000000000000000
-1.579790000000000 7.572570000000000 -0.901881000000000 23.000000000000000
-1.571190000000000 7.604390000000000 -0.779157000000000 35.000000000000000
-1.556530000000000 7.593610000000000 -0.903734000000000 14.000000000000000
-1.535930000000000 7.566920000000000 -0.774764000000000 50.000000000000000
-1.529230000000000 7.595100000000000 -0.903271000000000 12.000000000000000
-1.516510000000000 7.607360000000000 -0.778358000000000 46.000000000000000
-1.508110000000000 7.627680000000000 -0.906514000000000 12.000000000000000
-1.488420000000000 7.604800000000000 -0.777560000000000 32.000000000000000
-1.479960000000000 7.625090000000000 -0.905587000000000 12.000000000000000
-1.466370000000000 7.633400000000000 -0.779956000000000 33.000000000000000
-1.452430000000000 7.618250000000000 -0.904198000000000 20.000000000000000
-1.439570000000000 7.630400000000000 -0.779157000000000 29.000000000000000
-1.425960000000000 7.631330000000000 -0.905124000000000 20.000000000000000
-1.410870000000000 7.631710000000000 -0.778758000000000 28.000000000000000
-1.400840000000000 7.652140000000000 -0.906977000000000 23.000000000000000
-1.388400000000000 7.652010000000000 -0.780355000000000 26.000000000000000
-1.376090000000000 7.652590000000000 -0.906514000000000 30.000000000000000