# This PCD file was generated using the MATLAB® pcwrite function
# from Computer Vision Toolbox®.
# .PCD v.7 - Point Cloud Data file format
VERSION .7
FIELDS x y z intensity
SIZE 8 8 8 8
TYPE F F F F
COUNT 1 1 1 1
WIDTH 587
HEIGHT 1
VIEWPOINT 0 0 0 1 0 0 0
POINTS 587
DATA ascii
1.286790000000000 9.209619999999999 -0.915061000000000 12.000000000000000
1.289640000000000 9.218280000000000 -0.771804000000000 2.000000000000000
1.306250000000000 9.219680000000000 -1.060940000000000 16.000000000000000
1.317230000000000 9.193250000000001 -0.913885000000000 9.000000000000000
1.321810000000000 9.213730000000000 -0.771804000000000 1.000000000000000
1.334990000000000 9.191470000000001 -1.058220000000000 14.000000000000000
1.348740000000000 9.184659999999999 -0.913494000000000 9.000000000000000
1.353960000000000 9.209059999999999 -0.771804000000000 2.000000000000000
1.367070000000000 9.186750000000000 -1.058220000000000 17.000000000000000
1.379010000000000 9.168089999999999 -0.912319000000000 6.000000000000000
1.386690000000000 9.208209999999999 -0.772135000000000 6.000000000000000
1.396730000000000 9.166210000000000 -1.056410000000000 6.000000000000000
1.415250000000000 9.190759999999999 -0.915061000000000 5.000000000000000
1.415790000000000 9.183619999999999 -0.770482000000000 5.000000000000000
1.431780000000000 9.180910000000001 -1.058680000000000 4.000000000000000
1.444230000000000 9.166100000000000 -0.913102000000000 3.000000000000000
1.445620000000000 9.174939999999999 -0.770151000000000 4.000000000000000
1.459720000000000 9.160410000000001 -1.056870000000000 5.000000000000000
1.475880000000000 9.169119999999999 -0.913885000000000 4.000000000000000
1.477630000000000 9.169829999999999 -0.770151000000000 2.000000000000000
1.490410000000000 9.147420000000000 -1.055960000000000 15.000000000000000
1.498830000000000 9.108919999999999 -0.908401000000000 10.000000000000000
1.508340000000000 9.156750000000001 -0.769490000000000 2.000000000000000
1.521020000000000 9.134320000000001 -1.055050000000000 18.000000000000000
1.533250000000000 9.119339999999999 -0.909968000000000 10.000000000000000
1.540290000000000 9.151430000000000 -0.769490000000000 2.000000000000000
1.551570000000000 9.121119999999999 -1.054150000000000 20.000000000000000
1.284590000000000 9.259930000000001 -0.901815000000000 16.000000000000000
1.286320000000000 9.260479999999999 -0.757161000000000 82.000000000000000
1.566420000000000 9.121779999999999 -0.910752000000000 9.000000000000000
1.573580000000000 9.153860000000000 -0.770151000000000 5.000000000000000
1.295950000000000 9.235220000000000 -1.044400000000000 18.000000000000000
1.584750000000000 9.123480000000001 -1.055050000000000 9.000000000000000
1.312980000000000 9.227790000000001 -0.899126000000000 41.000000000000000
1.316950000000000 9.244090000000000 -0.756193000000000 12.000000000000000
1.594130000000000 9.092730000000000 -0.908401000000000 7.000000000000000
1.605520000000000 9.148310000000000 -0.770151000000000 6.000000000000000
1.325920000000000 9.214900000000000 -1.042620000000000 14.000000000000000
1.615900000000000 9.113980000000000 -1.054600000000000 6.000000000000000
1.345180000000000 9.223150000000000 -0.899126000000000 37.000000000000000
1.349210000000000 9.239440000000000 -0.756193000000000 15.000000000000000
1.627260000000000 9.094950000000001 -0.909185000000000 7.000000000000000
1.633230000000000 9.119109999999999 -0.768168000000000 6.000000000000000
1.359230000000000 9.218080000000000 -1.043510000000000 17.000000000000000
1.648410000000000 9.112190000000000 -1.055050000000000 7.000000000000000
1.377370000000000 9.218400000000001 -0.899126000000000 41.000000000000000
1.378500000000000 9.214960000000000 -0.754578000000000 16.000000000000000
1.660430000000000 9.097040000000000 -0.909968000000000 5.000000000000000
1.664330000000000 9.109430000000000 -0.767838000000000 3.000000000000000
1.389620000000000 9.201480000000000 -1.042170000000000 13.000000000000000
1.678040000000000 9.094659999999999 -1.053700000000000 17.000000000000000
1.406530000000000 9.193860000000001 -0.897206000000000 9.000000000000000
1.401600000000000 9.150980000000001 -0.749735000000000 55.000000000000000
1.688530000000000 9.071619999999999 -0.908010000000000 14.000000000000000
1.698310000000000 9.115320000000001 -0.768829000000000 2.000000000000000
1.417480000000000 9.169079999999999 -1.039050000000000 3.000000000000000
1.712720000000000 9.104369999999999 -1.055510000000000 22.000000000000000
1.439850000000000 9.196759999999999 -0.897974000000000 10.000000000000000
1.439090000000000 9.181480000000001 -0.752641000000000 54.000000000000000
1.717960000000000 9.053940000000001 -0.906835000000000 11.000000000000000
1.727150000000000 9.093669999999999 -0.767507000000000 2.000000000000000
1.454450000000000 9.195489999999999 -1.042620000000000 4.000000000000000
1.737000000000000 9.059300000000000 -1.050980000000000 26.000000000000000
1.470680000000000 9.183820000000001 -0.897206000000000 14.000000000000000
1.471770000000000 9.180330000000000 -0.752964000000000 58.000000000000000
1.751820000000000 9.059620000000001 -0.908010000000000 12.000000000000000
1.757360000000000 9.079760000000000 -0.766846000000000 5.000000000000000
1.484000000000000 9.174659999999999 -1.040840000000000 7.000000000000000
1.772430000000000 9.072680000000000 -1.053240000000000 17.000000000000000
1.502090000000000 9.174700000000000 -0.896822000000000 41.000000000000000
1.507030000000000 9.194810000000000 -0.754578000000000 19.000000000000000
1.782670000000000 9.049540000000000 -0.907618000000000 5.000000000000000
1.789050000000000 9.073570000000000 -0.766846000000000 6.000000000000000
1.512770000000000 9.149810000000000 -1.038610000000000 15.000000000000000
1.800980000000000 9.050850000000001 -1.051430000000000 11.000000000000000
1.532130000000000 9.157620000000000 -0.895670000000000 35.000000000000000
1.537800000000000 9.181630000000000 -0.753933000000000 21.000000000000000
1.811110000000000 9.027650000000000 -0.906051000000000 6.000000000000000
1.817570000000000 9.051640000000001 -0.765524000000000 7.000000000000000
1.548010000000000 9.164070000000001 -1.040840000000000 17.000000000000000
1.835720000000000 9.060090000000001 -1.053240000000000 11.000000000000000
1.564760000000000 9.156140000000001 -0.896054000000000 49.000000000000000
1.566480000000000 9.156560000000001 -0.752318000000000 21.000000000000000
1.843410000000000 9.025169999999999 -0.906443000000000 9.000000000000000
1.852350000000000 9.060860000000000 -0.766846000000000 4.000000000000000
1.289740000000000 9.244859999999999 -0.882360000000000 33.000000000000000
1.290320000000000 9.237220000000001 -0.737319000000000 32.000000000000000
1.577290000000000 9.142939999999999 -1.039050000000000 16.000000000000000
1.861720000000000 9.026380000000000 -1.050070000000000 24.000000000000000
1.295210000000000 9.167140000000000 -1.506800000000000 42.000000000000000
1.308770000000000 9.251480000000001 -1.028240000000000 56.000000000000000
1.594660000000000 9.138850000000000 -0.894902000000000 19.000000000000000
1.595000000000000 9.131399999999999 -0.750704000000000 59.000000000000000
1.871660000000000 9.003090000000000 -0.904876000000000 16.000000000000000
1.880720000000000 9.038729999999999 -0.765524000000000 3.000000000000000
1.320310000000000 9.228470000000000 -0.881230000000000 30.000000000000000
1.322550000000000 9.232659999999999 -0.737319000000000 26.000000000000000
1.611260000000000 9.149130000000000 -1.040390000000000 5.000000000000000
1.890760000000000 9.008160000000000 -1.048710000000000 29.000000000000000
1.332300000000000 9.197730000000000 -1.512580000000000 37.000000000000000
1.335920000000000 9.211440000000000 -1.024300000000000 10.000000000000000
1.625850000000000 9.129310000000000 -0.894517000000000 17.000000000000000
1.629660000000000 9.141470000000000 -0.751995000000000 69.000000000000000
1.903080000000000 8.996499999999999 -0.904876000000000 15.000000000000000
1.911430000000000 9.028210000000000 -0.765193000000000 4.000000000000000
1.354830000000000 9.239570000000001 -0.882736000000000 30.000000000000000
1.352450000000000 9.212199999999999 -0.736058000000000 24.000000000000000
1.641780000000000 9.135619999999999 -1.039500000000000 6.000000000000000
1.923860000000000 9.009280000000000 -1.049620000000000 34.000000000000000
1.366130000000000 9.204730000000000 -1.514510000000000 31.000000000000000
1.368070000000000 9.206720000000001 -1.024300000000000 12.000000000000000
1.654150000000000 9.103990000000000 -0.892597000000000 18.000000000000000
1.662270000000000 9.139650000000000 -0.752318000000000 74.000000000000000
1.932900000000000 8.990140000000000 -0.904876000000000 19.000000000000000
1.940520000000000 9.017920000000000 -0.764863000000000 8.000000000000000
1.382500000000000 9.215330000000000 -0.880854000000000 28.000000000000000
1.383590000000000 9.211610000000000 -0.736373000000000 29.000000000000000
1.672070000000000 9.130129999999999 -1.039500000000000 7.000000000000000
1.954570000000000 9.006729999999999 -1.050070000000000 47.000000000000000
1.392500000000000 9.172829999999999 -1.510010000000000 32.000000000000000
1.396200000000000 9.186410000000000 -1.022550000000000 26.000000000000000
1.680700000000000 9.078880000000000 -0.890677000000000 51.000000000000000
1.690390000000000 9.122330000000000 -0.751349000000000 29.000000000000000
1.966820000000000 8.995010000000001 -0.906051000000000 33.000000000000000
1.411240000000000 9.198890000000000 -0.879725000000000 10.000000000000000
1.412310000000000 9.195150000000000 -0.735428000000000 43.000000000000000
1.700880000000000 9.116720000000001 -1.038610000000000 19.000000000000000
1.425120000000000 9.171810000000001 -1.510650000000000 6.000000000000000
1.431930000000000 9.205050000000000 -1.025180000000000 53.000000000000000
1.718290000000000 9.104260000000000 -0.893749000000000 44.000000000000000
1.720010000000000 9.104620000000001 -0.750381000000000 40.000000000000000
1.447420000000000 9.209390000000001 -0.881230000000000 7.000000000000000
1.444760000000000 9.182029999999999 -0.734797000000000 38.000000000000000
1.730560000000000 9.090900000000000 -1.036380000000000 20.000000000000000
1.455890000000000 9.158989999999999 -1.509370000000000 6.000000000000000
1.459050000000000 9.168580000000000 -1.021680000000000 67.000000000000000
1.751570000000000 9.106030000000001 -0.894517000000000 46.000000000000000
1.753280000000000 9.106389999999999 -0.751027000000000 27.000000000000000
1.480820000000000 9.212149999999999 -0.881983000000000 12.000000000000000
1.476810000000000 9.176930000000000 -0.734797000000000 37.000000000000000
1.816270000000000 9.371850000000000 -1.742760000000000 1.000000000000000
1.763800000000000 9.092610000000001 -1.037270000000000 20.000000000000000
1.489750000000000 9.165540000000000 -1.511290000000000 7.000000000000000
1.492960000000000 9.175210000000000 -1.022990000000000 57.000000000000000
1.781040000000000 9.088130000000000 -0.893365000000000 24.000000000000000
1.784290000000000 9.096299999999999 -0.750704000000000 66.000000000000000
1.507810000000000 9.175490000000000 -0.878972000000000 24.000000000000000
1.508180000000000 9.167790000000000 -0.734482000000000 21.000000000000000
1.795530000000000 9.086390000000000 -1.037270000000000 6.000000000000000
1.517850000000000 9.136920000000000 -1.507440000000000 34.000000000000000
1.528240000000000 9.189550000000001 -1.025180000000000 18.000000000000000
1.811980000000000 9.077959999999999 -0.892981000000000 22.000000000000000
1.816040000000000 9.090020000000001 -0.750704000000000 88.000000000000000
1.541800000000000 9.181950000000001 -0.880101000000000 32.000000000000000
1.539520000000000 9.158530000000001 -0.734167000000000 23.000000000000000
1.827240000000000 9.080069999999999 -1.037270000000000 7.000000000000000
1.262360000000000 9.226210000000000 -0.862224000000000 12.000000000000000
1.544450000000000 9.100420000000000 -1.502300000000000 34.000000000000000
1.553650000000000 9.144959999999999 -1.020800000000000 19.000000000000000
1.838900000000000 9.048170000000001 -0.890677000000000 26.000000000000000
1.846960000000000 9.079720000000000 -0.750381000000000 100.000000000000000
1.568880000000000 9.157159999999999 -0.878219000000000 26.000000000000000
1.565830000000000 9.129799999999999 -0.732275000000000 23.000000000000000
1.856540000000000 9.070069999999999 -1.036830000000000 9.000000000000000
1.290530000000000 9.239950000000000 -1.008580000000000 38.000000000000000
1.290730000000000 9.206189999999999 -0.860749000000000 24.000000000000000
1.571930000000000 9.079689999999999 -1.499730000000000 38.000000000000000
1.583970000000000 9.139760000000001 -1.020800000000000 28.000000000000000
1.866470000000000 9.030320000000000 -0.889524000000000 62.000000000000000
1.877870000000000 9.077450000000001 -0.750704000000000 56.000000000000000
1.598550000000000 9.147980000000000 -0.877842000000000 12.000000000000000
1.596790000000000 9.128480000000000 -0.732591000000000 37.000000000000000
1.883370000000000 9.048290000000000 -1.035050000000000 25.000000000000000
1.312610000000000 9.187220000000000 -1.362480000000000 19.000000000000000
1.318910000000000 9.219880000000000 -1.006860000000000 8.000000000000000
1.317760000000000 9.166150000000000 -0.857430000000000 21.000000000000000
1.611170000000000 9.116910000000001 -1.506800000000000 6.000000000000000
1.617940000000000 9.145920000000000 -1.022120000000000 77.000000000000000
1.900440000000000 9.035439999999999 -0.890677000000000 70.000000000000000
1.908720000000000 9.066940000000001 -0.750381000000000 47.000000000000000
1.631370000000000 9.138140000000000 -0.877466000000000 12.000000000000000
1.631640000000000 9.130420000000001 -0.733221000000000 44.000000000000000
1.914870000000000 9.033550000000000 -1.034160000000000 33.000000000000000
1.347420000000000 9.190180000000000 -1.363650000000000 10.000000000000000
1.355010000000000 9.230720000000000 -1.008580000000000 10.000000000000000
1.354970000000000 9.196960000000001 -0.860749000000000 20.000000000000000
1.635980000000000 9.072380000000001 -1.500370000000000 8.000000000000000
1.647740000000000 9.128480000000000 -1.020800000000000 66.000000000000000
1.933640000000000 9.036540000000000 -0.891445000000000 69.000000000000000
1.934510000000000 9.032930000000000 -0.748121000000000 47.000000000000000
1.665400000000000 9.144150000000000 -0.878595000000000 13.000000000000000
1.659920000000000 9.105050000000000 -0.731645000000000 44.000000000000000
1.945550000000000 9.022930000000001 -1.033710000000000 40.000000000000000
1.378320000000000 9.177600000000000 -1.362480000000000 11.000000000000000
1.384860000000000 9.210200000000000 -1.006860000000000 11.000000000000000
1.383500000000000 9.168540000000000 -0.858537000000000 18.000000000000000
1.391080000000000 9.207860000000000 -0.718181000000000 10.000000000000000
1.670490000000000 9.082150000000000 -1.502940000000000 10.000000000000000
1.678870000000000 9.118760000000000 -1.020370000000000 71.000000000000000
1.962630000000000 9.018060000000000 -0.890293000000000 101.000000000000000
1.966880000000000 9.030020000000000 -0.748443000000000 79.000000000000000
1.696580000000000 9.134359999999999 -0.878219000000000 34.000000000000000
1.691690000000000 9.099200000000000 -0.731645000000000 25.000000000000000
1.975330000000000 9.008319999999999 -1.032820000000000 10.000000000000000
1.404330000000000 9.133609999999999 -1.356670000000000 39.000000000000000
1.409740000000000 9.158149999999999 -1.001700000000000 38.000000000000000
1.413670000000000 9.151850000000000 -0.857430000000000 15.000000000000000
1.417730000000000 9.167479999999999 -0.715413000000000 32.000000000000000
1.702180000000000 9.076260000000000 -1.502940000000000 43.000000000000000
1.709220000000000 9.105029999999999 -1.019490000000000 38.000000000000000
1.726970000000000 9.120559999999999 -0.877466000000000 30.000000000000000
1.722700000000000 9.089330000000000 -0.731330000000000 25.000000000000000
1.433740000000000 9.113020000000001 -1.354350000000000 49.000000000000000
1.446030000000000 9.180669999999999 -1.004710000000000 40.000000000000000
1.447480000000000 9.158659999999999 -0.858537000000000 14.000000000000000
1.449090000000000 9.158530000000001 -0.715105000000000 51.000000000000000
1.731630000000000 9.058630000000001 -1.501010000000000 54.000000000000000
1.738750000000000 9.087289999999999 -1.018180000000000 38.000000000000000
1.757290000000000 9.106650000000000 -0.876713000000000 35.000000000000000
1.754420000000000 9.083259999999999 -0.731330000000000 18.000000000000000
1.471200000000000 9.143120000000000 -1.359580000000000 49.000000000000000
1.476800000000000 9.167710000000000 -1.003850000000000 45.000000000000000
1.478800000000000 9.149620000000001 -0.858168000000000 18.000000000000000
1.480420000000000 9.149480000000001 -0.714798000000000 19.000000000000000
1.764000000000000 9.056400000000000 -1.501660000000000 45.000000000000000
1.771230000000000 9.085070000000000 -1.018620000000000 53.000000000000000
1.789840000000000 9.104369999999999 -0.877090000000000 17.000000000000000
1.784580000000000 9.069250000000000 -0.730699000000000 48.000000000000000
1.505680000000000 9.153549999999999 -1.361900000000000 20.000000000000000
1.512670000000000 9.186040000000000 -1.006430000000000 9.000000000000000
1.506190000000000 9.116890000000000 -0.855586000000000 23.000000000000000
1.514300000000000 9.156060000000000 -0.715720000000000 14.000000000000000
1.787150000000000 9.007590000000000 -1.494590000000000 14.000000000000000
1.804480000000000 9.086630000000000 -1.019490000000000 73.000000000000000
1.820040000000000 9.090260000000001 -0.876337000000000 16.000000000000000
1.817790000000000 9.070790000000001 -0.731330000000000 44.000000000000000
1.535000000000000 9.132630000000001 -1.359580000000000 11.000000000000000
1.540770000000000 9.157180000000000 -1.003850000000000 13.000000000000000
1.539990000000000 9.123360000000000 -0.856693000000000 22.000000000000000
1.543590000000000 9.134990000000000 -0.714490000000000 14.000000000000000
1.831090000000000 9.063219999999999 -1.504870000000000 14.000000000000000
1.833820000000000 9.068590000000000 -1.018180000000000 72.000000000000000
1.854940000000000 9.099460000000001 -0.877842000000000 19.000000000000000
1.847050000000000 9.052670000000001 -0.730384000000000 57.000000000000000
1.280770000000000 9.231199999999999 -0.989401000000000 49.000000000000000
1.285970000000000 9.256779999999999 -0.847234000000000 5.000000000000000
1.566870000000000 9.127219999999999 -1.359580000000000 12.000000000000000
1.570030000000000 9.136070000000000 -1.002130000000000 16.000000000000000
1.569120000000000 9.102230000000000 -0.855218000000000 19.000000000000000
1.576150000000000 9.133480000000000 -0.714798000000000 16.000000000000000
1.855550000000000 9.021970000000000 -1.499090000000000 14.000000000000000
1.863860000000000 9.054340000000000 -1.017300000000000 70.000000000000000
1.293610000000000 9.194060000000000 -1.247080000000000 51.000000000000000
1.875370000000000 9.038340000000000 -0.872572000000000 44.000000000000000
1.875400000000000 9.030550000000000 -0.729123000000000 34.000000000000000
1.311300000000000 9.214860000000000 -0.988134000000000 7.000000000000000
1.318830000000000 9.256180000000001 -0.847595000000000 4.000000000000000
1.591200000000000 9.078810000000001 -1.353190000000000 43.000000000000000
1.599160000000000 9.114860000000000 -1.000410000000000 47.000000000000000
1.602260000000000 9.104550000000000 -0.855955000000000 16.000000000000000
1.604560000000000 9.108280000000001 -0.713260000000000 15.000000000000000
1.887040000000000 9.015440000000000 -1.499090000000000 56.000000000000000
1.895450000000000 9.047779999999999 -1.017300000000000 47.000000000000000
1.326270000000000 9.193410000000000 -1.247610000000000 37.000000000000000
1.911910000000000 9.063240000000000 -0.875584000000000 54.000000000000000
1.907800000000000 9.035980000000000 -0.730069000000000 26.000000000000000
1.344150000000000 9.226210000000000 -0.989823000000000 9.000000000000000
1.348940000000000 9.247809999999999 -0.847234000000000 4.000000000000000
1.621300000000000 9.073480000000000 -1.353190000000000 53.000000000000000
1.629380000000000 9.109510000000000 -1.000410000000000 45.000000000000000
1.630340000000000 9.087420000000000 -0.854849000000000 16.000000000000000
1.634050000000000 9.098990000000001 -0.712952000000000 19.000000000000000
1.909530000000000 8.974370000000000 -1.493300000000000 60.000000000000000
1.922130000000000 9.025890000000000 -1.015550000000000 65.000000000000000
1.356170000000000 9.185040000000001 -1.247080000000000 40.000000000000000
1.941860000000000 9.048730000000001 -0.874831000000000 62.000000000000000
1.935150000000000 9.009779999999999 -0.728493000000000 25.000000000000000
1.375760000000000 9.217520000000000 -0.989401000000000 8.000000000000000
1.379450000000000 9.231230000000000 -0.846151000000000 4.000000000000000
1.654380000000000 9.075559999999999 -1.354350000000000 65.000000000000000
1.664020000000000 9.119420000000000 -1.002130000000000 46.000000000000000
1.662770000000000 9.085590000000000 -0.855218000000000 19.000000000000000
1.665800000000000 9.093230000000000 -0.712952000000000 18.000000000000000
1.943350000000000 8.979229999999999 -1.495230000000000 74.000000000000000
1.957000000000000 9.034670000000000 -1.017300000000000 73.000000000000000
1.387630000000000 9.176330000000000 -1.246550000000000 28.000000000000000
1.967490000000000 9.014659999999999 -0.872196000000000 53.000000000000000
1.406720000000000 9.204800000000001 -0.988556000000000 27.000000000000000
1.413470000000000 9.238170000000000 -0.847234000000000 4.000000000000000
1.691840000000000 9.100849999999999 -1.359000000000000 37.000000000000000
1.693660000000000 9.101820000000000 -1.000840000000000 22.000000000000000
1.690090000000000 9.056240000000001 -0.853005000000000 23.000000000000000
1.697530000000000 9.087360000000000 -0.712952000000000 22.000000000000000
1.979770000000000 8.995530000000000 -1.499090000000000 92.000000000000000
1.422680000000000 9.191020000000000 -1.249210000000000 7.000000000000000
1.437620000000000 9.191979999999999 -0.987712000000000 38.000000000000000
1.445100000000000 9.229240000000001 -0.846873000000000 4.000000000000000
1.720650000000000 9.079340000000000 -1.356670000000000 21.000000000000000
1.723200000000000 9.084130000000000 -0.999553000000000 23.000000000000000
1.723180000000000 9.058109999999999 -0.853742000000000 23.000000000000000
1.730740000000000 9.089210000000000 -0.713567000000000 24.000000000000000
1.452900000000000 9.174250000000001 -1.247610000000000 7.000000000000000
1.471580000000000 9.198680000000000 -0.988979000000000 36.000000000000000
1.471630000000000 9.188739999999999 -0.843623000000000 5.000000000000000
1.754580000000000 9.084940000000000 -1.358420000000000 22.000000000000000
1.754900000000000 9.078060000000001 -0.999553000000000 29.000000000000000
1.754780000000000 9.052040000000000 -0.853742000000000 23.000000000000000
1.756380000000000 9.051790000000000 -0.711107000000000 49.000000000000000
1.483640000000000 9.161300000000001 -1.246550000000000 11.000000000000000
1.499830000000000 9.169940000000000 -0.986445000000000 11.000000000000000
1.506920000000000 9.203200000000001 -0.845428000000000 5.000000000000000
1.779410000000000 9.043810000000001 -1.353190000000000 53.000000000000000
1.786580000000000 9.071880000000000 -0.999553000000000 61.000000000000000
1.784060000000000 9.034140000000001 -0.852636000000000 18.000000000000000
1.787960000000000 9.045610000000000 -0.711107000000000 100.000000000000000
1.505900000000000 9.097400000000000 -1.238560000000000 36.000000000000000
1.528920000000000 9.157069999999999 -0.985600000000000 10.000000000000000
1.534800000000000 9.182440000000000 -0.843984000000000 5.000000000000000
1.810940000000000 9.045620000000000 -1.354350000000000 80.000000000000000
1.815090000000000 9.058109999999999 -0.998693000000000 68.000000000000000
1.815570000000000 9.035980000000000 -0.853374000000000 19.000000000000000
1.818730000000000 9.043540000000000 -0.711414000000000 47.000000000000000
1.543330000000000 9.135350000000001 -1.244420000000000 40.000000000000000
1.562210000000000 9.159520000000001 -0.986445000000000 12.000000000000000
1.566840000000000 9.177030000000000 -0.843984000000000 5.000000000000000
1.844090000000000 9.047000000000001 -1.355510000000000 92.000000000000000
1.846690000000000 9.051720000000000 -0.998693000000000 61.000000000000000
1.844710000000000 9.017880000000000 -0.852267000000000 20.000000000000000
1.848690000000000 9.029320000000000 -0.710799000000000 34.000000000000000
1.288960000000000 9.244009999999999 -0.972750000000000 101.000000000000000
1.291940000000000 9.253550000000001 -0.828936000000000 18.000000000000000
1.575200000000000 9.129910000000001 -1.244420000000000 40.000000000000000
1.301460000000000 9.227639999999999 -1.169000000000000 41.000000000000000
1.595540000000000 9.161849999999999 -0.987289000000000 39.000000000000000
1.598180000000000 9.167579999999999 -0.843623000000000 5.000000000000000
1.876460000000000 9.044380000000000 -1.356090000000000 69.000000000000000
1.878280000000000 9.045220000000000 -0.998693000000000 31.000000000000000
1.874550000000000 9.003590000000001 -0.851530000000000 32.000000000000000
1.883450000000000 9.038430000000000 -0.712030000000000 37.000000000000000
1.325160000000000 9.267030000000000 -0.975653000000000 9.000000000000000
1.324230000000000 9.248980000000000 -0.828936000000000 6.000000000000000
1.607060000000000 9.124359999999999 -1.244420000000000 13.000000000000000
1.333090000000000 9.219110000000001 -1.168500000000000 6.000000000000000
1.621240000000000 9.120970000000000 -0.983489000000000 44.000000000000000
1.628080000000000 9.150180000000001 -0.842539000000000 4.000000000000000
1.904750000000000 9.022290000000000 -1.353770000000000 30.000000000000000
1.909020000000000 9.034710000000000 -0.998263000000000 28.000000000000000
1.905970000000000 8.996990000000000 -0.851530000000000 33.000000000000000
1.913340000000000 9.023999999999999 -0.711414000000000 46.000000000000000
1.352890000000000 9.230850000000000 -0.972336000000000 9.000000000000000
1.354770000000000 9.232480000000001 -0.827876000000000 7.000000000000000
1.641710000000000 9.134300000000000 -1.246550000000000 11.000000000000000
1.363520000000000 9.202620000000000 -1.167010000000000 7.000000000000000
1.656620000000000 9.134829999999999 -0.985600000000000 37.000000000000000
1.658590000000000 9.136600000000000 -0.841817000000000 5.000000000000000
1.936230000000000 9.015580000000000 -1.353770000000000 31.000000000000000
1.940540000000000 9.028000000000000 -0.998263000000000 33.000000000000000
1.939040000000000 8.998070000000000 -0.852267000000000 39.000000000000000
1.944820000000000 9.017260000000000 -0.711414000000000 55.000000000000000
1.385690000000000 9.230010000000000 -0.972750000000000 10.000000000000000
1.386990000000000 9.227690000000001 -0.827876000000000 8.000000000000000
1.673580000000000 9.128510000000000 -1.246550000000000 15.000000000000000
1.395640000000000 9.197810000000000 -1.167010000000000 10.000000000000000
1.683430000000000 9.101610000000001 -0.982644000000000 16.000000000000000
1.690470000000000 9.130750000000001 -0.841817000000000 7.000000000000000
1.960090000000000 8.973970000000000 -1.348540000000000 61.000000000000000
1.969500000000000 9.009510000000001 -0.996973000000000 80.000000000000000
1.409650000000000 9.182110000000000 -0.968189000000000 32.000000000000000
1.415160000000000 9.207290000000000 -0.826462000000000 18.000000000000000
1.698020000000000 9.091740000000000 -1.242290000000000 41.000000000000000
1.419440000000000 9.149990000000001 -1.161530000000000 23.000000000000000
1.718020000000000 9.119429999999999 -0.985178000000000 19.000000000000000
1.720000000000000 9.121180000000001 -0.841456000000000 8.000000000000000
1.446630000000000 9.208570000000000 -0.971507000000000 33.000000000000000
1.448530000000000 9.210170000000000 -0.827169000000000 18.000000000000000
1.731970000000000 9.097440000000001 -1.243890000000000 48.000000000000000
1.453230000000000 9.156739999999999 -1.163020000000000 30.000000000000000
1.746100000000000 9.093850000000000 -0.983067000000000 23.000000000000000
1.749580000000000 9.103380000000000 -0.840372000000000 9.000000000000000
1.477510000000000 9.195610000000000 -0.970677000000000 33.000000000000000
1.477510000000000 9.185380000000000 -0.825402000000000 20.000000000000000
1.759190000000000 9.067980000000000 -1.240690000000000 48.000000000000000
1.486460000000000 9.159440000000000 -1.164020000000000 35.000000000000000
1.779360000000000 9.095499999999999 -0.983911000000000 47.000000000000000
1.779810000000000 9.089399999999999 -0.839650000000000 6.000000000000000
1.509280000000000 9.198510000000001 -0.971507000000000 11.000000000000000
1.508610000000000 9.184369999999999 -0.825755000000000 8.000000000000000
1.789250000000000 9.062099999999999 -1.240690000000000 16.000000000000000
1.520720000000000 9.177960000000001 -1.167010000000000 10.000000000000000
1.807960000000000 9.081750000000000 -0.983067000000000 53.000000000000000
1.813060000000000 9.099080000000001 -0.841095000000000 6.000000000000000
1.540070000000000 9.185340000000000 -0.970677000000000 14.000000000000000
1.540660000000000 9.179040000000001 -0.825755000000000 8.000000000000000
1.819310000000000 9.048030000000001 -1.239630000000000 16.000000000000000
1.549430000000000 9.153029999999999 -1.164520000000000 10.000000000000000
1.838860000000000 9.071490000000001 -0.982644000000000 50.000000000000000
1.844010000000000 9.088789999999999 -0.840733000000000 5.000000000000000
1.272640000000000 9.240110000000000 -0.954016000000000 44.000000000000000
1.277190000000000 9.261210000000000 -0.811343000000000 8.000000000000000
1.570100000000000 9.168139999999999 -0.969433000000000 15.000000000000000
1.571340000000000 9.165760000000001 -0.825048000000000 10.000000000000000
1.851680000000000 9.045500000000001 -1.240160000000000 17.000000000000000
1.285650000000000 9.203830000000000 -1.116370000000000 36.000000000000000
1.579350000000000 9.135830000000000 -1.163020000000000 13.000000000000000
1.875330000000000 9.088390000000000 -0.985178000000000 25.000000000000000
1.875730000000000 9.082300000000000 -0.840733000000000 11.000000000000000
1.306560000000000 9.247430000000000 -0.955237000000000 10.000000000000000
1.301140000000000 9.197509999999999 -0.806155000000000 7.000000000000000
1.602100000000000 9.162610000000001 -0.969433000000000 37.000000000000000
1.603330000000000 9.160209999999999 -0.825048000000000 23.000000000000000
1.882430000000000 9.035110000000000 -1.239630000000000 55.000000000000000
1.321150000000000 9.222870000000000 -1.119230000000000 47.000000000000000
1.607780000000000 9.110720000000001 -1.160530000000000 41.000000000000000
1.903780000000000 9.066210000000000 -0.983489000000000 28.000000000000000
1.905780000000000 9.067900000000000 -0.840011000000000 15.000000000000000
1.335970000000000 9.223120000000000 -0.953202000000000 9.000000000000000
1.337240000000000 9.220520000000000 -0.808576000000000 5.000000000000000
1.631280000000000 9.141290000000000 -0.967775000000000 40.000000000000000
1.635990000000000 9.158480000000001 -0.825402000000000 21.000000000000000
1.911490000000000 9.016840000000000 -1.238030000000000 76.000000000000000
1.353340000000000 9.218200000000000 -1.119230000000000 45.000000000000000
1.640980000000000 9.112860000000000 -1.161530000000000 46.000000000000000
1.932920000000000 9.047840000000001 -0.982222000000000 30.000000000000000
1.936590000000000 9.057300000000000 -0.839650000000000 16.000000000000000
1.365820000000000 9.202660000000000 -0.951574000000000 8.000000000000000
1.367660000000000 9.203970000000000 -0.807539000000000 5.000000000000000
1.662460000000000 9.131629999999999 -0.967360000000000 41.000000000000000
1.666520000000000 9.144880000000001 -0.824695000000000 20.000000000000000
1.943790000000000 9.013990000000000 -1.238560000000000 97.000000000000000
1.384910000000000 9.209490000000001 -1.118760000000000 51.000000000000000
1.672780000000000 9.107080000000000 -1.161530000000000 44.000000000000000
1.961110000000000 9.025490000000000 -0.980533000000000 81.000000000000000
1.969040000000000 9.054370000000000 -0.840011000000000 14.000000000000000
1.395550000000000 9.182100000000000 -0.949946000000000 27.000000000000000
1.400380000000000 9.203080000000000 -0.807885000000000 10.000000000000000
1.692010000000000 9.122150000000000 -0.966946000000000 20.000000000000000
1.696840000000000 9.139300000000000 -0.824695000000000 18.000000000000000
1.971970000000000 8.999750000000001 -1.237500000000000 100.000000000000000
1.413640000000000 9.193080000000000 -1.117330000000000 9.000000000000000
1.705160000000000 9.113189999999999 -1.163020000000000 14.000000000000000
1.425990000000000 9.177420000000000 -0.949946000000000 29.000000000000000
1.429050000000000 9.186570000000000 -0.806847000000000 9.000000000000000
1.726060000000000 9.127920000000000 -0.968189000000000 20.000000000000000
1.724290000000000 9.109830000000001 -0.822574000000000 17.000000000000000
1.446330000000000 9.192010000000000 -1.117800000000000 12.000000000000000
1.739190000000000 9.118869999999999 -1.164520000000000 18.000000000000000
1.459260000000000 9.180249999999999 -0.950760000000000 30.000000000000000
1.459860000000000 9.173650000000000 -0.806155000000000 9.000000000000000
1.755650000000000 9.110120000000000 -0.966946000000000 23.000000000000000
1.758340000000000 9.115500000000001 -0.823634000000000 20.000000000000000
1.477150000000000 9.179060000000000 -1.116850000000000 15.000000000000000
1.765710000000000 9.085470000000001 -1.161030000000000 19.000000000000000
1.490660000000000 9.171170000000000 -0.950353000000000 9.000000000000000
1.496990000000000 9.199970000000000 -0.808922000000000 7.000000000000000
1.787440000000000 9.103940000000000 -0.966946000000000 45.000000000000000
1.787070000000000 9.093669999999999 -0.822220000000000 26.000000000000000
1.502090000000000 9.130739999999999 -1.111600000000000 42.000000000000000
1.791250000000000 9.048109999999999 -1.157050000000000 46.000000000000000
1.521360000000000 9.158060000000001 -0.949539000000000 10.000000000000000
1.519940000000000 9.139650000000000 -0.804080000000000 8.000000000000000
1.816870000000000 9.085940000000001 -0.965702000000000 47.000000000000000
1.820370000000000 9.095190000000001 -0.822927000000000 24.000000000000000
1.537900000000000 9.148940000000000 -1.114460000000000 52.000000000000000
1.826740000000000 9.061260000000001 -1.159540000000000 50.000000000000000
1.551320000000000 9.140919999999999 -0.948318000000000 12.000000000000000
1.553170000000000 9.142150000000001 -0.804772000000000 7.000000000000000
1.846190000000000 9.067850000000000 -0.964458000000000 52.000000000000000
1.849720000000000 9.077059999999999 -0.821867000000000 23.000000000000000
1.284300000000000 9.248360000000000 -0.936906000000000 20.000000000000000
1.281710000000000 9.217879999999999 -0.789673000000000 29.000000000000000
1.570500000000000 9.147430000000000 -1.114940000000000 51.000000000000000
1.856760000000000 9.047050000000000 -1.158540000000000 53.000000000000000
1.299890000000000 9.253850000000000 -1.089480000000000 15.000000000000000
1.583220000000000 9.135450000000001 -0.948318000000000 33.000000000000000
1.580310000000000 9.109190000000000 -0.802351000000000 12.000000000000000
1.885130000000000 9.104530000000000 -0.969019000000000 27.000000000000000
1.880620000000000 9.074780000000001 -0.822220000000000 25.000000000000000
1.316090000000000 9.251930000000000 -0.937704000000000 13.000000000000000
1.317890000000000 9.253030000000001 -0.793055000000000 10.000000000000000
1.603570000000000 9.157819999999999 -1.116850000000000 15.000000000000000
1.887560000000000 9.044729999999999 -1.159040000000000 28.000000000000000
1.329430000000000 9.241630000000001 -1.088560000000000 14.000000000000000
1.610740000000000 9.114480000000000 -0.946690000000000 35.000000000000000
1.616750000000000 9.139210000000000 -0.805464000000000 10.000000000000000
1.907050000000000 9.051180000000000 -0.964043000000000 29.000000000000000
1.912280000000000 9.068160000000001 -0.822220000000000 28.000000000000000
1.344930000000000 9.223649999999999 -0.935308000000000 14.000000000000000
1.346730000000000 9.224710000000000 -0.791026000000000 9.000000000000000
1.632730000000000 9.136530000000000 -1.114940000000000 18.000000000000000
1.915830000000000 9.022550000000001 -1.157050000000000 26.000000000000000
1.361110000000000 9.233000000000001 -1.088090000000000 12.000000000000000
1.644660000000000 9.120550000000000 -0.947911000000000 35.000000000000000
1.647940000000000 9.129590000000000 -0.805118000000000 10.000000000000000
1.941140000000000 9.056130000000000 -0.965287000000000 31.000000000000000
1.940580000000000 9.045850000000000 -0.820806000000000 35.000000000000000
1.374180000000000 9.199220000000000 -0.933311000000000 11.000000000000000
1.377740000000000 9.212070000000001 -0.790349000000000 11.000000000000000
1.660340000000000 9.107329999999999 -1.112080000000000 17.000000000000000
1.947310000000000 9.015810000000000 -1.157050000000000 25.000000000000000
1.393330000000000 9.228190000000000 -1.088090000000000 8.000000000000000
1.671450000000000 9.087360000000000 -0.945062000000000 16.000000000000000
1.679800000000000 9.123780000000000 -0.805118000000000 8.000000000000000
1.970190000000000 9.037640000000000 -0.964043000000000 56.000000000000000
1.408690000000000 9.210110000000000 -0.934909000000000 9.000000000000000
1.405660000000000 9.179630000000000 -0.787982000000000 24.000000000000000
1.688490000000000 9.081960000000000 -1.109690000000000 50.000000000000000
1.973660000000000 8.985700000000000 -1.154060000000000 13.000000000000000
1.422500000000000 9.203640000000000 -1.085780000000000 5.000000000000000
1.700960000000000 9.069730000000000 -0.943841000000000 21.000000000000000
1.705750000000000 9.086530000000000 -0.802351000000000 9.000000000000000
1.437130000000000 9.181540000000000 -0.932513000000000 10.000000000000000
1.442020000000000 9.202230000000000 -0.790349000000000 19.000000000000000
1.724620000000000 9.099420000000000 -1.112550000000000 55.000000000000000
1.455860000000000 9.206469999999999 -1.086700000000000 5.000000000000000
1.735600000000000 9.079380000000000 -0.945469000000000 17.000000000000000
1.732970000000000 9.057040000000001 -0.800276000000000 8.000000000000000
1.472320000000000 9.196120000000001 -0.934509000000000 10.000000000000000
1.473500000000000 9.193199999999999 -0.790011000000000 21.000000000000000
1.753360000000000 9.077750000000000 -1.110650000000000 58.000000000000000
1.483540000000000 9.173870000000001 -1.083460000000000 6.000000000000000
1.764240000000000 9.057639999999999 -0.943841000000000 39.000000000000000
1.768380000000000 9.070489999999999 -0.802005000000000 11.000000000000000
1.503130000000000 9.183070000000001 -0.933711000000000 12.000000000000000
1.506870000000000 9.195869999999999 -0.790687000000000 10.000000000000000
1.783500000000000 9.063780000000000 -1.109690000000000 33.000000000000000
1.514260000000000 9.160800000000000 -1.082540000000000 13.000000000000000
1.797390000000000 9.059229999999999 -0.944655000000000 43.000000000000000
1.802360000000000 9.075989999999999 -0.803043000000000 11.000000000000000
1.531230000000000 9.154210000000001 -0.931314000000000 12.000000000000000
1.538960000000000 9.190560000000000 -0.790687000000000 11.000000000000000
1.815910000000000 9.061389999999999 -1.110170000000000 34.000000000000000
1.548210000000000 9.167210000000001 -1.083930000000000 13.000000000000000
1.828210000000000 9.048999999999999 -0.944248000000000 43.000000000000000
1.831660000000000 9.057919999999999 -0.802005000000000 11.000000000000000
1.561840000000000 9.140960000000000 -0.930516000000000 14.000000000000000
1.564990000000000 9.149770000000000 -0.787644000000000 13.000000000000000
1.846730000000000 9.051110000000000 -1.109690000000000 42.000000000000000
1.579530000000000 9.157840000000000 -1.083460000000000 11.000000000000000
1.858990000000000 9.038670000000000 -0.943841000000000 28.000000000000000
1.854430000000000 9.008540000000000 -0.798201000000000 9.000000000000000
1.595100000000000 9.143300000000000 -0.931314000000000 11.000000000000000
1.596910000000000 9.144250000000000 -0.787644000000000 26.000000000000000
1.875890000000000 9.032940000000000 -1.108260000000000 64.000000000000000
1.613550000000000 9.164000000000000 -1.084850000000000 6.000000000000000
1.893790000000000 9.047700000000001 -0.945469000000000 25.000000000000000
1.889950000000000 9.021509999999999 -0.799930000000000 9.000000000000000
1.626310000000000 9.133749999999999 -0.930915000000000 12.000000000000000
1.628820000000000 9.138620000000000 -0.787644000000000 26.000000000000000
1.909880000000000 9.038000000000000 -1.109690000000000 70.000000000000000
1.640610000000000 9.130940000000001 -1.081610000000000 6.000000000000000
1.919560000000000 9.013790000000000 -0.942620000000000 28.000000000000000
1.922260000000000 9.018760000000000 -0.800276000000000 9.000000000000000
1.656050000000000 9.116270000000000 -0.929717000000000 12.000000000000000
1.658570000000000 9.121119999999999 -0.786629000000000 33.000000000000000
1.942250000000000 9.035159999999999 -1.110170000000000 83.000000000000000
1.672480000000000 9.125159999999999 -1.081610000000000 7.000000000000000
1.957750000000000 9.038150000000000 -0.945876000000000 101.000000000000000
1.688590000000000 9.114350000000000 -0.930116000000000 12.000000000000000
1.694760000000000 9.138780000000001 -0.788658000000000 23.000000000000000
1.972930000000000 9.024440000000000 -1.109690000000000 78.000000000000000
1.704910000000000 9.131280000000000 -1.083000000000000 16.000000000000000
1.721020000000000 9.120440000000000 -0.931314000000000 14.000000000000000
1.719880000000000 9.105700000000001 -0.786291000000000 24.000000000000000
1.734550000000000 9.113560000000000 -1.081610000000000 18.000000000000000
1.749080000000000 9.094830000000000 -0.929318000000000 12.000000000000000
1.750900000000000 9.095730000000000 -0.785953000000000 14.000000000000000
1.765590000000000 9.103550000000000 -1.081150000000000 17.000000000000000
1.777760000000000 9.073050000000000 -0.927720000000000 15.000000000000000
1.778810000000000 9.070000000000000 -0.784262000000000 34.000000000000000
1.801980000000000 9.120720000000000 -1.083930000000000 7.000000000000000
1.810980000000000 9.074590000000001 -0.928519000000000 15.000000000000000
1.813580000000000 9.079370000000001 -0.785615000000000 34.000000000000000
1.832240000000000 9.106590000000001 -1.083000000000000 7.000000000000000
1.843430000000000 9.072110000000000 -0.928918000000000 16.000000000000000
1.846050000000000 9.076890000000001 -0.785953000000000 37.000000000000000
1.860030000000000 9.080670000000000 -1.080680000000000 8.000000000000000
1.869480000000000 9.046460000000000 -0.926921000000000 15.000000000000000
1.868880000000000 9.035589999999999 -0.782909000000000 27.000000000000000
1.883650000000000 9.043340000000001 -1.076980000000000 25.000000000000000
1.897770000000000 9.024300000000000 -0.925324000000000 15.000000000000000
1.901230000000000 9.032920000000001 -0.783247000000000 27.000000000000000
1.916860000000000 9.044480000000000 -1.077900000000000 28.000000000000000
1.933420000000000 9.037080000000000 -0.927321000000000 15.000000000000000
1.935250000000000 9.037920000000000 -0.784262000000000 21.000000000000000
1.945070000000000 9.022200000000000 -1.076050000000000 26.000000000000000
1.962540000000000 9.026730000000001 -0.926921000000000 48.000000000000000
1.969450000000000 9.050920000000000 -0.785953000000000 23.000000000000000