# This PCD file was generated using the MATLAB® pcwrite function
# from Computer Vision Toolbox®.
# .PCD v.7 - Point Cloud Data file format
VERSION .7
FIELDS x y z intensity
SIZE 8 8 8 8
TYPE F F F F
COUNT 1 1 1 1
WIDTH 299
HEIGHT 1
VIEWPOINT 0 0 0 1 0 0 0
POINTS 299
DATA ascii
0.619593000000000 5.451630000000000 -1.140440000000000 5.000000000000000
0.462371000000000 5.485560000000000 -1.005000000000000 9.000000000000000
0.632237000000000 5.394980000000000 -1.129050000000000 5.000000000000000
0.479451000000000 5.460400000000000 -1.000690000000000 11.000000000000000
0.651062000000000 5.400630000000000 -1.130670000000000 4.000000000000000
0.498271000000000 5.466610000000000 -1.002120000000000 2.000000000000000
0.665569000000000 5.363350000000000 -1.123350000000000 6.000000000000000
0.517720000000000 5.468760000000000 -1.002840000000000 1.000000000000000
0.687757000000000 5.388190000000000 -1.129050000000000 31.000000000000000
0.536807000000000 5.466920000000000 -1.002840000000000 1.000000000000000
0.702996000000000 5.358570000000000 -1.123350000000000 30.000000000000000
0.555090000000000 5.457180000000000 -1.001410000000000 1.000000000000000
0.716990000000000 5.321150000000000 -1.116020000000000 30.000000000000000
0.393333000000000 5.525140000000000 -0.901507000000000 13.000000000000000
0.571665000000000 5.431730000000000 -0.997095000000000 1.000000000000000
0.734486000000000 5.310860000000000 -1.114390000000000 33.000000000000000
0.411146000000000 5.504040000000000 -0.898294000000000 0.000000000000000
0.591898000000000 5.441440000000000 -0.999250000000000 11.000000000000000
0.755771000000000 5.327650000000000 -1.118460000000000 28.000000000000000
0.430049000000000 5.498640000000000 -0.897652000000000 0.000000000000000
0.609571000000000 5.427610000000000 -0.997095000000000 11.000000000000000
0.449561000000000 5.501040000000000 -0.898294000000000 0.000000000000000
0.623497000000000 5.390380000000000 -0.990630000000000 13.000000000000000
0.787406000000000 5.291390000000000 -1.111950000000000 5.000000000000000
0.465124000000000 5.468050000000000 -0.893154000000000 0.000000000000000
0.638113000000000 5.360930000000000 -0.985601000000000 12.000000000000000
0.807641000000000 5.300230000000000 -1.114390000000000 5.000000000000000
0.484208000000000 5.466390000000000 -0.893154000000000 0.000000000000000
0.661593000000000 5.389800000000000 -0.991348000000000 10.000000000000000
0.828551000000000 5.312850000000000 -1.117650000000000 5.000000000000000
0.502924000000000 5.460730000000000 -0.892511000000000 3.000000000000000
0.845858000000000 5.302200000000000 -1.116020000000000 7.000000000000000
0.523110000000000 5.470740000000000 -0.894439000000000 3.000000000000000
0.694138000000000 5.346030000000000 -0.984165000000000 2.000000000000000
0.862469000000000 5.287610000000000 -1.113580000000000 37.000000000000000
0.537529000000000 5.421730000000000 -0.886728000000000 2.000000000000000
0.714460000000000 5.363200000000000 -0.987756000000000 2.000000000000000
0.875496000000000 5.257680000000000 -1.107880000000000 32.000000000000000
0.555103000000000 5.415990000000000 -0.886086000000000 3.000000000000000
0.730511000000000 5.341180000000000 -0.984165000000000 2.000000000000000
0.402987000000000 5.525930000000000 -0.813424000000000 11.000000000000000
0.893186000000000 5.250740000000000 -1.107070000000000 32.000000000000000
0.573589000000000 5.410100000000000 -0.885443000000000 2.000000000000000
0.747510000000000 5.326900000000000 -0.982009000000000 2.000000000000000
0.420163000000000 5.496870000000000 -0.809356000000000 6.000000000000000
0.911510000000000 5.247590000000000 -1.107070000000000 32.000000000000000
0.592470000000000 5.408060000000000 -0.885443000000000 1.000000000000000
0.767221000000000 5.332050000000000 -0.983446000000000 8.000000000000000
0.438717000000000 5.487480000000000 -0.808194000000000 6.000000000000000
0.926403000000000 5.225090000000000 -1.103000000000000 32.000000000000000
0.610900000000000 5.402040000000000 -0.884801000000000 1.000000000000000
0.783532000000000 5.313770000000000 -0.980573000000000 7.000000000000000
0.458198000000000 5.489860000000000 -0.808775000000000 6.000000000000000
0.627009000000000 5.376340000000000 -0.880945000000000 1.000000000000000
0.800313000000000 5.299330000000000 -0.978418000000000 8.000000000000000
0.477359000000000 5.488230000000000 -0.808775000000000 6.000000000000000
0.965701000000000 5.233900000000000 -1.106250000000000 5.000000000000000
0.646243000000000 5.378040000000000 -0.881588000000000 1.000000000000000
0.818205000000000 5.292620000000000 -0.977699000000000 7.000000000000000
0.495800000000000 5.478640000000000 -0.807613000000000 2.000000000000000
0.980344000000000 5.211250000000000 -1.102180000000000 5.000000000000000
0.664528000000000 5.371830000000000 -0.880945000000000 2.000000000000000
0.837904000000000 5.297500000000000 -0.979136000000000 9.000000000000000
0.995579000000000 5.192420000000000 -1.098930000000000 5.000000000000000
0.683275000000000 5.369480000000000 -0.880945000000000 2.000000000000000
0.853878000000000 5.279010000000000 -0.976263000000000 5.000000000000000
0.532883000000000 5.463230000000000 -0.805870000000000 1.000000000000000
1.012950000000000 5.185070000000000 -1.098110000000000 6.000000000000000
0.698941000000000 5.343580000000000 -0.877090000000000 2.000000000000000
0.872300000000000 5.275990000000000 -0.976263000000000 6.000000000000000
0.552746000000000 5.469210000000000 -0.807032000000000 1.000000000000000
1.034100000000000 5.196860000000000 -1.101370000000000 73.000000000000000
0.717590000000000 5.341100000000000 -0.877090000000000 2.000000000000000
0.389811000000000 5.520560000000000 -0.743350000000000 7.000000000000000
0.887172000000000 5.257550000000000 -0.973389000000000 7.000000000000000
0.566769000000000 5.427990000000000 -0.801222000000000 1.000000000000000
1.104940000000000 5.458260000000000 -1.157540000000000 21.000000000000000
0.735297000000000 5.338690000000000 -0.877090000000000 2.000000000000000
0.408993000000000 5.531090000000000 -0.744947000000000 2.000000000000000
0.903266000000000 5.246820000000000 -0.971952000000000 7.000000000000000
0.586886000000000 5.445750000000000 -0.804127000000000 9.000000000000000
1.124780000000000 5.458200000000000 -1.158350000000000 16.000000000000000
0.754481000000000 5.340000000000000 -0.877733000000000 2.000000000000000
0.426767000000000 5.509870000000000 -0.742285000000000 0.000000000000000
0.922491000000000 5.243480000000000 -0.971952000000000 8.000000000000000
0.603334000000000 5.412100000000000 -0.799479000000000 6.000000000000000
0.770286000000000 5.317800000000000 -0.874520000000000 2.000000000000000
0.445997000000000 5.508350000000000 -0.742285000000000 1.000000000000000
0.940788000000000 5.240230000000000 -0.971952000000000 5.000000000000000
0.619962000000000 5.390300000000000 -0.796574000000000 6.000000000000000
0.790583000000000 5.326800000000000 -0.876447000000000 3.000000000000000
0.465222000000000 5.506760000000000 -0.742285000000000 1.000000000000000
0.955530000000000 5.217560000000000 -0.968360000000000 6.000000000000000
0.638308000000000 5.384180000000000 -0.795993000000000 5.000000000000000
0.805613000000000 5.300580000000000 -0.872592000000000 3.000000000000000
0.483399000000000 5.493250000000000 -0.740687000000000 1.000000000000000
0.975182000000000 5.221930000000000 -0.969797000000000 8.000000000000000
0.659496000000000 5.401560000000000 -0.798898000000000 5.000000000000000
0.824110000000000 5.297740000000000 -0.872592000000000 3.000000000000000
0.502932000000000 5.495480000000000 -0.741220000000000 7.000000000000000
0.992668000000000 5.214620000000000 -0.969079000000000 7.000000000000000
0.841978000000000 5.290930000000000 -0.871950000000000 3.000000000000000
0.520237000000000 5.473960000000000 -0.738557000000000 6.000000000000000
1.010860000000000 5.211130000000000 -0.969079000000000 5.000000000000000
0.693640000000000 5.369350000000000 -0.794831000000000 1.000000000000000
0.860441000000000 5.287960000000000 -0.871950000000000 1.000000000000000
0.534286000000000 5.420820000000000 -0.731635000000000 5.000000000000000
1.021420000000000 5.168960000000000 -0.961895000000000 22.000000000000000
0.710296000000000 5.351200000000000 -0.792507000000000 1.000000000000000
0.869827000000000 5.230400000000000 -0.862954000000000 1.000000000000000
0.552802000000000 5.414980000000000 -0.731102000000000 6.000000000000000
0.394177000000000 5.542450000000000 -0.697017000000000 6.000000000000000
0.730039000000000 5.356530000000000 -0.793669000000000 1.000000000000000
0.894031000000000 5.262360000000000 -0.868737000000000 0.000000000000000
0.575448000000000 5.448500000000000 -0.735895000000000 6.000000000000000
0.411749000000000 5.517300000000000 -0.694030000000000 2.000000000000000
0.745444000000000 5.330430000000000 -0.790183000000000 1.000000000000000
0.910128000000000 5.251590000000000 -0.867452000000000 0.000000000000000
0.431277000000000 5.531730000000000 -0.696022000000000 2.000000000000000
0.764238000000000 5.335770000000000 -0.791345000000000 6.000000000000000
0.925703000000000 5.232830000000000 -0.864882000000000 2.000000000000000
0.607646000000000 5.401120000000000 -0.730037000000000 1.000000000000000
0.448649000000000 5.506450000000000 -0.693034000000000 2.000000000000000
0.783434000000000 5.336980000000000 -0.791926000000000 6.000000000000000
0.946067000000000 5.241220000000000 -0.866809000000000 6.000000000000000
0.628324000000000 5.414720000000000 -0.732167000000000 1.000000000000000
0.467868000000000 5.504850000000000 -0.693034000000000 2.000000000000000
0.799705000000000 5.318560000000000 -0.789602000000000 5.000000000000000
0.962212000000000 5.226240000000000 -0.864882000000000 6.000000000000000
0.644396000000000 5.388870000000000 -0.728972000000000 1.000000000000000
0.486031000000000 5.491330000000000 -0.691541000000000 2.000000000000000
0.815255000000000 5.296180000000000 -0.786697000000000 5.000000000000000
0.978264000000000 5.211210000000000 -0.862954000000000 8.000000000000000
0.664657000000000 5.398390000000000 -0.730570000000000 1.000000000000000
0.501559000000000 5.450080000000000 -0.686562000000000 9.000000000000000
0.832505000000000 5.285480000000000 -0.785535000000000 5.000000000000000
0.995706000000000 5.203880000000000 -0.862311000000000 7.000000000000000
0.685987000000000 5.415700000000000 -0.733232000000000 7.000000000000000
0.523600000000000 5.479900000000000 -0.690545000000000 10.000000000000000
0.852838000000000 5.294270000000000 -0.787278000000000 2.000000000000000
1.013110000000000 5.196500000000000 -0.861669000000000 9.000000000000000
0.702328000000000 5.393620000000000 -0.730570000000000 7.000000000000000
0.541160000000000 5.462240000000000 -0.688554000000000 7.000000000000000
0.867455000000000 5.267830000000000 -0.783792000000000 2.000000000000000
1.025860000000000 5.165830000000000 -0.857171000000000 20.000000000000000
0.715895000000000 5.351840000000000 -0.725245000000000 7.000000000000000
0.384310000000000 5.506930000000000 -1.587310000000000 56.000000000000000
0.386933000000000 5.530620000000000 -0.666006000000000 4.000000000000000
0.558198000000000 5.440580000000000 -0.686064000000000 7.000000000000000
0.885181000000000 5.260860000000000 -0.783211000000000 2.000000000000000
0.732414000000000 5.333600000000000 -0.723115000000000 7.000000000000000
0.400439000000000 5.463380000000000 -1.575150000000000 11.000000000000000
0.405363000000000 5.517350000000000 -0.664575000000000 4.000000000000000
0.578024000000000 5.446490000000000 -0.687060000000000 8.000000000000000
0.902870000000000 5.253840000000000 -0.782630000000000 2.000000000000000
0.750475000000000 5.327090000000000 -0.722583000000000 6.000000000000000
0.420096000000000 5.469620000000000 -1.577360000000000 8.000000000000000
0.426144000000000 5.535710000000000 -0.666960000000000 4.000000000000000
0.596514000000000 5.448490000000000 -0.687558000000000 4.000000000000000
0.923020000000000 5.266410000000000 -0.784954000000000 2.000000000000000
0.439153000000000 5.479690000000000 -1.580680000000000 3.000000000000000
0.443227000000000 5.518430000000000 -0.665052000000000 4.000000000000000
0.613301000000000 5.426650000000000 -0.685069000000000 4.000000000000000
0.940004000000000 5.255370000000000 -0.783792000000000 6.000000000000000
0.789036000000000 5.337540000000000 -0.724713000000000 1.000000000000000
0.455714000000000 5.447480000000000 -1.571830000000000 2.000000000000000
0.462487000000000 5.516850000000000 -0.665052000000000 4.000000000000000
0.630401000000000 5.408710000000000 -0.683077000000000 4.000000000000000
0.955501000000000 5.236480000000000 -0.781468000000000 6.000000000000000
0.802916000000000 5.303400000000000 -0.720453000000000 1.000000000000000
0.473725000000000 5.434360000000000 -1.568520000000000 3.000000000000000
0.481050000000000 5.507290000000000 -0.664098000000000 3.000000000000000
0.648804000000000 5.402540000000000 -0.682579000000000 4.000000000000000
0.973050000000000 5.229220000000000 -0.780887000000000 7.000000000000000
0.820816000000000 5.296640000000000 -0.719920000000000 1.000000000000000
0.491303000000000 5.417360000000000 -1.564100000000000 22.000000000000000
0.500271000000000 5.505570000000000 -0.664098000000000 3.000000000000000
0.663763000000000 5.368730000000000 -0.678596000000000 5.000000000000000
0.989822000000000 5.218020000000000 -0.779725000000000 7.000000000000000
0.841783000000000 5.309410000000000 -0.722050000000000 1.000000000000000
0.508407000000000 5.396480000000000 -1.558570000000000 24.000000000000000
0.518367000000000 5.491930000000000 -0.662667000000000 4.000000000000000
0.684001000000000 5.378190000000000 -0.680090000000000 9.000000000000000
1.005780000000000 5.202870000000000 -0.777982000000000 8.000000000000000
0.859042000000000 5.298610000000000 -0.720985000000000 8.000000000000000
0.528737000000000 5.409980000000000 -1.562990000000000 17.000000000000000
0.534438000000000 5.458470000000000 -0.658850000000000 7.000000000000000
0.701742000000000 5.367900000000000 -0.679094000000000 9.000000000000000
0.373038000000000 5.563500000000000 -1.345370000000000 9.000000000000000
1.023930000000000 5.199330000000000 -0.777982000000000 13.000000000000000
0.871051000000000 5.256470000000000 -0.715660000000000 6.000000000000000
0.547618000000000 5.408100000000000 -1.562990000000000 15.000000000000000
0.553488000000000 5.456570000000000 -0.658850000000000 10.000000000000000
0.717305000000000 5.341810000000000 -0.676107000000000 10.000000000000000
0.391088000000000 5.542770000000000 -1.340680000000000 100.000000000000000
0.888733000000000 5.249490000000000 -0.715128000000000 6.000000000000000
0.565291000000000 5.394680000000000 -1.559670000000000 6.000000000000000
0.574190000000000 5.470400000000000 -0.660758000000000 20.000000000000000
0.734864000000000 5.331410000000000 -0.675111000000000 7.000000000000000
0.408997000000000 5.521980000000000 -1.335990000000000 8.000000000000000
0.913130000000000 5.281510000000000 -0.719920000000000 8.000000000000000
0.581634000000000 5.369750000000000 -1.553040000000000 2.000000000000000
0.756803000000000 5.352400000000000 -0.678098000000000 8.000000000000000
0.425864000000000 5.489510000000000 -1.328480000000000 6.000000000000000
0.926737000000000 5.250960000000000 -0.716193000000000 7.000000000000000
0.599093000000000 5.356220000000000 -1.549730000000000 2.000000000000000
0.775482000000000 5.349720000000000 -0.678098000000000 8.000000000000000
0.444709000000000 5.484110000000000 -1.327540000000000 6.000000000000000
0.953493000000000 5.294520000000000 -0.722583000000000 1.000000000000000
0.616904000000000 5.346460000000000 -1.547510000000000 2.000000000000000
0.790070000000000 5.319500000000000 -0.674613000000000 7.000000000000000
0.462866000000000 5.470900000000000 -1.324730000000000 6.000000000000000
0.961026000000000 5.236740000000000 -0.715128000000000 1.000000000000000
0.635990000000000 5.355840000000000 -1.550830000000000 2.000000000000000
0.808302000000000 5.320780000000000 -0.675111000000000 8.000000000000000
0.480325000000000 5.461590000000000 -1.322850000000000 14.000000000000000
0.980029000000000 5.237250000000000 -0.715660000000000 1.000000000000000
0.652349000000000 5.334500000000000 -1.545300000000000 14.000000000000000
0.826870000000000 5.317920000000000 -0.675111000000000 10.000000000000000
0.498678000000000 5.452130000000000 -1.320980000000000 26.000000000000000
0.996819000000000 5.226010000000000 -0.714595000000000 1.000000000000000
0.670966000000000 5.332200000000000 -1.545300000000000 15.000000000000000
0.841063000000000 5.287570000000000 -0.671626000000000 15.000000000000000
0.515868000000000 5.431010000000000 -1.316290000000000 31.000000000000000
1.008250000000000 5.187470000000000 -0.709803000000000 3.000000000000000
0.687601000000000 5.314570000000000 -1.540880000000000 14.000000000000000
0.857604000000000 5.272840000000000 -0.670133000000000 18.000000000000000
0.535204000000000 5.433040000000000 -1.317220000000000 23.000000000000000
1.030200000000000 5.203360000000000 -0.712465000000000 15.000000000000000
0.709188000000000 5.335000000000000 -1.547510000000000 16.000000000000000
0.877306000000000 5.277650000000000 -0.671128000000000 23.000000000000000
0.552981000000000 5.419530000000000 -1.314410000000000 21.000000000000000
0.723647000000000 5.302020000000000 -1.538670000000000 15.000000000000000
0.894394000000000 5.266730000000000 -0.670133000000000 26.000000000000000
0.564956000000000 5.351830000000000 -1.298460000000000 7.000000000000000
0.737885000000000 5.269010000000000 -1.529830000000000 2.000000000000000
0.911854000000000 5.263730000000000 -0.670133000000000 14.000000000000000
0.587331000000000 5.392450000000000 -1.308780000000000 6.000000000000000
0.760266000000000 5.300780000000000 -1.539780000000000 4.000000000000000
0.931141000000000 5.260360000000000 -0.670133000000000 16.000000000000000
0.607092000000000 5.390260000000000 -1.308780000000000 5.000000000000000
0.778570000000000 5.290350000000000 -1.537570000000000 2.000000000000000
0.951121000000000 5.260810000000000 -0.670630000000000 14.000000000000000
0.628192000000000 5.399590000000000 -1.311590000000000 6.000000000000000
0.794392000000000 5.276340000000000 -1.534250000000000 2.000000000000000
0.964770000000000 5.242190000000000 -0.668639000000000 17.000000000000000
0.643306000000000 5.382140000000000 -1.307840000000000 6.000000000000000
0.810462000000000 5.258330000000000 -1.529830000000000 2.000000000000000
0.983063000000000 5.238790000000000 -0.668639000000000 17.000000000000000
0.661615000000000 5.376010000000000 -1.306900000000000 32.000000000000000
0.830010000000000 5.263070000000000 -1.532040000000000 14.000000000000000
0.999852000000000 5.227530000000000 -0.667643000000000 16.000000000000000
0.676469000000000 5.342800000000000 -1.299400000000000 28.000000000000000
0.840121000000000 5.214740000000000 -1.518780000000000 15.000000000000000
1.015660000000000 5.216390000000000 -0.666647000000000 19.000000000000000
0.695686000000000 5.352100000000000 -1.302210000000000 29.000000000000000
0.860818000000000 5.226950000000000 -1.523200000000000 15.000000000000000
0.712306000000000 5.334220000000000 -1.298460000000000 27.000000000000000
0.882248000000000 5.242870000000000 -1.528720000000000 21.000000000000000
0.728281000000000 5.312440000000000 -1.293770000000000 25.000000000000000
0.896636000000000 5.217020000000000 -1.522090000000000 18.000000000000000
0.747362000000000 5.313720000000000 -1.294710000000000 7.000000000000000
0.917499000000000 5.229010000000000 -1.526510000000000 10.000000000000000
0.764795000000000 5.303380000000000 -1.292830000000000 7.000000000000000
0.931681000000000 5.203070000000000 -1.519880000000000 2.000000000000000
0.785008000000000 5.312220000000000 -1.295640000000000 10.000000000000000
0.951909000000000 5.211130000000000 -1.523200000000000 2.000000000000000
0.800637000000000 5.290220000000000 -1.290950000000000 10.000000000000000
0.970798000000000 5.211560000000000 -1.524300000000000 2.000000000000000
0.819365000000000 5.295220000000000 -1.292830000000000 11.000000000000000
0.983059000000000 5.181870000000000 -1.516560000000000 2.000000000000000
0.835098000000000 5.280950000000000 -1.290020000000000 18.000000000000000
0.998952000000000 5.167080000000000 -1.513250000000000 13.000000000000000
0.851963000000000 5.262500000000000 -1.286260000000000 18.000000000000000
1.018470000000000 5.171110000000000 -1.515460000000000 34.000000000000000
0.870962000000000 5.263330000000000 -1.287200000000000 16.000000000000000
0.888032000000000 5.252590000000000 -1.285320000000000 14.000000000000000
0.907429000000000 5.261120000000000 -1.288140000000000 14.000000000000000
0.921068000000000 5.231110000000000 -1.281570000000000 19.000000000000000
0.935196000000000 5.204900000000000 -1.275940000000000 23.000000000000000
0.956864000000000 5.220730000000000 -1.280630000000000 28.000000000000000
0.972225000000000 5.202070000000000 -1.276880000000000 32.000000000000000
0.987467000000000 5.183360000000000 -1.273130000000000 38.000000000000000
1.008520000000000 5.195150000000000 -1.276880000000000 80.000000000000000
1.024380000000000 5.180160000000000 -1.274070000000000 38.000000000000000
0.401528000000000 5.515210000000000 -1.149400000000000 58.000000000000000
0.422565000000000 5.537210000000000 -1.154280000000000 6.000000000000000
0.439086000000000 5.500560000000000 -1.146950000000000 6.000000000000000
0.455682000000000 5.467770000000000 -1.140440000000000 6.000000000000000
0.474826000000000 5.477940000000000 -1.142880000000000 6.000000000000000
0.492186000000000 5.456750000000000 -1.138810000000000 7.000000000000000
0.508155000000000 5.412010000000000 -1.129860000000000 21.000000000000000
0.527995000000000 5.429790000000000 -1.133930000000000 23.000000000000000
0.549693000000000 5.455190000000000 -1.139630000000000 34.000000000000000
0.393847000000000 5.510630000000000 -1.008590000000000 15.000000000000000
0.567107000000000 5.437660000000000 -1.136370000000000 30.000000000000000
0.412786000000000 5.505300000000000 -1.007870000000000 13.000000000000000
0.586505000000000 5.439540000000000 -1.137190000000000 8.000000000000000
0.432617000000000 5.511670000000000 -1.009310000000000 12.000000000000000