# This PCD file was generated using the MATLAB® pcwrite function
# from Computer Vision Toolbox®.
# .PCD v.7 - Point Cloud Data file format
VERSION .7
FIELDS x y z intensity
SIZE 8 8 8 8
TYPE F F F F
COUNT 1 1 1 1
WIDTH 338
HEIGHT 1
VIEWPOINT 0 0 0 1 0 0 0
POINTS 338
DATA ascii
-2.321160000000000 7.040800000000000 -1.540940000000000 11.000000000000000
-2.313250000000000 7.020910000000000 -0.842232000000000 9.000000000000000
-2.296570000000000 7.048860000000000 -1.540940000000000 8.000000000000000
-2.288760000000000 7.109030000000000 -1.552340000000000 6.000000000000000
-2.284870000000000 7.101200000000000 -0.849930000000000 2.000000000000000
-2.260370000000000 7.105770000000000 -1.549890000000000 7.000000000000000
-2.258860000000000 7.105350000000000 -0.849477000000000 1.000000000000000
-2.223330000000000 7.079060000000000 -0.845402000000000 4.000000000000000
-2.218830000000000 7.147560000000000 -1.555590000000000 0.000000000000000
-2.195070000000000 7.075390000000000 -0.844043000000000 4.000000000000000
-2.199610000000000 7.173990000000000 -1.559660000000000 0.000000000000000
-2.182000000000000 7.121010000000000 -0.848571000000000 4.000000000000000
-2.177960000000000 7.192870000000000 -1.562100000000000 3.000000000000000
-2.172100000000000 7.178040000000000 -0.854458000000000 4.000000000000000
-2.149600000000000 7.185040000000000 -1.558850000000000 5.000000000000000
-2.142590000000000 7.166160000000000 -0.852194000000000 2.000000000000000
-2.127840000000000 7.203770000000000 -1.561290000000000 5.000000000000000
-2.124310000000000 7.196470000000000 -0.854911000000000 1.000000000000000
-2.312020000000000 7.064440000000000 -1.357000000000000 12.000000000000000
-2.314610000000000 7.076540000000000 -0.833826000000000 5.000000000000000
-2.118030000000000 7.263790000000000 -1.572690000000000 4.000000000000000
-2.109190000000000 7.238180000000000 -0.858986000000000 1.000000000000000
-2.284920000000000 7.064980000000000 -1.355560000000000 5.000000000000000
-2.278890000000000 7.050530000000000 -0.829819000000000 2.000000000000000
-2.074020000000000 7.211120000000000 -0.854911000000000 4.000000000000000
-2.266240000000000 7.091650000000000 -1.359150000000000 5.000000000000000
-2.268780000000000 7.103880000000000 -0.835161000000000 1.000000000000000
-2.059770000000000 7.252030000000000 -1.566990000000000 0.000000000000000
-2.059690000000000 7.256550000000000 -0.859439000000000 4.000000000000000
-2.247390000000000 7.118280000000000 -1.362740000000000 4.000000000000000
-2.252340000000000 7.138300000000000 -0.838278000000000 1.000000000000000
-2.041850000000000 7.285570000000000 -1.572690000000000 0.000000000000000
-2.042920000000000 7.294310000000000 -0.863061000000000 3.000000000000000
-2.221360000000000 7.122320000000000 -1.362030000000000 3.000000000000000
-2.214400000000000 7.104370000000000 -0.833381000000000 4.000000000000000
-2.026840000000000 7.330400000000000 -1.580830000000000 4.000000000000000
-2.019560000000000 7.309060000000000 -0.863967000000000 3.000000000000000
-2.211540000000000 7.178920000000000 -1.371370000000000 1.000000000000000
-2.196600000000000 7.134850000000000 -0.836052000000000 4.000000000000000
-2.002270000000000 7.341210000000000 -1.581640000000000 4.000000000000000
-1.988810000000000 7.296890000000000 -0.861703000000000 2.000000000000000
-2.187620000000000 7.190360000000000 -1.372080000000000 1.000000000000000
-2.183250000000000 7.180510000000000 -0.840504000000000 4.000000000000000
-1.985790000000000 7.382190000000000 -1.588970000000000 3.000000000000000
-1.970550000000000 7.330660000000000 -0.864873000000000 1.000000000000000
-2.154580000000000 7.171580000000000 -1.367050000000000 6.000000000000000
-2.162740000000000 7.203310000000000 -0.842284000000000 2.000000000000000
-1.962010000000000 7.396650000000000 -1.590600000000000 2.000000000000000
-1.953100000000000 7.368220000000000 -0.868495000000000 1.000000000000000
-2.137500000000000 7.201310000000000 -1.371370000000000 5.000000000000000
-2.143370000000000 7.225690000000000 -0.844065000000000 1.000000000000000
-1.936480000000000 7.399320000000000 -1.589780000000000 2.000000000000000
-1.919600000000000 7.340050000000000 -0.864420000000000 4.000000000000000
-2.315480000000000 7.014520000000000 -1.202220000000000 8.000000000000000
-2.326900000000000 7.053240000000000 -0.817342000000000 1.000000000000000
-2.125790000000000 7.249900000000000 -1.379270000000000 4.000000000000000
-2.123860000000000 7.248020000000000 -0.845846000000000 0.000000000000000
-1.920430000000000 7.443960000000000 -1.597920000000000 3.000000000000000
-1.910840000000000 7.412130000000000 -0.872118000000000 3.000000000000000
-2.299560000000000 7.048830000000000 -1.206720000000000 0.000000000000000
-2.291180000000000 7.027300000000000 -0.813404000000000 3.000000000000000
-2.107950000000000 7.287880000000000 -1.385010000000000 3.000000000000000
-2.099490000000000 7.263390000000000 -0.846736000000000 2.000000000000000
-1.895400000000000 7.454410000000000 -1.598740000000000 2.000000000000000
-1.890820000000000 7.441870000000000 -0.874834000000000 3.000000000000000
-2.278570000000000 7.068090000000000 -1.208650000000000 0.000000000000000
-2.283700000000000 7.088240000000000 -0.819530000000000 1.000000000000000
-2.079260000000000 7.283840000000000 -1.382860000000000 3.000000000000000
-2.065400000000000 7.240090000000000 -0.843175000000000 4.000000000000000
-1.876980000000000 7.491370000000000 -1.605250000000000 2.000000000000000
-1.848430000000000 7.382880000000000 -0.867137000000000 2.000000000000000
-2.253890000000000 7.076000000000000 -1.208650000000000 0.000000000000000
-2.275830000000000 7.149210000000000 -0.825656000000000 1.000000000000000
-2.057020000000000 7.302420000000000 -1.385010000000000 2.000000000000000
-2.055200000000000 7.300830000000000 -0.849407000000000 4.000000000000000
-1.844250000000000 7.471260000000000 -1.599550000000000 0.000000000000000
-1.844530000000000 7.478040000000000 -0.877551000000000 1.000000000000000
-2.231540000000000 7.091350000000000 -1.209930000000000 1.000000000000000
-2.240130000000000 7.122970000000000 -0.821718000000000 1.000000000000000
-2.037840000000000 7.332300000000000 -1.389320000000000 3.000000000000000
-2.033950000000000 7.323280000000000 -0.851188000000000 3.000000000000000
-1.826480000000000 7.511910000000000 -1.606880000000000 5.000000000000000
-1.822170000000000 7.499880000000000 -0.879363000000000 1.000000000000000
-2.213810000000000 7.121720000000000 -1.213790000000000 2.000000000000000
-2.215250000000000 7.130750000000000 -0.821718000000000 5.000000000000000
-2.015350000000000 7.350760000000000 -1.391480000000000 3.000000000000000
-1.799680000000000 7.521660000000000 -0.881174000000000 3.000000000000000
-2.190090000000000 7.133180000000000 -1.214430000000000 2.000000000000000
-2.191510000000000 7.142240000000000 -0.822155000000000 4.000000000000000
-1.994820000000000 7.376740000000000 -1.395070000000000 3.000000000000000
-1.992110000000000 7.371840000000000 -0.855195000000000 0.000000000000000
-2.177780000000000 7.182340000000000 -1.221500000000000 2.000000000000000
-2.175790000000000 7.180290000000000 -0.825656000000000 4.000000000000000
-1.971080000000000 7.391260000000000 -1.396510000000000 2.000000000000000
-1.974560000000000 7.409480000000000 -0.858756000000000 1.000000000000000
-2.142510000000000 7.155860000000000 -1.215720000000000 0.000000000000000
-2.170090000000000 7.252590000000000 -0.833094000000000 2.000000000000000
-1.949270000000000 7.413320000000000 -1.399380000000000 4.000000000000000
-1.942620000000000 7.393250000000000 -0.856085000000000 4.000000000000000
-2.129820000000000 7.204940000000000 -1.222790000000000 0.000000000000000
-2.147010000000000 7.267750000000000 -0.833969000000000 1.000000000000000
-1.930300000000000 7.446740000000000 -1.404410000000000 4.000000000000000
-1.921780000000000 7.419230000000000 -0.858311000000000 4.000000000000000
-2.294130000000000 6.998640000000000 -1.081270000000000 10.000000000000000
-2.312730000000000 7.059540000000000 -0.803082000000000 10.000000000000000
-2.109090000000000 7.227490000000000 -1.225360000000000 0.000000000000000
-2.112730000000000 7.244670000000000 -0.830469000000000 1.000000000000000
-1.906240000000000 7.461060000000000 -1.405850000000000 3.000000000000000
-1.907670000000000 7.472110000000000 -0.863653000000000 3.000000000000000
-2.292860000000000 7.078140000000000 -1.092310000000000 5.000000000000000
-2.296650000000000 7.094050000000000 -0.806091000000000 2.000000000000000
-2.079470000000000 7.219640000000000 -1.222790000000000 1.000000000000000
-2.077530000000000 7.217610000000000 -0.826531000000000 2.000000000000000
-1.896870000000000 7.528390000000000 -1.417340000000000 2.000000000000000
-2.265760000000000 7.074400000000000 -1.090570000000000 5.000000000000000
-2.277960000000000 7.116780000000000 -0.807811000000000 2.000000000000000
-2.056600000000000 7.230290000000000 -1.223430000000000 1.000000000000000
-2.055750000000000 7.232110000000000 -0.827406000000000 3.000000000000000
-1.853870000000000 7.462080000000000 -1.403690000000000 1.000000000000000
-1.859990000000000 7.492320000000000 -0.864543000000000 0.000000000000000
-2.249450000000000 7.104510000000000 -1.094050000000000 5.000000000000000
-2.249550000000000 7.109130000000000 -0.806091000000000 2.000000000000000
-2.044150000000000 7.283040000000000 -1.231140000000000 2.000000000000000
-2.039090000000000 7.269870000000000 -0.830906000000000 4.000000000000000
-1.836790000000000 7.510870000000000 -1.411590000000000 2.000000000000000
-1.840070000000000 7.529980000000000 -0.868105000000000 0.000000000000000
-2.208050000000000 7.063600000000000 -1.086500000000000 3.000000000000000
-2.222290000000000 7.113530000000000 -0.805661000000000 12.000000000000000
-2.013450000000000 7.271100000000000 -1.227930000000000 0.000000000000000
-2.023240000000000 7.311430000000000 -0.834844000000000 3.000000000000000
-1.814240000000000 7.532540000000000 -1.414470000000000 5.000000000000000
-1.812840000000000 7.532490000000000 -0.867660000000000 4.000000000000000
-2.199720000000000 7.124200000000000 -1.094640000000000 2.000000000000000
-2.198620000000000 7.125050000000000 -0.806091000000000 10.000000000000000
-2.008860000000000 7.354260000000000 -1.240780000000000 0.000000000000000
-2.005040000000000 7.345290000000000 -0.837907000000000 1.000000000000000
-2.178310000000000 7.143200000000000 -1.096380000000000 2.000000000000000
-2.187650000000000 7.178330000000000 -0.811250000000000 4.000000000000000
-1.977270000000000 7.334200000000000 -1.236280000000000 0.000000000000000
-1.992040000000000 7.394130000000000 -0.842720000000000 1.000000000000000
-2.162600000000000 7.176900000000000 -1.100450000000000 6.000000000000000
-2.161540000000000 7.177930000000000 -0.810390000000000 4.000000000000000
-1.952670000000000 7.344870000000000 -1.236920000000000 1.000000000000000
-1.962140000000000 7.385670000000000 -0.840970000000000 1.000000000000000
-2.130760000000000 7.161650000000000 -1.096960000000000 5.000000000000000
-2.146670000000000 7.219730000000000 -0.814259000000000 2.000000000000000
-1.937030000000000 7.389830000000000 -1.243350000000000 1.000000000000000
-1.934330000000000 7.384780000000000 -0.840095000000000 2.000000000000000
-2.322900000000000 7.023400000000000 -0.993618000000000 14.000000000000000
-2.313380000000000 7.031630000000000 -0.785862000000000 6.000000000000000
-2.120250000000000 7.218410000000000 -1.104510000000000 5.000000000000000
-2.132660000000000 7.265340000000000 -0.818559000000000 2.000000000000000
-1.918140000000000 7.423300000000000 -1.247850000000000 1.000000000000000
-1.910530000000000 7.399190000000000 -0.840970000000000 3.000000000000000
-2.309460000000000 7.065380000000000 -0.998410000000000 3.000000000000000
-2.296200000000000 7.062360000000000 -0.788396000000000 4.000000000000000
-2.097240000000000 7.233370000000000 -1.105670000000000 5.000000000000000
-2.100640000000000 7.249820000000000 -0.815979000000000 2.000000000000000
-1.898060000000000 7.452910000000000 -1.251700000000000 1.000000000000000
-1.886650000000000 7.413520000000000 -0.841845000000000 4.000000000000000
-2.276420000000000 7.081300000000000 -0.789663000000000 3.000000000000000
-2.079870000000000 7.268220000000000 -0.817269000000000 6.000000000000000
-1.873340000000000 7.459160000000000 -1.251700000000000 0.000000000000000
-1.872700000000000 7.462150000000000 -0.846658000000000 1.000000000000000
-2.270960000000000 7.111150000000000 -1.002670000000000 1.000000000000000
-2.256540000000000 7.100180000000000 -0.790929000000000 3.000000000000000
-2.066450000000000 7.308050000000000 -1.114970000000000 1.000000000000000
-2.054680000000000 7.271250000000000 -0.816839000000000 5.000000000000000
-1.851080000000000 7.480990000000000 -1.254270000000000 0.000000000000000
-1.858100000000000 7.514960000000000 -0.851909000000000 1.000000000000000
-2.252090000000000 7.137930000000000 -1.005330000000000 1.000000000000000
-2.236450000000000 7.127380000000000 -0.793041000000000 5.000000000000000
-2.030090000000000 7.281260000000000 -1.109740000000000 1.000000000000000
-2.037620000000000 7.313210000000000 -0.820708000000000 4.000000000000000
-1.838040000000000 7.541100000000000 -1.263270000000000 0.000000000000000
-1.829970000000000 7.513680000000000 -0.851034000000000 1.000000000000000
-2.213000000000000 7.100330000000000 -0.998943000000000 3.000000000000000
-2.210450000000000 7.127160000000000 -0.792196000000000 8.000000000000000
-2.018540000000000 7.333740000000000 -1.116710000000000 6.000000000000000
-2.012300000000000 7.316090000000000 -0.820278000000000 2.000000000000000
-1.808760000000000 7.535170000000000 -0.852784000000000 5.000000000000000
-2.194110000000000 7.122790000000000 -1.001070000000000 3.000000000000000
-2.203120000000000 7.187690000000000 -0.798108000000000 4.000000000000000
-1.989020000000000 7.321300000000000 -1.113810000000000 5.000000000000000
-1.995320000000000 7.349590000000000 -0.823288000000000 2.000000000000000
-2.184240000000000 7.179710000000000 -1.007990000000000 3.000000000000000
-2.175610000000000 7.191910000000000 -0.797686000000000 5.000000000000000
-1.974450000000000 7.374420000000000 -1.120780000000000 5.000000000000000
-1.976600000000000 7.387590000000000 -0.826727000000000 1.000000000000000
-2.164870000000000 7.206270000000000 -1.010660000000000 1.000000000000000
-2.157320000000000 7.222330000000000 -0.800220000000000 2.000000000000000
-1.955770000000000 7.408050000000000 -1.124850000000000 3.000000000000000
-1.954850000000000 7.409820000000000 -0.828447000000000 5.000000000000000
-2.146460000000000 7.236590000000000 -1.013850000000000 1.000000000000000
-2.313250000000000 7.001990000000000 -0.925042000000000 3.000000000000000
-2.130980000000000 7.226000000000000 -0.799797000000000 1.000000000000000
-1.938870000000000 7.449300000000000 -1.130080000000000 2.000000000000000
-1.922970000000000 7.393510000000000 -0.825867000000000 4.000000000000000
-2.317740000000000 7.061080000000000 -0.774552000000000 13.000000000000000
-2.121190000000000 7.244040000000000 -1.013850000000000 1.000000000000000
-2.288790000000000 7.010020000000000 -0.925042000000000 5.000000000000000
-2.106850000000000 7.237210000000000 -0.800220000000000 2.000000000000000
-1.904000000000000 7.421520000000000 -1.124850000000000 1.000000000000000
-1.907030000000000 7.438700000000000 -0.830166000000000 4.000000000000000
-2.300450000000000 7.091840000000000 -0.777039000000000 14.000000000000000
-2.090380000000000 7.232360000000000 -1.011190000000000 3.000000000000000
-2.285020000000000 7.082180000000000 -0.933506000000000 3.000000000000000
-2.088170000000000 7.267460000000000 -0.802753000000000 4.000000000000000
-1.880030000000000 7.435800000000000 -1.126010000000000 6.000000000000000
-1.885920000000000 7.464590000000000 -0.832316000000000 4.000000000000000
-2.281750000000000 7.118770000000000 -0.779113000000000 17.000000000000000
-2.070560000000000 7.258670000000000 -1.013850000000000 3.000000000000000
-2.263910000000000 7.101450000000000 -0.934999000000000 3.000000000000000
-2.066040000000000 7.286180000000000 -0.804020000000000 6.000000000000000
-1.844490000000000 7.403910000000000 -1.120200000000000 5.000000000000000
-1.876180000000000 7.536730000000000 -0.839624000000000 2.000000000000000
-2.264140000000000 7.145260000000000 -0.781186000000000 13.000000000000000
-2.059380000000000 7.311290000000000 -1.020240000000000 3.000000000000000
-2.243920000000000 7.120280000000000 -0.936493000000000 2.000000000000000
-2.048300000000000 7.315980000000000 -0.806554000000000 4.000000000000000
-1.837870000000000 7.483010000000000 -1.131240000000000 6.000000000000000
-1.844550000000000 7.515880000000000 -0.836615000000000 1.000000000000000
-2.242750000000000 7.164510000000000 -0.782430000000000 17.000000000000000
-2.030660000000000 7.306970000000000 -1.018640000000000 3.000000000000000
-2.023810000000000 7.326920000000000 -0.806976000000000 1.000000000000000
-1.817320000000000 7.512460000000000 -1.134730000000000 6.000000000000000
-1.822040000000000 7.537730000000000 -0.838335000000000 4.000000000000000
-2.217730000000000 7.172290000000000 -0.782430000000000 19.000000000000000
-2.007240000000000 7.321670000000000 -1.019710000000000 1.000000000000000
-2.202320000000000 7.162330000000000 -0.939978000000000 0.000000000000000
-2.000310000000000 7.341610000000000 -0.807821000000000 1.000000000000000
-2.198580000000000 7.194830000000000 -0.784088000000000 10.000000000000000
-2.004690000000000 7.408640000000000 -1.030890000000000 1.000000000000000
-2.178560000000000 7.169590000000000 -0.939978000000000 0.000000000000000
-1.995580000000000 7.421190000000000 -0.815844000000000 1.000000000000000
-2.178050000000000 7.217690000000000 -0.785747000000000 11.000000000000000
-1.971670000000000 7.388780000000000 -1.027160000000000 1.000000000000000
-2.154660000000000 7.180950000000000 -0.940476000000000 1.000000000000000
-1.963550000000000 7.405040000000000 -0.813310000000000 1.000000000000000
-2.148300000000000 7.210000000000000 -0.784088000000000 6.000000000000000
-1.949900000000000 7.410960000000000 -1.029290000000000 3.000000000000000
-2.129580000000000 7.188430000000000 -0.940476000000000 2.000000000000000
-1.941710000000000 7.427240000000000 -0.814999000000000 3.000000000000000
-2.139960000000000 7.274710000000000 -0.790308000000000 6.000000000000000
-1.918040000000000 7.394690000000000 -1.026100000000000 3.000000000000000
-2.300800000000000 7.015260000000000 -0.886895000000000 7.000000000000000
-2.115620000000000 7.233910000000000 -0.945454000000000 2.000000000000000
-1.918750000000000 7.445530000000000 -0.816266000000000 3.000000000000000
-2.104570000000000 7.247750000000000 -0.786576000000000 7.000000000000000
-1.898110000000000 7.424390000000000 -1.029290000000000 3.000000000000000
-2.302010000000000 7.102580000000000 -0.896914000000000 5.000000000000000
-2.104660000000000 7.290820000000000 -0.951927000000000 0.000000000000000
-1.897650000000000 7.471460000000000 -0.818378000000000 3.000000000000000
-2.084740000000000 7.274170000000000 -0.788649000000000 8.000000000000000
-1.895430000000000 7.523230000000000 -1.042070000000000 2.000000000000000
-2.276000000000000 7.106790000000000 -0.896437000000000 5.000000000000000
-2.069410000000000 7.263770000000000 -0.947446000000000 0.000000000000000
-2.066910000000000 7.308200000000000 -0.791552000000000 10.000000000000000
-1.866290000000000 7.518260000000000 -1.040480000000000 1.000000000000000
-2.251170000000000 7.114690000000000 -0.896437000000000 5.000000000000000
-2.057140000000000 7.312620000000000 -0.952922000000000 0.000000000000000
-1.849610000000000 7.495790000000000 -0.819644000000000 1.000000000000000
-2.051220000000000 7.345670000000000 -0.794869000000000 8.000000000000000
-1.835700000000000 7.501300000000000 -1.037280000000000 1.000000000000000
-2.020990000000000 7.281520000000000 -0.947944000000000 1.000000000000000
-1.829070000000000 7.525390000000000 -0.822178000000000 1.000000000000000
-2.216000000000000 7.124390000000000 -0.763131000000000 7.000000000000000
-2.025570000000000 7.352790000000000 -0.794869000000000 7.000000000000000
-1.816930000000000 7.538500000000000 -1.041540000000000 18.000000000000000
-2.222620000000000 7.194360000000000 -0.904547000000000 1.000000000000000
-2.007080000000000 7.330630000000000 -0.953420000000000 2.000000000000000
-1.803710000000000 7.535600000000000 -0.822600000000000 3.000000000000000
-2.193460000000000 7.139690000000000 -0.763945000000000 12.000000000000000
-1.998850000000000 7.355970000000000 -0.794454000000000 6.000000000000000
-2.196340000000000 7.198270000000000 -0.904070000000000 1.000000000000000
-1.982520000000000 7.341430000000000 -0.953918000000000 2.000000000000000
-1.982430000000000 7.397490000000000 -0.798186000000000 6.000000000000000
-2.175780000000000 7.221110000000000 -0.905978000000000 6.000000000000000
-1.969400000000000 7.390150000000000 -0.959395000000000 1.000000000000000
-1.954840000000000 7.392490000000000 -0.796942000000000 7.000000000000000
-2.149560000000000 7.220670000000000 -0.905024000000000 3.000000000000000
-1.921670000000000 7.308350000000000 -0.947944000000000 0.000000000000000
-1.937050000000000 7.430060000000000 -0.800259000000000 8.000000000000000
-2.126580000000000 7.235750000000000 -0.905978000000000 3.000000000000000
-1.925730000000000 7.434450000000000 -0.963378000000000 0.000000000000000
-2.323540000000000 7.098820000000000 -0.870846000000000 11.000000000000000
-1.916050000000000 7.456050000000000 -0.802333000000000 7.000000000000000
-2.109050000000000 7.269830000000000 -0.909318000000000 4.000000000000000
-1.907620000000000 7.471890000000000 -0.967361000000000 0.000000000000000
-2.309750000000000 7.140900000000000 -0.875015000000000 5.000000000000000
-1.896850000000000 7.489680000000000 -0.805235000000000 6.000000000000000
-2.096780000000000 7.322960000000000 -0.915043000000000 1.000000000000000
-1.875710000000000 7.455410000000000 -0.964373000000000 2.000000000000000
-2.275140000000000 7.118650000000000 -0.871309000000000 4.000000000000000
-1.871660000000000 7.500120000000000 -0.805650000000000 5.000000000000000
-2.059330000000000 7.288200000000000 -0.909795000000000 1.000000000000000
-1.845860000000000 7.446510000000000 -0.962382000000000 2.000000000000000
-2.240700000000000 7.096240000000000 -0.867603000000000 4.000000000000000
-1.850220000000000 7.525930000000000 -0.807723000000000 5.000000000000000
-2.043480000000000 7.329770000000000 -0.914089000000000 1.000000000000000
-1.836800000000000 7.522310000000000 -0.971344000000000 2.000000000000000
-2.219470000000000 7.115390000000000 -0.868993000000000 15.000000000000000
-2.037010000000000 7.351190000000000 -0.780225000000000 4.000000000000000
-1.828620000000000 7.551670000000000 -0.809796000000000 8.000000000000000
-2.013660000000000 7.321540000000000 -0.912180000000000 2.000000000000000
-2.215670000000000 7.191440000000000 -0.877331000000000 13.000000000000000
-2.007140000000000 7.342910000000000 -0.778597000000000 3.000000000000000
-2.002650000000000 7.382190000000000 -0.918860000000000 4.000000000000000
-2.190560000000000 7.199130000000000 -0.877331000000000 13.000000000000000
-1.985640000000000 7.365240000000000 -0.780225000000000 4.000000000000000
-1.975850000000000 7.385300000000000 -0.918382000000000 3.000000000000000
-1.957870000000000 7.364430000000000 -0.779411000000000 5.000000000000000
-1.951070000000000 7.395990000000000 -0.918860000000000 1.000000000000000
-2.145900000000000 7.233300000000000 -0.879647000000000 3.000000000000000
-1.941230000000000 7.405860000000000 -0.783074000000000 5.000000000000000
-1.934230000000000 7.437350000000000 -0.923153000000000 0.000000000000000
-2.125250000000000 7.251810000000000 -0.881037000000000 3.000000000000000
-1.916660000000000 7.412260000000000 -0.783074000000000 5.000000000000000
-1.913510000000000 7.459110000000000 -0.925062000000000 0.000000000000000
-2.107650000000000 7.285900000000000 -0.884279000000000 11.000000000000000
-1.901590000000000 7.461320000000000 -0.787551000000000 4.000000000000000
-1.891350000000000 7.481140000000000 -0.926970000000000 3.000000000000000
-2.083300000000000 7.297030000000000 -0.884742000000000 12.000000000000000
-1.874560000000000 7.464050000000000 -0.787144000000000 4.000000000000000
-1.854670000000000 7.445310000000000 -0.921722000000000 3.000000000000000
-2.063200000000000 7.323380000000000 -0.887059000000000 13.000000000000000
-1.859010000000000 7.513040000000000 -0.791621000000000 4.000000000000000
-1.840970000000000 7.501880000000000 -0.927924000000000 4.000000000000000
-2.039750000000000 7.338200000000000 -0.887985000000000 11.000000000000000
-1.821310000000000 7.535280000000000 -0.931264000000000 5.000000000000000
-1.981210000000000 7.325410000000000 -0.884742000000000 3.000000000000000
-1.967920000000000 7.378350000000000 -0.890301000000000 4.000000000000000
-1.955280000000000 7.435120000000000 -0.896323000000000 12.000000000000000
-1.932310000000000 7.453440000000000 -0.897713000000000 11.000000000000000
-1.910220000000000 7.475540000000000 -0.899565000000000 11.000000000000000
-1.886050000000000 7.489870000000000 -0.900492000000000 6.000000000000000
-1.861200000000000 7.496080000000000 -0.900492000000000 5.000000000000000
-1.843520000000000 7.537270000000000 -0.904661000000000 6.000000000000000