# This PCD file was generated using the MATLAB® pcwrite function
# from Computer Vision Toolbox®.
# .PCD v.7 - Point Cloud Data file format
VERSION .7
FIELDS x y z intensity
SIZE 8 8 8 8
TYPE F F F F
COUNT 1 1 1 1
WIDTH 319
HEIGHT 1
VIEWPOINT 0 0 0 1 0 0 0
POINTS 319
DATA ascii
-0.431676000000000 5.690620000000000 -0.685567000000000 63.000000000000000
-0.600616000000000 5.625680000000000 -1.365070000000000 101.000000000000000
-0.412096000000000 5.696050000000000 -0.686044000000000 64.000000000000000
-0.581773000000000 5.635480000000000 -1.366950000000000 49.000000000000000
-0.390846000000000 5.677650000000000 -0.683658000000000 64.000000000000000
-0.562870000000000 5.645210000000000 -1.368820000000000 49.000000000000000
-0.371025000000000 5.678980000000000 -0.683658000000000 64.000000000000000
-0.543533000000000 5.651010000000000 -1.369760000000000 42.000000000000000
-0.351445000000000 5.684200000000000 -0.684135000000000 64.000000000000000
-0.522728000000000 5.641260000000000 -1.366950000000000 46.000000000000000
-0.330676000000000 5.669530000000000 -0.682227000000000 64.000000000000000
-0.503378000000000 5.646920000000000 -1.367890000000000 46.000000000000000
-0.482669000000000 5.637020000000000 -1.365070000000000 101.000000000000000
-0.462989000000000 5.638670000000000 -1.365070000000000 101.000000000000000
-0.442999000000000 5.636380000000000 -1.364130000000000 101.000000000000000
-0.423321000000000 5.637890000000000 -1.364130000000000 101.000000000000000
-0.423520000000000 5.653760000000000 -0.661009000000000 69.000000000000000
-0.404901000000000 5.643140000000000 -1.365070000000000 101.000000000000000
-0.405053000000000 5.659090000000000 -0.661472000000000 100.000000000000000
-0.388309000000000 5.675490000000000 -1.372580000000000 100.000000000000000
-0.386014000000000 5.656440000000000 -0.661009000000000 101.000000000000000
-0.365244000000000 5.641950000000000 -1.364130000000000 70.000000000000000
-0.366048000000000 5.669710000000000 -0.662399000000000 101.000000000000000
-0.345310000000000 5.639310000000000 -1.363190000000000 77.000000000000000
-0.346254000000000 5.670960000000000 -0.662399000000000 101.000000000000000
-0.325847000000000 5.644360000000000 -1.364130000000000 82.000000000000000
-0.326229000000000 5.668160000000000 -0.661936000000000 85.000000000000000
-0.305932000000000 5.641580000000000 -1.363190000000000 84.000000000000000
-0.287222000000000 5.642570000000000 -1.363190000000000 101.000000000000000
-0.993775000000000 5.626790000000000 -1.187660000000000 101.000000000000000
-0.970122000000000 5.607070000000000 -1.182770000000000 26.000000000000000
-0.953815000000000 5.629730000000000 -1.186840000000000 22.000000000000000
-0.932575000000000 5.617410000000000 -1.183590000000000 24.000000000000000
-0.913589000000000 5.624500000000000 -1.184400000000000 25.000000000000000
-0.893950000000000 5.627650000000000 -1.184400000000000 30.000000000000000
-0.872498000000000 5.619130000000000 -1.181960000000000 101.000000000000000
-0.851704000000000 5.614390000000000 -1.180330000000000 101.000000000000000
-0.834230000000000 5.624940000000000 -1.181960000000000 101.000000000000000
-0.999405000000000 5.609500000000000 -1.040200000000000 59.000000000000000
-0.814590000000000 5.627810000000000 -1.181960000000000 101.000000000000000
-0.977112000000000 5.597440000000000 -1.037320000000000 58.000000000000000
-0.793298000000000 5.618990000000000 -1.179520000000000 101.000000000000000
-0.957567000000000 5.600820000000000 -1.037320000000000 52.000000000000000
-0.774747000000000 5.629480000000000 -1.181140000000000 42.000000000000000
-0.942558000000000 5.631300000000000 -1.042350000000000 65.000000000000000
-0.754571000000000 5.628270000000000 -1.180330000000000 30.000000000000000
-0.921623000000000 5.626790000000000 -1.040920000000000 77.000000000000000
-0.736918000000000 5.638510000000000 -1.181960000000000 30.000000000000000
-0.903582000000000 5.633700000000000 -1.041630000000000 72.000000000000000
-0.716244000000000 5.633280000000000 -1.180330000000000 38.000000000000000
-0.883911000000000 5.636820000000000 -1.041630000000000 11.000000000000000
-0.695134000000000 5.624080000000000 -1.177890000000000 40.000000000000000
-0.865422000000000 5.647650000000000 -1.043070000000000 11.000000000000000
-0.672698000000000 5.603150000000000 -1.173000000000000 101.000000000000000
-1.042430000000000 5.653060000000000 -0.935563000000000 1.000000000000000
-0.846285000000000 5.654520000000000 -1.043790000000000 14.000000000000000
-0.651775000000000 5.593790000000000 -1.170560000000000 101.000000000000000
-1.013560000000000 5.606150000000000 -0.927209000000000 49.000000000000000
-0.825251000000000 5.641730000000000 -1.040920000000000 16.000000000000000
-0.636745000000000 5.627050000000000 -1.177070000000000 101.000000000000000
-0.999097000000000 5.632810000000000 -0.931065000000000 8.000000000000000
-0.805425000000000 5.636640000000000 -1.039480000000000 17.000000000000000
-0.618379000000000 5.640920000000000 -1.179520000000000 101.000000000000000
-0.980104000000000 5.640150000000000 -0.931707000000000 9.000000000000000
-0.778794000000000 5.596680000000000 -1.031580000000000 58.000000000000000
-0.596619000000000 5.623570000000000 -1.175450000000000 101.000000000000000
-0.957761000000000 5.627970000000000 -0.929137000000000 10.000000000000000
-0.760311000000000 5.607170000000000 -1.033010000000000 70.000000000000000
-0.577784000000000 5.633410000000000 -1.177070000000000 52.000000000000000
-0.937461000000000 5.627390000000000 -0.928495000000000 9.000000000000000
-0.745885000000000 5.648800000000000 -1.040200000000000 88.000000000000000
-0.558503000000000 5.639290000000000 -1.177890000000000 63.000000000000000
-0.917812000000000 5.630620000000000 -0.928495000000000 10.000000000000000
-0.723655000000000 5.631850000000000 -1.036610000000000 100.000000000000000
-0.538442000000000 5.637310000000000 -1.177070000000000 54.000000000000000
-0.894423000000000 5.610400000000000 -0.924639000000000 20.000000000000000
-0.704967000000000 5.642150000000000 -1.038040000000000 99.000000000000000
-0.518402000000000 5.635250000000000 -1.176260000000000 54.000000000000000
-0.875441000000000 5.617390000000000 -0.925282000000000 22.000000000000000
-0.686217000000000 5.652390000000000 -1.039480000000000 18.000000000000000
-0.499712000000000 5.636940000000000 -1.176260000000000 58.000000000000000
-0.857404000000000 5.624160000000000 -0.925924000000000 23.000000000000000
-0.667469000000000 5.654640000000000 -1.039480000000000 19.000000000000000
-1.031590000000000 5.649030000000000 -0.843055000000000 53.000000000000000
-0.476378000000000 5.595730000000000 -1.167300000000000 101.000000000000000
-0.838929000000000 5.634930000000000 -0.927209000000000 22.000000000000000
-0.646831000000000 5.649110000000000 -1.038040000000000 21.000000000000000
-1.006290000000000 5.621430000000000 -0.838407000000000 42.000000000000000
-0.458754000000000 5.620780000000000 -1.172190000000000 101.000000000000000
-0.816416000000000 5.618290000000000 -0.923997000000000 24.000000000000000
-0.625806000000000 5.639600000000000 -1.035890000000000 18.000000000000000
-0.984610000000000 5.613210000000000 -0.836664000000000 37.000000000000000
-0.440656000000000 5.641860000000000 -1.176260000000000 101.000000000000000
-0.801232000000000 5.652380000000000 -0.929137000000000 5.000000000000000
-0.606537000000000 5.645670000000000 -1.036610000000000 35.000000000000000
-0.960989000000000 5.593210000000000 -0.833178000000000 28.000000000000000
-0.419503000000000 5.623840000000000 -1.172190000000000 101.000000000000000
-0.776633000000000 5.619940000000000 -0.923354000000000 6.000000000000000
-0.581540000000000 5.596870000000000 -1.027270000000000 83.000000000000000
-0.942772000000000 5.604340000000000 -0.834340000000000 33.000000000000000
-0.399314000000000 5.617460000000000 -1.170560000000000 101.000000000000000
-0.755430000000000 5.610880000000000 -0.921426000000000 7.000000000000000
-0.563571000000000 5.614530000000000 -1.030140000000000 100.000000000000000
-0.927061000000000 5.631020000000000 -0.837826000000000 37.000000000000000
-0.381287000000000 5.642260000000000 -1.175450000000000 101.000000000000000
-0.733787000000000 5.597830000000000 -0.918856000000000 8.000000000000000
-0.547004000000000 5.647790000000000 -1.035890000000000 101.000000000000000
-0.903624000000000 5.610780000000000 -0.834340000000000 10.000000000000000
-0.360588000000000 5.627930000000000 -1.172190000000000 101.000000000000000
-0.717240000000000 5.623850000000000 -0.922712000000000 8.000000000000000
-0.524361000000000 5.618320000000000 -1.030140000000000 101.000000000000000
-0.885880000000000 5.625630000000000 -0.836083000000000 8.000000000000000
-0.340704000000000 5.625240000000000 -1.171380000000000 101.000000000000000
-0.698090000000000 5.630240000000000 -0.923354000000000 31.000000000000000
-0.506506000000000 5.639720000000000 -1.033730000000000 101.000000000000000
-0.868043000000000 5.640420000000000 -0.837826000000000 10.000000000000000
-0.320397000000000 5.614670000000000 -1.168930000000000 101.000000000000000
-0.675128000000000 5.605200000000000 -0.918856000000000 30.000000000000000
-1.041360000000000 5.629080000000000 -0.768909000000000 4.000000000000000
-0.490200000000000 5.680650000000000 -1.040920000000000 48.000000000000000
-0.848349000000000 5.643420000000000 -0.837826000000000 11.000000000000000
-0.301215000000000 5.623570000000000 -1.170560000000000 101.000000000000000
-0.658767000000000 5.634980000000000 -0.923354000000000 34.000000000000000
-1.017460000000000 5.609280000000000 -0.765714000000000 36.000000000000000
-0.467781000000000 5.639110000000000 -1.033010000000000 30.000000000000000
-0.829630000000000 5.646200000000000 -0.837826000000000 13.000000000000000
-0.283547000000000 5.644100000000000 -1.174630000000000 101.000000000000000
-0.637850000000000 5.617510000000000 -0.920141000000000 35.000000000000000
-1.002320000000000 5.632130000000000 -0.768376000000000 7.000000000000000
-0.449703000000000 5.648480000000000 -1.034450000000000 37.000000000000000
-0.801342000000000 5.582320000000000 -0.827949000000000 38.000000000000000
-0.619964000000000 5.635400000000000 -0.922712000000000 34.000000000000000
-0.982657000000000 5.635600000000000 -0.768376000000000 7.000000000000000
-0.428700000000000 5.646160000000000 -1.033730000000000 46.000000000000000
-0.787453000000000 5.632260000000000 -0.834921000000000 42.000000000000000
-0.600289000000000 5.637530000000000 -0.922712000000000 8.000000000000000
-0.962979000000000 5.638990000000000 -0.768376000000000 8.000000000000000
-0.408988000000000 5.647620000000000 -1.033730000000000 70.000000000000000
-0.769391000000000 5.646740000000000 -0.836664000000000 55.000000000000000
-0.580203000000000 5.635670000000000 -0.922069000000000 11.000000000000000
-0.942636000000000 5.638410000000000 -0.767844000000000 7.000000000000000
-0.387378000000000 5.621540000000000 -1.028700000000000 101.000000000000000
-0.747593000000000 5.633690000000000 -0.834340000000000 50.000000000000000
-0.559746000000000 5.629800000000000 -0.920784000000000 13.000000000000000
-0.922948000000000 5.641670000000000 -0.767844000000000 20.000000000000000
-0.369551000000000 5.650340000000000 -1.033730000000000 101.000000000000000
-0.726909000000000 5.628420000000000 -0.833178000000000 51.000000000000000
-0.538960000000000 5.619930000000000 -0.918856000000000 12.000000000000000
-0.899491000000000 5.621370000000000 -0.764649000000000 34.000000000000000
-0.348123000000000 5.624110000000000 -1.028700000000000 101.000000000000000
-0.711203000000000 5.662340000000000 -0.837826000000000 18.000000000000000
-0.520429000000000 5.633570000000000 -0.920784000000000 15.000000000000000
-0.881089000000000 5.632310000000000 -0.765714000000000 37.000000000000000
-0.329866000000000 5.648860000000000 -1.033010000000000 101.000000000000000
-0.691913000000000 5.668710000000000 -0.838407000000000 20.000000000000000
-0.501460000000000 5.643220000000000 -0.922069000000000 44.000000000000000
-0.860824000000000 5.631430000000000 -0.765181000000000 36.000000000000000
-1.041850000000000 5.647700000000000 -0.720417000000000 20.000000000000000
-0.309067000000000 5.630330000000000 -1.029420000000000 101.000000000000000
-0.669793000000000 5.651440000000000 -0.835502000000000 20.000000000000000
-0.479744000000000 5.621330000000000 -0.918214000000000 51.000000000000000
-0.841162000000000 5.634400000000000 -0.765181000000000 46.000000000000000
-1.017460000000000 5.619880000000000 -0.716434000000000 21.000000000000000
-0.651048000000000 5.653630000000000 -0.835502000000000 19.000000000000000
-0.462714000000000 5.642570000000000 -0.921426000000000 48.000000000000000
-0.821900000000000 5.633230000000000 -0.764649000000000 30.000000000000000
-0.996037000000000 5.607590000000000 -0.714443000000000 24.000000000000000
-0.630538000000000 5.640030000000000 -0.833178000000000 22.000000000000000
-0.442706000000000 5.640210000000000 -0.920784000000000 56.000000000000000
-0.803349000000000 5.643920000000000 -0.765714000000000 11.000000000000000
-0.974798000000000 5.607290000000000 -0.713945000000000 25.000000000000000
-0.604333000000000 5.591150000000000 -0.825625000000000 52.000000000000000
-0.422720000000000 5.637790000000000 -0.920141000000000 67.000000000000000
-0.782008000000000 5.634910000000000 -0.764116000000000 14.000000000000000
-0.957217000000000 5.622400000000000 -0.715439000000000 32.000000000000000
-0.588928000000000 5.632590000000000 -0.831435000000000 66.000000000000000
-0.400786000000000 5.607720000000000 -0.915001000000000 16.000000000000000
-0.763397000000000 5.645460000000000 -0.765181000000000 12.000000000000000
-0.940848000000000 5.645280000000000 -0.717928000000000 38.000000000000000
-0.571252000000000 5.654300000000000 -0.834340000000000 75.000000000000000
-0.383530000000000 5.628720000000000 -0.918214000000000 17.000000000000000
-0.742080000000000 5.628310000000000 -0.762519000000000 16.000000000000000
-0.921483000000000 5.644450000000000 -0.717430000000000 44.000000000000000
-0.552883000000000 5.660100000000000 -0.834921000000000 81.000000000000000
-0.365917000000000 5.661540000000000 -0.923354000000000 19.000000000000000
-0.725961000000000 5.658390000000000 -0.766246000000000 42.000000000000000
-0.901148000000000 5.643720000000000 -0.716932000000000 59.000000000000000
-0.530525000000000 5.634410000000000 -0.830854000000000 100.000000000000000
-0.344948000000000 5.643080000000000 -0.920141000000000 23.000000000000000
-0.705223000000000 5.653020000000000 -0.765181000000000 58.000000000000000
-0.878382000000000 5.627220000000000 -0.714443000000000 83.000000000000000
-0.514427000000000 5.675650000000000 -0.836664000000000 23.000000000000000
-0.325248000000000 5.644250000000000 -0.920141000000000 22.000000000000000
-0.683578000000000 5.639710000000000 -0.763052000000000 59.000000000000000
-0.859931000000000 5.638100000000000 -0.715439000000000 86.000000000000000
-0.491177000000000 5.637980000000000 -0.830854000000000 29.000000000000000
-0.305330000000000 5.641410000000000 -0.919499000000000 91.000000000000000
-0.662961000000000 5.634180000000000 -0.761987000000000 71.000000000000000
-0.840059000000000 5.633070000000000 -0.714443000000000 86.000000000000000
-0.473470000000000 5.651410000000000 -0.832597000000000 34.000000000000000
-0.644274000000000 5.636350000000000 -0.761987000000000 76.000000000000000
-0.821947000000000 5.639750000000000 -0.714941000000000 53.000000000000000
-0.454726000000000 5.652950000000000 -0.832597000000000 27.000000000000000
-0.626778000000000 5.658270000000000 -0.764649000000000 48.000000000000000
-0.980224000000000 5.588780000000000 -1.631520000000000 55.000000000000000
-0.800154000000000 5.634870000000000 -0.713945000000000 40.000000000000000
-0.434307000000000 5.658520000000000 -0.833178000000000 36.000000000000000
-0.605332000000000 5.644650000000000 -0.762519000000000 28.000000000000000
-0.960710000000000 5.592170000000000 -1.631520000000000 70.000000000000000
-0.781569000000000 5.645490000000000 -0.714941000000000 35.000000000000000
-0.413396000000000 5.644220000000000 -0.830854000000000 98.000000000000000
-0.583580000000000 5.627020000000000 -0.759857000000000 28.000000000000000
-0.942459000000000 5.603070000000000 -1.633730000000000 73.000000000000000
-0.761858000000000 5.648180000000000 -0.714941000000000 33.000000000000000
-0.394517000000000 5.657470000000000 -0.832597000000000 101.000000000000000
-0.563539000000000 5.625070000000000 -0.759324000000000 29.000000000000000
-0.922895000000000 5.606330000000000 -1.633730000000000 71.000000000000000
-0.741103000000000 5.642940000000000 -0.713945000000000 40.000000000000000
-0.373721000000000 5.643020000000000 -0.830273000000000 101.000000000000000
-0.547715000000000 5.666470000000000 -0.764649000000000 29.000000000000000
-0.905153000000000 5.620900000000000 -1.637050000000000 65.000000000000000
-0.721401000000000 5.645490000000000 -0.713945000000000 68.000000000000000
-0.354764000000000 5.656140000000000 -0.832016000000000 101.000000000000000
-0.526094000000000 5.648610000000000 -0.761987000000000 72.000000000000000
-0.883733000000000 5.612640000000000 -1.633730000000000 70.000000000000000
-0.702180000000000 5.651910000000000 -0.714443000000000 69.000000000000000
-0.334784000000000 5.653390000000000 -0.831435000000000 101.000000000000000
-0.505312000000000 5.638560000000000 -0.760389000000000 100.000000000000000
-0.862967000000000 5.608090000000000 -1.631520000000000 75.000000000000000
-0.868189000000000 5.648580000000000 -0.686521000000000 10.000000000000000
-0.680069000000000 5.634630000000000 -0.711954000000000 82.000000000000000
-0.314828000000000 5.650570000000000 -0.830854000000000 101.000000000000000
-0.484946000000000 5.632390000000000 -0.759324000000000 100.000000000000000
-0.841671000000000 5.599660000000000 -1.628210000000000 68.000000000000000
-0.842570000000000 5.612300000000000 -0.681750000000000 23.000000000000000
-0.659934000000000 5.633030000000000 -0.711456000000000 89.000000000000000
-0.464956000000000 5.630100000000000 -0.758792000000000 101.000000000000000
-0.822678000000000 5.606370000000000 -1.629310000000000 92.000000000000000
-0.829885000000000 5.662360000000000 -0.687475000000000 5.000000000000000
-0.641164000000000 5.643180000000000 -0.712451000000000 86.000000000000000
-1.003850000000000 5.638980000000000 -1.381960000000000 101.000000000000000
-0.446863000000000 5.651450000000000 -0.761454000000000 101.000000000000000
-0.802013000000000 5.601590000000000 -1.627100000000000 73.000000000000000
-0.806742000000000 5.641640000000000 -0.684612000000000 14.000000000000000
-0.623198000000000 5.661170000000000 -0.714443000000000 57.000000000000000
-0.980148000000000 5.619470000000000 -1.376330000000000 34.000000000000000
-0.425640000000000 5.633210000000000 -0.758792000000000 79.000000000000000
-0.782455000000000 5.604360000000000 -1.627100000000000 69.000000000000000
-0.787592000000000 5.648350000000000 -0.685089000000000 18.000000000000000
-0.601331000000000 5.643570000000000 -0.711954000000000 43.000000000000000
-0.961181000000000 5.626690000000000 -1.377270000000000 17.000000000000000
-0.406258000000000 5.638620000000000 -0.759324000000000 50.000000000000000
-0.763406000000000 5.610870000000000 -1.628210000000000 83.000000000000000
-0.769475000000000 5.662870000000000 -0.686521000000000 24.000000000000000
-0.582441000000000 5.653530000000000 -0.712949000000000 34.000000000000000
-0.940893000000000 5.626180000000000 -1.376330000000000 18.000000000000000
-0.386573000000000 5.640000000000000 -0.759324000000000 47.000000000000000
-0.746341000000000 5.632550000000000 -1.633730000000000 85.000000000000000
-0.747099000000000 5.645840000000000 -0.684135000000000 28.000000000000000
-0.562509000000000 5.643590000000000 -0.711456000000000 32.000000000000000
-0.920974000000000 5.621590000000000 -1.374450000000000 18.000000000000000
-0.367868000000000 5.641250000000000 -0.759324000000000 42.000000000000000
-0.725689000000000 5.619750000000000 -1.629310000000000 68.000000000000000
-0.729896000000000 5.660100000000000 -0.685567000000000 28.000000000000000
-0.541286000000000 5.629710000000000 -0.709464000000000 34.000000000000000
-0.903806000000000 5.640130000000000 -1.378210000000000 19.000000000000000
-0.348663000000000 5.650410000000000 -0.760389000000000 50.000000000000000
-0.704631000000000 5.610800000000000 -1.626000000000000 52.000000000000000
-0.710628000000000 5.666560000000000 -0.686044000000000 27.000000000000000
-0.524194000000000 5.659230000000000 -0.712949000000000 85.000000000000000
-0.881104000000000 5.624040000000000 -1.373520000000000 101.000000000000000
-0.327555000000000 5.627850000000000 -0.757194000000000 101.000000000000000
-0.684575000000000 5.609410000000000 -1.624890000000000 64.000000000000000
-0.691805000000000 5.676890000000000 -0.686998000000000 33.000000000000000
-0.503380000000000 5.649170000000000 -0.711456000000000 89.000000000000000
-0.857936000000000 5.604020000000000 -1.367890000000000 101.000000000000000
-0.309207000000000 5.652710000000000 -0.760389000000000 16.000000000000000
-0.664538000000000 5.607950000000000 -1.623790000000000 58.000000000000000
-0.670118000000000 5.663490000000000 -0.685089000000000 42.000000000000000
-0.482980000000000 5.642980000000000 -0.710460000000000 89.000000000000000
-0.841244000000000 5.626210000000000 -1.372580000000000 101.000000000000000
-0.644959000000000 5.610230000000000 -1.623790000000000 60.000000000000000
-0.650797000000000 5.669740000000000 -0.685567000000000 53.000000000000000
-0.463929000000000 5.652540000000000 -0.711456000000000 89.000000000000000
-0.822723000000000 5.636810000000000 -1.374450000000000 101.000000000000000
-0.626223000000000 5.620090000000000 -1.626000000000000 76.000000000000000
-0.630563000000000 5.668030000000000 -0.685089000000000 56.000000000000000
-0.443884000000000 5.650170000000000 -0.710958000000000 89.000000000000000
-0.800301000000000 5.620400000000000 -1.369760000000000 101.000000000000000
-0.607014000000000 5.626070000000000 -1.627100000000000 49.000000000000000
-0.609924000000000 5.662300000000000 -0.684135000000000 57.000000000000000
-0.425347000000000 5.667520000000000 -0.712949000000000 61.000000000000000
-0.783886000000000 5.646270000000000 -1.375390000000000 25.000000000000000
-0.584578000000000 5.601390000000000 -1.619360000000000 39.000000000000000
-0.590566000000000 5.668340000000000 -0.684612000000000 60.000000000000000
-0.404712000000000 5.657090000000000 -0.711456000000000 46.000000000000000
-0.764172000000000 5.648970000000000 -1.375390000000000 21.000000000000000
-0.569265000000000 5.645470000000000 -1.631520000000000 27.000000000000000
-0.570379000000000 5.666420000000000 -0.684135000000000 63.000000000000000
-0.384329000000000 5.634650000000000 -0.708468000000000 49.000000000000000
-0.744418000000000 5.643760000000000 -1.373520000000000 22.000000000000000
-0.548303000000000 5.624370000000000 -1.624890000000000 6.000000000000000
-0.551970000000000 5.672230000000000 -0.684612000000000 52.000000000000000
-0.364697000000000 5.651860000000000 -0.710460000000000 47.000000000000000
-0.723233000000000 5.642590000000000 -1.372580000000000 22.000000000000000
-0.547069000000000 5.833020000000000 -1.684580000000000 6.000000000000000
-0.530806000000000 5.670260000000000 -0.684135000000000 64.000000000000000
-0.344702000000000 5.665040000000000 -0.711954000000000 62.000000000000000
-0.696785000000000 5.598900000000000 -1.361320000000000 25.000000000000000
-0.525992000000000 5.815660000000000 -1.679050000000000 6.000000000000000
-0.512357000000000 5.675950000000000 -0.684612000000000 64.000000000000000
-0.324389000000000 5.622510000000000 -0.706477000000000 89.000000000000000
-0.683405000000000 5.635810000000000 -1.369760000000000 101.000000000000000
-0.491511000000000 5.665830000000000 -0.683181000000000 64.000000000000000
-0.661910000000000 5.622710000000000 -1.366010000000000 101.000000000000000
-0.472390000000000 5.675430000000000 -0.684135000000000 64.000000000000000
-0.642720000000000 5.628850000000000 -1.366950000000000 101.000000000000000
-0.453207000000000 5.684960000000000 -0.685089000000000 63.000000000000000
-0.623495000000000 5.634920000000000 -1.367890000000000 101.000000000000000