# This PCD file was generated using the MATLAB® pcwrite function
# from Computer Vision Toolbox®.
# .PCD v.7 - Point Cloud Data file format
VERSION .7
FIELDS x y z intensity
SIZE 8 8 8 8
TYPE F F F F
COUNT 1 1 1 1
WIDTH 408
HEIGHT 1
VIEWPOINT 0 0 0 1 0 0 0
POINTS 408
DATA ascii
-1.972400000000000 6.334220000000000 -1.378950000000000 101.000000000000000
-1.947980000000000 6.333580000000000 -1.377320000000000 101.000000000000000
-1.954680000000000 6.359330000000000 -0.758009000000000 101.000000000000000
-1.933830000000000 6.366570000000000 -1.383020000000000 98.000000000000000
-1.933630000000000 6.369920000000000 -0.758462000000000 101.000000000000000
-1.902590000000000 6.343270000000000 -1.376510000000000 100.000000000000000
-1.907960000000000 6.365210000000000 -0.757103000000000 101.000000000000000
-1.884880000000000 6.360810000000000 -1.378950000000000 101.000000000000000
-1.884580000000000 6.363880000000000 -0.756197000000000 101.000000000000000
-1.864850000000000 6.378950000000000 -1.381390000000000 101.000000000000000
-1.861250000000000 6.370740000000000 -0.756197000000000 101.000000000000000
-1.831720000000000 6.347790000000000 -1.373250000000000 101.000000000000000
-1.840100000000000 6.381020000000000 -0.756650000000000 138.000000000000000
-1.810620000000000 6.357920000000000 -1.374070000000000 101.000000000000000
-1.818900000000000 6.391220000000000 -0.757103000000000 138.000000000000000
-1.788420000000000 6.364200000000000 -1.374070000000000 101.000000000000000
-1.796580000000000 6.397530000000000 -0.757103000000000 200.000000000000000
-1.771420000000000 6.389270000000000 -1.378140000000000 101.000000000000000
-1.777420000000000 6.415260000000000 -0.758462000000000 200.000000000000000
-1.969190000000000 6.372450000000000 -1.217630000000000 101.000000000000000
-1.965890000000000 6.365700000000000 -0.746125000000000 101.000000000000000
-1.755390000000000 6.414000000000000 -1.382210000000000 100.000000000000000
-1.750890000000000 6.401950000000000 -0.756197000000000 101.000000000000000
-1.942340000000000 6.364230000000000 -1.214760000000000 101.000000000000000
-1.942500000000000 6.368730000000000 -0.745680000000000 100.000000000000000
-1.728910000000000 6.404960000000000 -1.378950000000000 101.000000000000000
-1.920110000000000 6.370970000000000 -1.214760000000000 100.000000000000000
-1.925990000000000 6.394500000000000 -0.747906000000000 101.000000000000000
-1.708560000000000 6.418530000000000 -1.380580000000000 100.000000000000000
-1.708200000000000 6.421700000000000 -0.757103000000000 101.000000000000000
-1.895620000000000 6.370090000000000 -1.213320000000000 101.000000000000000
-1.902520000000000 6.397370000000000 -0.747460000000000 101.000000000000000
-1.684150000000000 6.416880000000000 -1.378950000000000 100.000000000000000
-1.687790000000000 6.435310000000000 -0.758009000000000 101.000000000000000
-1.874480000000000 6.380440000000000 -1.214040000000000 101.000000000000000
-1.880180000000000 6.403970000000000 -0.747460000000000 101.000000000000000
-1.650950000000000 6.381010000000000 -1.370000000000000 101.000000000000000
-1.664320000000000 6.437310000000000 -0.757556000000000 101.000000000000000
-1.841240000000000 6.349150000000000 -1.206860000000000 101.000000000000000
-1.856710000000000 6.406680000000000 -0.747015000000000 101.000000000000000
-1.638350000000000 6.424680000000000 -1.378140000000000 101.000000000000000
-1.634970000000000 6.416130000000000 -0.754386000000000 101.000000000000000
-1.817980000000000 6.351760000000000 -1.206140000000000 101.000000000000000
-1.829960000000000 6.397840000000000 -0.745235000000000 187.000000000000000
-1.614000000000000 6.422770000000000 -1.376510000000000 101.000000000000000
-1.616440000000000 6.437210000000000 -0.756197000000000 101.000000000000000
-1.791520000000000 6.342920000000000 -1.203270000000000 101.000000000000000
-1.808690000000000 6.408010000000000 -0.745680000000000 200.000000000000000
-1.590630000000000 6.424560000000000 -1.375690000000000 101.000000000000000
-1.594910000000000 6.446670000000000 -0.756650000000000 101.000000000000000
-1.776760000000000 6.375670000000000 -1.208300000000000 200.000000000000000
-1.785250000000000 6.410450000000000 -0.745235000000000 200.000000000000000
-1.573030000000000 6.445020000000000 -1.378950000000000 101.000000000000000
-1.572580000000000 6.448070000000000 -0.756197000000000 101.000000000000000
-1.984970000000000 6.365970000000000 -1.085280000000000 2.000000000000000
-1.761870000000000 6.404290000000000 -1.212610000000000 101.000000000000000
-1.766090000000000 6.424010000000000 -0.746125000000000 200.000000000000000
-1.555100000000000 6.469510000000000 -1.383020000000000 100.000000000000000
-1.945310000000000 6.316260000000000 -1.075640000000000 100.000000000000000
-1.954460000000000 6.349910000000000 -0.731145000000000 48.000000000000000
-1.532510000000000 6.474900000000000 -1.383020000000000 71.000000000000000
-1.531190000000000 6.474360000000000 -0.758009000000000 101.000000000000000
-1.933590000000000 6.357010000000000 -1.081420000000000 99.000000000000000
-1.934590000000000 6.364300000000000 -0.732020000000000 97.000000000000000
-1.720170000000000 6.427840000000000 -1.214760000000000 100.000000000000000
-1.722230000000000 6.440020000000000 -0.746570000000000 101.000000000000000
-1.508120000000000 6.472580000000000 -1.381390000000000 74.000000000000000
-1.505880000000000 6.468050000000000 -0.756650000000000 101.000000000000000
-1.914790000000000 6.375060000000000 -1.083350000000000 100.000000000000000
-1.914650000000000 6.378630000000000 -0.732895000000000 97.000000000000000
-1.695710000000000 6.426190000000000 -1.213320000000000 100.000000000000000
-1.702780000000000 6.457520000000000 -0.747906000000000 101.000000000000000
-1.486390000000000 6.481620000000000 -1.382210000000000 72.000000000000000
-1.485060000000000 6.481020000000000 -0.757556000000000 101.000000000000000
-1.895900000000000 6.393060000000000 -1.085280000000000 100.000000000000000
-1.895760000000000 6.396710000000000 -0.734208000000000 100.000000000000000
-1.676240000000000 6.443500000000000 -1.215480000000000 101.000000000000000
-1.677220000000000 6.451880000000000 -0.746570000000000 101.000000000000000
-1.459450000000000 6.467670000000000 -1.378140000000000 101.000000000000000
-1.462430000000000 6.486160000000000 -0.757556000000000 101.000000000000000
-1.871350000000000 6.392070000000000 -1.083990000000000 100.000000000000000
-1.867840000000000 6.384210000000000 -0.732020000000000 97.000000000000000
-1.642010000000000 6.403570000000000 -1.206860000000000 101.000000000000000
-1.655680000000000 6.461550000000000 -0.747015000000000 101.000000000000000
-1.437710000000000 6.476550000000000 -1.378950000000000 101.000000000000000
-1.436340000000000 6.475700000000000 -0.755745000000000 101.000000000000000
-1.847930000000000 6.394770000000000 -1.083350000000000 55.000000000000000
-1.849960000000000 6.405970000000000 -0.733770000000000 100.000000000000000
-1.624630000000000 6.424240000000000 -1.209730000000000 101.000000000000000
-1.631320000000000 6.455440000000000 -0.745680000000000 101.000000000000000
-1.413720000000000 6.469800000000000 -1.376510000000000 101.000000000000000
-1.420790000000000 6.507610000000000 -0.758914000000000 101.000000000000000
-1.821300000000000 6.381880000000000 -1.080140000000000 60.000000000000000
-1.824340000000000 6.396780000000000 -0.732020000000000 125.000000000000000
-1.602190000000000 6.429870000000000 -1.209730000000000 101.000000000000000
-1.608780000000000 6.461100000000000 -0.745680000000000 101.000000000000000
-1.393600000000000 6.486180000000000 -1.378950000000000 101.000000000000000
-1.397230000000000 6.508650000000000 -0.758462000000000 101.000000000000000
-1.797940000000000 6.384400000000000 -1.079500000000000 63.000000000000000
-1.798770000000000 6.391630000000000 -0.730707000000000 187.000000000000000
-1.585370000000000 6.458350000000000 -1.214040000000000 101.000000000000000
-1.590000000000000 6.482120000000000 -0.747460000000000 101.000000000000000
-1.372570000000000 6.498670000000000 -1.380580000000000 53.000000000000000
-1.376150000000000 6.521260000000000 -0.759367000000000 101.000000000000000
-1.779870000000000 6.405850000000000 -1.082070000000000 58.000000000000000
-1.777510000000000 6.401700000000000 -0.731145000000000 175.000000000000000
-1.566510000000000 6.479150000000000 -1.216920000000000 100.000000000000000
-1.563630000000000 6.472170000000000 -0.745680000000000 101.000000000000000
-1.958880000000000 6.324620000000000 -0.972041000000000 101.000000000000000
-1.966130000000000 6.351930000000000 -0.718818000000000 15.000000000000000
-1.350670000000000 6.507260000000000 -1.381390000000000 49.000000000000000
-1.352570000000000 6.522130000000000 -0.758914000000000 101.000000000000000
-1.755410000000000 6.404410000000000 -1.080780000000000 200.000000000000000
-1.749900000000000 6.388690000000000 -0.728957000000000 200.000000000000000
-1.543890000000000 6.484570000000000 -1.216920000000000 72.000000000000000
-1.544710000000000 6.493060000000000 -0.747460000000000 101.000000000000000
-1.949530000000000 6.373040000000000 -0.978432000000000 101.000000000000000
-1.956730000000000 6.400590000000000 -0.723547000000000 101.000000000000000
-1.327950000000000 6.511930000000000 -1.381390000000000 52.000000000000000
-1.330590000000000 6.530710000000000 -0.759367000000000 101.000000000000000
-1.748500000000000 6.467660000000000 -1.090420000000000 200.000000000000000
-1.732780000000000 6.413950000000000 -0.731145000000000 200.000000000000000
-1.519450000000000 6.482260000000000 -1.215480000000000 99.000000000000000
-1.520220000000000 6.490670000000000 -0.746570000000000 101.000000000000000
-1.932990000000000 6.398750000000000 -0.981337000000000 101.000000000000000
-1.922890000000000 6.369310000000000 -0.719248000000000 101.000000000000000
-1.305980000000000 6.520370000000000 -1.382210000000000 47.000000000000000
-1.307000000000000 6.531420000000000 -0.758914000000000 101.000000000000000
-1.727950000000000 6.481360000000000 -1.091700000000000 200.000000000000000
-1.711400000000000 6.423800000000000 -0.731583000000000 200.000000000000000
-1.497690000000000 6.491360000000000 -1.216200000000000 82.000000000000000
-1.496660000000000 6.492070000000000 -0.746125000000000 101.000000000000000
-1.906120000000000 6.390290000000000 -0.979013000000000 101.000000000000000
-1.894960000000000 6.356920000000000 -0.717099000000000 101.000000000000000
-1.276410000000000 6.490300000000000 -1.374880000000000 101.000000000000000
-1.285730000000000 6.543740000000000 -0.759820000000000 101.000000000000000
-1.704310000000000 6.483530000000000 -1.091060000000000 200.000000000000000
-1.686950000000000 6.422050000000000 -0.730707000000000 97.000000000000000
-1.470670000000000 6.477360000000000 -1.212610000000000 101.000000000000000
-1.477510000000000 6.512760000000000 -0.747906000000000 101.000000000000000
-1.882690000000000 6.393110000000000 -0.978432000000000 101.000000000000000
-1.870510000000000 6.355870000000000 -0.716239000000000 101.000000000000000
-1.664830000000000 6.424470000000000 -1.080140000000000 100.000000000000000
-1.667510000000000 6.439440000000000 -0.732020000000000 97.000000000000000
-1.449770000000000 6.490140000000000 -1.214040000000000 101.000000000000000
-1.453900000000000 6.513990000000000 -0.747460000000000 101.000000000000000
-1.858150000000000 6.392040000000000 -0.977270000000000 101.000000000000000
-1.854970000000000 6.385270000000000 -0.718818000000000 101.000000000000000
-1.643370000000000 6.434070000000000 -1.080780000000000 47.000000000000000
-1.643060000000000 6.437520000000000 -0.731145000000000 97.000000000000000
-1.432460000000000 6.514120000000000 -1.217630000000000 101.000000000000000
-1.429730000000000 6.507130000000000 -0.746125000000000 101.000000000000000
-1.831480000000000 6.379150000000000 -0.974365000000000 101.000000000000000
-1.833790000000000 6.391390000000000 -0.718818000000000 101.000000000000000
-1.620100000000000 6.431820000000000 -1.079500000000000 46.000000000000000
-1.624610000000000 6.454500000000000 -0.732458000000000 97.000000000000000
-1.409710000000000 6.519090000000000 -1.217630000000000 101.000000000000000
-1.410370000000000 6.527630000000000 -0.747906000000000 101.000000000000000
-1.810280000000000 6.389310000000000 -0.974946000000000 200.000000000000000
-1.811470000000000 6.397750000000000 -0.718818000000000 101.000000000000000
-1.598590000000000 6.441270000000000 -1.080140000000000 42.000000000000000
-1.600160000000000 6.452410000000000 -0.731583000000000 97.000000000000000
-1.385310000000000 6.516270000000000 -1.216200000000000 100.000000000000000
-1.385920000000000 6.524730000000000 -0.747015000000000 101.000000000000000
-1.784770000000000 6.384160000000000 -0.973203000000000 200.000000000000000
-1.784840000000000 6.388720000000000 -0.717099000000000 101.000000000000000
-1.577030000000000 6.450650000000000 -1.080780000000000 52.000000000000000
-1.578570000000000 6.461820000000000 -0.732020000000000 97.000000000000000
-1.364170000000000 6.528770000000000 -1.217630000000000 72.000000000000000
-1.368010000000000 6.552880000000000 -0.749686000000000 100.000000000000000
-1.762480000000000 6.390350000000000 -0.973203000000000 200.000000000000000
-1.761470000000000 6.391070000000000 -0.716669000000000 101.000000000000000
-1.548040000000000 6.429250000000000 -1.076280000000000 99.000000000000000
-1.560650000000000 6.486620000000000 -0.734208000000000 100.000000000000000
-1.967540000000000 6.375380000000000 -0.896173000000000 101.000000000000000
-1.340580000000000 6.529640000000000 -1.216920000000000 66.000000000000000
-1.946560000000000 6.342740000000000 -0.704362000000000 21.000000000000000
-1.343530000000000 6.549830000000000 -0.748796000000000 101.000000000000000
-1.741200000000000 6.400280000000000 -0.973784000000000 101.000000000000000
-1.742290000000000 6.408700000000000 -0.717958000000000 101.000000000000000
-1.533780000000000 6.469180000000000 -1.082070000000000 100.000000000000000
-1.536170000000000 6.484290000000000 -0.733333000000000 97.000000000000000
-1.947580000000000 6.389800000000000 -0.897238000000000 101.000000000000000
-1.317000000000000 6.530420000000000 -1.216200000000000 59.000000000000000
-1.933630000000000 6.379950000000000 -0.707740000000000 26.000000000000000
-1.321450000000000 6.558370000000000 -0.749241000000000 100.000000000000000
-1.730130000000000 6.448370000000000 -0.980175000000000 101.000000000000000
-1.719900000000000 6.414740000000000 -0.717958000000000 101.000000000000000
-1.511420000000000 6.470390000000000 -1.081420000000000 99.000000000000000
-1.514660000000000 6.489350000000000 -0.733333000000000 97.000000000000000
-1.916090000000000 6.362050000000000 -0.892445000000000 101.000000000000000
-1.299160000000000 6.554050000000000 -1.219790000000000 52.000000000000000
-1.912470000000000 6.386330000000000 -0.707740000000000 26.000000000000000
-1.298150000000000 6.554920000000000 -0.748351000000000 100.000000000000000
-1.709750000000000 6.457890000000000 -0.980756000000000 101.000000000000000
-1.703710000000000 6.439630000000000 -0.720108000000000 101.000000000000000
-1.491480000000000 6.487170000000000 -1.083350000000000 93.000000000000000
-1.492000000000000 6.494600000000000 -0.733333000000000 97.000000000000000
-1.890480000000000 6.357300000000000 -0.890848000000000 101.000000000000000
-1.276280000000000 6.558540000000000 -1.219790000000000 84.000000000000000
-1.898060000000000 6.419670000000000 -0.710696000000000 11.000000000000000
-1.275260000000000 6.559410000000000 -0.748351000000000 101.000000000000000
-1.685190000000000 6.456160000000000 -0.979594000000000 101.000000000000000
-1.682220000000000 6.449390000000000 -0.720538000000000 101.000000000000000
-1.462730000000000 6.465380000000000 -1.078850000000000 28.000000000000000
-1.469320000000000 6.499770000000000 -0.733333000000000 97.000000000000000
-1.870510000000000 6.371470000000000 -0.891913000000000 101.000000000000000
-1.650810000000000 6.416010000000000 -0.972622000000000 101.000000000000000
-1.657720000000000 6.447510000000000 -0.719678000000000 101.000000000000000
-1.441870000000000 6.478160000000000 -1.080140000000000 29.000000000000000
-1.446620000000000 6.504850000000000 -0.733333000000000 97.000000000000000
-1.854880000000000 6.400810000000000 -0.895108000000000 101.000000000000000
-1.634240000000000 6.444750000000000 -0.976108000000000 101.000000000000000
-1.639110000000000 6.468680000000000 -0.721398000000000 101.000000000000000
-1.420930000000000 6.490860000000000 -1.081420000000000 34.000000000000000
-1.422200000000000 6.502100000000000 -0.732458000000000 97.000000000000000
-1.829260000000000 6.395810000000000 -0.893510000000000 101.000000000000000
-1.826380000000000 6.423890000000000 -0.709007000000000 14.000000000000000
-1.614620000000000 6.461940000000000 -0.977851000000000 101.000000000000000
-1.613630000000000 6.462790000000000 -0.720108000000000 101.000000000000000
-1.402420000000000 6.515080000000000 -1.084640000000000 24.000000000000000
-1.803690000000000 6.390710000000000 -0.891913000000000 101.000000000000000
-1.806090000000000 6.437880000000000 -0.709852000000000 16.000000000000000
-1.592050000000000 6.467540000000000 -0.977851000000000 101.000000000000000
-1.593910000000000 6.479970000000000 -0.721398000000000 100.000000000000000
-1.376400000000000 6.504490000000000 -1.082070000000000 53.000000000000000
-1.382530000000000 6.539100000000000 -0.735521000000000 100.000000000000000
-1.783500000000000 6.404610000000000 -0.892978000000000 101.000000000000000
-1.998260000000000 6.407020000000000 -0.841897000000000 1.000000000000000
-1.777240000000000 6.421150000000000 -0.707318000000000 15.000000000000000
-1.570400000000000 6.476900000000000 -0.978432000000000 101.000000000000000
-1.571280000000000 6.485490000000000 -0.721398000000000 100.000000000000000
-1.355300000000000 6.516980000000000 -1.083350000000000 55.000000000000000
-1.361320000000000 6.551670000000000 -0.736396000000000 80.000000000000000
-1.760080000000000 6.406970000000000 -0.892445000000000 101.000000000000000
-1.965370000000000 6.379820000000000 -0.837417000000000 78.000000000000000
-1.551460000000000 6.497740000000000 -0.980756000000000 100.000000000000000
-1.548630000000000 6.490940000000000 -0.721398000000000 68.000000000000000
-1.332540000000000 6.521670000000000 -1.083350000000000 68.000000000000000
-1.339230000000000 6.560280000000000 -0.736833000000000 98.000000000000000
-1.736670000000000 6.409250000000000 -0.891913000000000 200.000000000000000
-1.935000000000000 6.360060000000000 -0.833932000000000 77.000000000000000
-1.528760000000000 6.503110000000000 -0.980756000000000 100.000000000000000
-1.525970000000000 6.496300000000000 -0.721398000000000 67.000000000000000
-1.313240000000000 6.537670000000000 -1.085280000000000 58.000000000000000
-1.315910000000000 6.556880000000000 -0.735958000000000 100.000000000000000
-1.713360000000000 6.407310000000000 -0.890848000000000 200.000000000000000
-1.913900000000000 6.366440000000000 -0.833932000000000 83.000000000000000
-1.503620000000000 6.492730000000000 -0.978432000000000 100.000000000000000
-1.505310000000000 6.505200000000000 -0.721828000000000 63.000000000000000
-1.291170000000000 6.546090000000000 -1.085920000000000 77.000000000000000
-1.293780000000000 6.565340000000000 -0.736396000000000 100.000000000000000
-1.695030000000000 6.428590000000000 -0.892978000000000 200.000000000000000
-1.887150000000000 6.357860000000000 -0.831940000000000 89.000000000000000
-1.483590000000000 6.509510000000000 -0.980175000000000 101.000000000000000
-1.483480000000000 6.514290000000000 -0.722258000000000 57.000000000000000
-1.272370000000000 6.577620000000000 -0.737271000000000 44.000000000000000
-1.669580000000000 6.422950000000000 -0.891380000000000 163.000000000000000
-1.864940000000000 6.364410000000000 -0.831940000000000 89.000000000000000
-1.460850000000000 6.514650000000000 -0.980175000000000 101.000000000000000
-1.450300000000000 6.472870000000000 -0.717099000000000 101.000000000000000
-1.652070000000000 6.447950000000000 -0.894043000000000 101.000000000000000
-1.844920000000000 6.378510000000000 -0.832936000000000 89.000000000000000
-1.433840000000000 6.500390000000000 -0.977270000000000 101.000000000000000
-1.431120000000000 6.493420000000000 -0.718818000000000 101.000000000000000
-1.629560000000000 6.453670000000000 -0.894043000000000 101.000000000000000
-1.825940000000000 6.392220000000000 -0.833932000000000 200.000000000000000
-1.414800000000000 6.516710000000000 -0.979013000000000 101.000000000000000
-1.414640000000000 6.521450000000000 -0.721398000000000 65.000000000000000
-1.606230000000000 6.451350000000000 -0.892978000000000 101.000000000000000
-1.802580000000000 6.390600000000000 -0.832936000000000 200.000000000000000
-1.394010000000000 6.525230000000000 -0.979594000000000 101.000000000000000
-1.391340000000000 6.518330000000000 -0.720538000000000 28.000000000000000
-1.587480000000000 6.472320000000000 -0.895108000000000 100.000000000000000
-1.779140000000000 6.397170000000000 -0.832936000000000 200.000000000000000
-1.372520000000000 6.541920000000000 -0.981337000000000 80.000000000000000
-1.373150000000000 6.550630000000000 -0.723547000000000 12.000000000000000
-1.563940000000000 6.473960000000000 -0.894575000000000 101.000000000000000
-1.965710000000000 6.350950000000000 -0.798635000000000 81.000000000000000
-1.758900000000000 6.410990000000000 -0.833932000000000 200.000000000000000
-1.350470000000000 6.550550000000000 -0.981918000000000 67.000000000000000
-1.542250000000000 6.483240000000000 -0.895108000000000 101.000000000000000
-1.955130000000000 6.395760000000000 -0.803406000000000 65.000000000000000
-1.735480000000000 6.413260000000000 -0.833434000000000 138.000000000000000
-1.329170000000000 6.562980000000000 -0.983080000000000 53.000000000000000
-1.520750000000000 6.488320000000000 -0.895108000000000 101.000000000000000
-1.931620000000000 6.394600000000000 -0.802452000000000 80.000000000000000
-1.720340000000000 6.441990000000000 -0.836421000000000 89.000000000000000
-1.305080000000000 6.555710000000000 -0.981337000000000 57.000000000000000
-1.495420000000000 6.482000000000000 -0.893510000000000 101.000000000000000
-1.902470000000000 6.378470000000000 -0.799589000000000 73.000000000000000
-1.697850000000000 6.447950000000000 -0.836421000000000 89.000000000000000
-1.273080000000000 6.513610000000000 -0.974365000000000 101.000000000000000
-1.474530000000000 6.494910000000000 -0.894575000000000 100.000000000000000
-1.882440000000000 6.392690000000000 -0.800543000000000 84.000000000000000
-1.677320000000000 6.461530000000000 -0.837417000000000 89.000000000000000
-1.452720000000000 6.503890000000000 -0.895108000000000 93.000000000000000
-1.847920000000000 6.357270000000000 -0.795295000000000 97.000000000000000
-1.648850000000000 6.444270000000000 -0.834429000000000 89.000000000000000
-1.430860000000000 6.512790000000000 -0.895640000000000 87.000000000000000
-1.832290000000000 6.386590000000000 -0.798158000000000 97.000000000000000
-1.623440000000000 6.438440000000000 -0.832936000000000 89.000000000000000
-1.408950000000000 6.521620000000000 -0.896173000000000 73.000000000000000
-1.809990000000000 6.392950000000000 -0.798158000000000 97.000000000000000
-1.604780000000000 6.459480000000000 -0.834927000000000 89.000000000000000
-1.384850000000000 6.514630000000000 -0.894575000000000 98.000000000000000
-1.793050000000000 6.414210000000000 -0.800066000000000 200.000000000000000
-1.585240000000000 6.472470000000000 -0.835923000000000 89.000000000000000
-1.985500000000000 6.345830000000000 -1.604310000000000 101.000000000000000
-1.362100000000000 6.519420000000000 -0.894575000000000 101.000000000000000
-1.771710000000000 6.424260000000000 -0.800543000000000 200.000000000000000
-1.958750000000000 6.337860000000000 -1.600560000000000 100.000000000000000
-1.981510000000000 6.415480000000000 -0.782835000000000 101.000000000000000
-1.340930000000000 6.531900000000000 -0.895640000000000 101.000000000000000
-1.542770000000000 6.494970000000000 -0.837417000000000 82.000000000000000
-1.936610000000000 6.344660000000000 -1.600560000000000 101.000000000000000
-1.948670000000000 6.388160000000000 -0.778666000000000 101.000000000000000
-1.320470000000000 6.548200000000000 -0.897238000000000 90.000000000000000
-1.736080000000000 6.470990000000000 -0.804837000000000 100.000000000000000
-1.519180000000000 6.496450000000000 -0.836919000000000 71.000000000000000
-1.911080000000000 6.340210000000000 -1.597740000000000 101.000000000000000
-1.933230000000000 6.417750000000000 -0.781445000000000 101.000000000000000
-1.294520000000000 6.537210000000000 -0.895108000000000 101.000000000000000
-1.712460000000000 6.473180000000000 -0.804360000000000 100.000000000000000
-1.498280000000000 6.509450000000000 -0.837915000000000 71.000000000000000
-1.891160000000000 6.354300000000000 -1.599620000000000 101.000000000000000
-1.904020000000000 6.401610000000000 -0.778666000000000 101.000000000000000
-1.275480000000000 6.561150000000000 -0.897770000000000 71.000000000000000
-1.688850000000000 6.475270000000000 -0.803883000000000 87.000000000000000
-1.474670000000000 6.510770000000000 -0.837417000000000 89.000000000000000
-1.871160000000000 6.368320000000000 -1.601500000000000 101.000000000000000
-1.882780000000000 6.412020000000000 -0.779129000000000 101.000000000000000
-1.663410000000000 6.465450000000000 -0.801974000000000 100.000000000000000
-1.453070000000000 6.515620000000000 -0.837417000000000 89.000000000000000
-1.847860000000000 6.367030000000000 -1.599620000000000 101.000000000000000
-1.852660000000000 6.387710000000000 -0.775424000000000 101.000000000000000
-1.641810000000000 6.475070000000000 -0.802452000000000 100.000000000000000
-1.431170000000000 6.524530000000000 -0.837915000000000 89.000000000000000
-1.824560000000000 6.369700000000000 -1.598680000000000 101.000000000000000
-1.834720000000000 6.409410000000000 -0.777276000000000 101.000000000000000
-1.621120000000000 6.488470000000000 -0.803406000000000 100.000000000000000
-1.410060000000000 6.537240000000000 -0.838910000000000 82.000000000000000
-1.805480000000000 6.387250000000000 -1.601500000000000 101.000000000000000
-1.811260000000000 6.411960000000000 -0.776813000000000 101.000000000000000
-1.598470000000000 6.494090000000000 -0.803406000000000 100.000000000000000
-1.392170000000000 6.565420000000000 -0.841897000000000 61.000000000000000
-1.787360000000000 6.408500000000000 -1.605250000000000 101.000000000000000
-1.788870000000000 6.418240000000000 -0.776813000000000 200.000000000000000
-1.582340000000000 6.526640000000000 -0.806745000000000 100.000000000000000
-1.367620000000000 6.562470000000000 -0.840902000000000 52.000000000000000
-1.763290000000000 6.412950000000000 -0.775424000000000 101.000000000000000
-1.554930000000000 6.512810000000000 -0.804360000000000 82.000000000000000
-1.343910000000000 6.563320000000000 -0.840404000000000 41.000000000000000
-1.739520000000000 6.409560000000000 -1.602430000000000 100.000000000000000
-1.536970000000000 6.533400000000000 -0.806268000000000 66.000000000000000
-1.322140000000000 6.567740000000000 -0.840404000000000 40.000000000000000
-1.715240000000000 6.404030000000000 -1.599620000000000 101.000000000000000
-1.730900000000000 6.467020000000000 -0.780519000000000 101.000000000000000
-1.507880000000000 6.511640000000000 -0.802929000000000 69.000000000000000
-1.297670000000000 6.564530000000000 -0.839408000000000 46.000000000000000
-1.694860000000000 6.417500000000000 -1.601500000000000 101.000000000000000
-1.703240000000000 6.453820000000000 -0.778203000000000 101.000000000000000
-1.485140000000000 6.516860000000000 -0.802929000000000 100.000000000000000
-1.668530000000000 6.408320000000000 -1.597740000000000 101.000000000000000
-1.681710000000000 6.463570000000000 -0.778666000000000 101.000000000000000
-1.464990000000000 6.533630000000000 -0.804360000000000 100.000000000000000
-1.646150000000000 6.414110000000000 -1.597740000000000 101.000000000000000
-1.663080000000000 6.484790000000000 -0.780519000000000 101.000000000000000
-1.444740000000000 6.550340000000000 -0.805791000000000 100.000000000000000
-1.628510000000000 6.438660000000000 -1.602430000000000 101.000000000000000
-1.641410000000000 6.494410000000000 -0.780982000000000 101.000000000000000
-1.421870000000000 6.555340000000000 -0.805791000000000 100.000000000000000
-1.605090000000000 6.440530000000000 -1.601500000000000 101.000000000000000
-1.618730000000000 6.500100000000000 -0.780982000000000 101.000000000000000
-1.401460000000000 6.571920000000000 -0.807222000000000 93.000000000000000
-1.593720000000000 6.491410000000000 -1.612750000000000 101.000000000000000
-1.596030000000000 6.505710000000000 -0.780982000000000 101.000000000000000
-1.376880000000000 6.569000000000000 -0.806268000000000 55.000000000000000
-1.559170000000000 6.447800000000000 -1.600560000000000 93.000000000000000
-1.570510000000000 6.499660000000000 -0.779592000000000 101.000000000000000
-1.353940000000000 6.573760000000000 -0.806268000000000 66.000000000000000
-1.539360000000000 6.464550000000000 -1.603370000000000 79.000000000000000
-1.551490000000000 6.520560000000000 -0.781445000000000 101.000000000000000
-1.327840000000000 6.562880000000000 -0.804360000000000 62.000000000000000
-1.516780000000000 6.469890000000000 -1.603370000000000 68.000000000000000
-1.525100000000000 6.510460000000000 -0.779592000000000 101.000000000000000
-1.308020000000000 6.583060000000000 -0.806268000000000 61.000000000000000
-1.489820000000000 6.456200000000000 -1.598680000000000 101.000000000000000
-1.502360000000000 6.515750000000000 -0.779592000000000 101.000000000000000
-1.285030000000000 6.587580000000000 -0.806268000000000 69.000000000000000
-1.468130000000000 6.465150000000000 -1.599620000000000 101.000000000000000
-1.479610000000000 6.520950000000000 -0.779592000000000 101.000000000000000
-1.450650000000000 6.493010000000000 -1.605250000000000 101.000000000000000
-1.455110000000000 6.518320000000000 -0.778666000000000 101.000000000000000
-1.427970000000000 6.498030000000000 -1.605250000000000 101.000000000000000
-1.439160000000000 6.554410000000000 -0.782372000000000 101.000000000000000
-1.405280000000000 6.502980000000000 -1.605250000000000 101.000000000000000
-1.413760000000000 6.547740000000000 -0.780982000000000 101.000000000000000
-1.374000000000000 6.461960000000000 -1.593990000000000 44.000000000000000
-1.393690000000000 6.560160000000000 -0.781909000000000 101.000000000000000
-1.359390000000000 6.504780000000000 -1.603370000000000 49.000000000000000
-1.369970000000000 6.561100000000000 -0.781445000000000 101.000000000000000
-1.338240000000000 6.517100000000000 -1.605250000000000 46.000000000000000
-1.346260000000000 6.561950000000000 -0.780982000000000 101.000000000000000
-1.313180000000000 6.510300000000000 -1.602430000000000 51.000000000000000
-1.323350000000000 6.566610000000000 -0.780982000000000 101.000000000000000
-1.288180000000000 6.503400000000000 -1.599620000000000 101.000000000000000
-1.300420000000000 6.571190000000000 -0.780982000000000 101.000000000000000