# This PCD file was generated using the MATLAB® pcwrite function
# from Computer Vision Toolbox®.
# .PCD v.7 - Point Cloud Data file format
VERSION .7
FIELDS x y z intensity
SIZE 8 8 8 8
TYPE F F F F
COUNT 1 1 1 1
WIDTH 372
HEIGHT 1
VIEWPOINT 0 0 0 1 0 0 0
POINTS 372
DATA ascii
0.295452000000000 6.124200000000000 -0.997891000000000 7.000000000000000
-0.090263200000000 6.076750000000000 -0.816300000000000 65.000000000000000
0.504059000000000 6.133610000000000 -1.123530000000000 5.000000000000000
0.504741000000000 6.128810000000000 -0.688696000000000 71.000000000000000
0.115355000000000 6.113370000000000 -0.897671000000000 72.000000000000000
0.317236000000000 6.131020000000000 -0.999176000000000 10.000000000000000
0.320147000000000 6.166420000000000 -0.679514000000000 2.000000000000000
-0.069095800000000 6.081000000000000 -0.816833000000000 100.000000000000000
0.525802000000000 6.135730000000000 -1.124250000000000 32.000000000000000
0.339071000000000 6.137760000000000 -1.000460000000000 12.000000000000000
0.340129000000000 6.137470000000000 -0.676451000000000 3.000000000000000
-0.047931200000000 6.089130000000000 -0.817897000000000 100.000000000000000
0.157724000000000 6.100550000000000 -0.895928000000000 13.000000000000000
0.358961000000000 6.128720000000000 -0.999176000000000 12.000000000000000
0.356983000000000 6.076770000000000 -0.669888000000000 9.000000000000000
-0.027792800000000 6.101150000000000 -0.819495000000000 100.000000000000000
-0.215935000000000 6.116230000000000 -0.767715000000000 2.000000000000000
0.178530000000000 6.119770000000000 -0.898833000000000 15.000000000000000
0.381330000000000 6.143190000000000 -1.001750000000000 11.000000000000000
0.379674000000000 6.099300000000000 -0.672513000000000 2.000000000000000
-0.006487220000000 6.093280000000000 -0.818430000000000 81.000000000000000
-0.194331000000000 6.109010000000000 -0.766719000000000 76.000000000000000
0.199374000000000 6.103290000000000 -0.896509000000000 11.000000000000000
0.401997000000000 6.130000000000000 -0.999818000000000 9.000000000000000
0.402789000000000 6.125710000000000 -0.675576000000000 6.000000000000000
0.014772700000000 6.089300000000000 -0.817897000000000 76.000000000000000
-0.172669000000000 6.097750000000000 -0.765226000000000 20.000000000000000
0.220821000000000 6.106510000000000 -0.897090000000000 43.000000000000000
0.424480000000000 6.144320000000000 -1.002390000000000 10.000000000000000
0.423894000000000 6.120300000000000 -0.675139000000000 10.000000000000000
0.036075200000000 6.097140000000000 -0.818962000000000 62.000000000000000
-0.151383000000000 6.098310000000000 -0.765226000000000 21.000000000000000
0.242292000000000 6.109650000000000 -0.897671000000000 51.000000000000000
0.445639000000000 6.138860000000000 -1.001750000000000 15.000000000000000
0.445256000000000 6.118780000000000 -0.675139000000000 12.000000000000000
0.057357900000000 6.096980000000000 -0.818962000000000 45.000000000000000
-0.130010000000000 6.094840000000000 -0.764728000000000 22.000000000000000
0.263958000000000 6.116680000000000 -0.898833000000000 46.000000000000000
0.466167000000000 6.125460000000000 -0.999818000000000 18.000000000000000
0.466914000000000 6.121160000000000 -0.675576000000000 13.000000000000000
0.078640000000000 6.096740000000000 -0.818962000000000 49.000000000000000
-0.108876000000000 6.103190000000000 -0.765723000000000 22.000000000000000
0.285492000000000 6.119670000000000 -0.899414000000000 43.000000000000000
0.488172000000000 6.131660000000000 -1.001100000000000 15.000000000000000
0.489227000000000 6.131380000000000 -0.676889000000000 13.000000000000000
0.099986100000000 6.100390000000000 -0.819495000000000 42.000000000000000
-0.087400200000000 6.091630000000000 -0.764230000000000 38.000000000000000
0.307249000000000 6.126550000000000 -0.900576000000000 36.000000000000000
0.509573000000000 6.129920000000000 -1.001100000000000 15.000000000000000
0.510296000000000 6.125670000000000 -0.676451000000000 20.000000000000000
0.121437000000000 6.107930000000000 -0.820560000000000 34.000000000000000
-0.066049700000000 6.083960000000000 -0.763234000000000 67.000000000000000
0.329056000000000 6.133340000000000 -0.901738000000000 17.000000000000000
0.531989000000000 6.139910000000000 -1.003030000000000 15.000000000000000
0.142665000000000 6.103510000000000 -0.820027000000000 30.000000000000000
-0.045046200000000 6.115900000000000 -0.767217000000000 86.000000000000000
0.348657000000000 6.100540000000000 -0.897090000000000 13.000000000000000
0.164076000000000 6.106940000000000 -0.820560000000000 25.000000000000000
-0.023559000000000 6.080300000000000 -0.762736000000000 81.000000000000000
0.371388000000000 6.122990000000000 -0.900576000000000 11.000000000000000
0.185271000000000 6.102360000000000 -0.820027000000000 28.000000000000000
-0.199390000000000 6.080990000000000 -0.730889000000000 61.000000000000000
-0.003406990000000 6.100190000000000 -0.765226000000000 86.000000000000000
0.391690000000000 6.121730000000000 -0.900576000000000 14.000000000000000
0.205773000000000 6.109640000000000 -0.821092000000000 26.000000000000000
-0.180042000000000 6.109410000000000 -0.734229000000000 78.000000000000000
0.016843900000000 6.108110000000000 -0.766221000000000 20.000000000000000
0.411191000000000 6.108550000000000 -0.898833000000000 29.000000000000000
0.226952000000000 6.104920000000000 -0.820560000000000 40.000000000000000
-0.159025000000000 6.121910000000000 -0.735660000000000 78.000000000000000
0.039384000000000 6.131820000000000 -0.769209000000000 16.000000000000000
0.433297000000000 6.103050000000000 -0.898252000000000 24.000000000000000
0.248421000000000 6.108050000000000 -0.821092000000000 42.000000000000000
-0.137565000000000 6.118450000000000 -0.735183000000000 78.000000000000000
0.060827200000000 6.135610000000000 -0.769706000000000 15.000000000000000
0.456068000000000 6.121240000000000 -0.901157000000000 20.000000000000000
0.270091000000000 6.115070000000000 -0.822157000000000 39.000000000000000
-0.116207000000000 6.118900000000000 -0.735183000000000 78.000000000000000
0.081978100000000 6.115520000000000 -0.767217000000000 12.000000000000000
0.476509000000000 6.107770000000000 -0.899414000000000 20.000000000000000
0.291057000000000 6.106170000000000 -0.821092000000000 42.000000000000000
-0.095154900000000 6.139120000000000 -0.737568000000000 74.000000000000000
0.103459000000000 6.123130000000000 -0.768213000000000 11.000000000000000
0.499113000000000 6.121850000000000 -0.901738000000000 19.000000000000000
0.312775000000000 6.113040000000000 -0.822157000000000 13.000000000000000
-0.073438700000000 6.115590000000000 -0.734706000000000 78.000000000000000
0.124266000000000 6.094960000000000 -0.764728000000000 29.000000000000000
0.519808000000000 6.112180000000000 -0.900576000000000 80.000000000000000
0.335194000000000 6.131700000000000 -0.824820000000000 7.000000000000000
-0.052057000000000 6.111840000000000 -0.734229000000000 78.000000000000000
0.145730000000000 6.102420000000000 -0.765723000000000 33.000000000000000
0.355674000000000 6.114660000000000 -0.822690000000000 7.000000000000000
-0.030842200000000 6.135810000000000 -0.737091000000000 78.000000000000000
0.167030000000000 6.101870000000000 -0.765723000000000 35.000000000000000
0.377992000000000 6.129210000000000 -0.824820000000000 6.000000000000000
-0.009405740000000 6.123960000000000 -0.735660000000000 78.000000000000000
0.188451000000000 6.105220000000000 -0.766221000000000 42.000000000000000
-0.194546000000000 6.075710000000000 -0.708720000000000 101.000000000000000
0.399385000000000 6.127850000000000 -0.824820000000000 7.000000000000000
0.012002000000000 6.139850000000000 -0.737568000000000 41.000000000000000
0.210443000000000 6.124360000000000 -0.768711000000000 15.000000000000000
-0.175924000000000 6.129510000000000 -1.479530000000000 101.000000000000000
-0.172997000000000 6.064440000000000 -0.707331000000000 101.000000000000000
0.420773000000000 6.126420000000000 -0.824820000000000 27.000000000000000
0.033412400000000 6.135800000000000 -0.737091000000000 16.000000000000000
0.232570000000000 6.143420000000000 -0.771200000000000 7.000000000000000
-0.154135000000000 6.114540000000000 -1.475780000000000 101.000000000000000
-0.152125000000000 6.076920000000000 -0.708720000000000 101.000000000000000
0.441585000000000 6.117010000000000 -0.823755000000000 32.000000000000000
0.054759100000000 6.127700000000000 -0.736137000000000 22.000000000000000
0.253357000000000 6.126710000000000 -0.769209000000000 7.000000000000000
-0.132706000000000 6.111150000000000 -1.474840000000000 101.000000000000000
-0.131939000000000 6.125080000000000 -0.714279000000000 101.000000000000000
0.462934000000000 6.115430000000000 -0.823755000000000 39.000000000000000
0.076000400000000 6.115560000000000 -0.734706000000000 20.000000000000000
0.274386000000000 6.117850000000000 -0.768213000000000 8.000000000000000
-0.111515000000000 6.119350000000000 -1.476720000000000 101.000000000000000
-0.110414000000000 6.117560000000000 -0.713353000000000 101.000000000000000
0.483211000000000 6.113860000000000 -0.823755000000000 39.000000000000000
0.096342400000000 6.119240000000000 -0.735183000000000 16.000000000000000
0.295245000000000 6.128800000000000 -0.769706000000000 6.000000000000000
-0.091337300000000 6.127470000000000 -1.478590000000000 101.000000000000000
-0.090185100000000 6.121860000000000 -0.713816000000000 101.000000000000000
0.505202000000000 6.120040000000000 -0.824820000000000 44.000000000000000
0.117549000000000 6.110930000000000 -0.734229000000000 43.000000000000000
0.316023000000000 6.115850000000000 -0.768213000000000 20.000000000000000
-0.069681600000000 6.104420000000000 -1.472960000000000 101.000000000000000
-0.068770600000000 6.118170000000000 -0.713353000000000 101.000000000000000
0.139150000000000 6.122390000000000 -0.735660000000000 60.000000000000000
0.337806000000000 6.122630000000000 -0.769209000000000 25.000000000000000
-0.048619300000000 6.135730000000000 -1.480470000000000 95.000000000000000
-0.047352200000000 6.110430000000000 -0.712426000000000 101.000000000000000
0.160625000000000 6.125840000000000 -0.736137000000000 53.000000000000000
0.358014000000000 6.101600000000000 -0.766719000000000 24.000000000000000
-0.027184100000000 6.131970000000000 -1.479530000000000 66.000000000000000
-0.026039500000000 6.114530000000000 -0.712889000000000 101.000000000000000
0.182361000000000 6.137150000000000 -0.737568000000000 43.000000000000000
0.380542000000000 6.120120000000000 -0.769209000000000 22.000000000000000
-0.005790300000000 6.143700000000000 -1.482350000000000 54.000000000000000
-0.004698710000000 6.118550000000000 -0.713353000000000 101.000000000000000
0.203650000000000 6.132510000000000 -0.737091000000000 35.000000000000000
0.402423000000000 6.126680000000000 -0.770204000000000 19.000000000000000
0.015635400000000 6.135900000000000 -1.480470000000000 52.000000000000000
0.016659100000000 6.118530000000000 -0.713353000000000 101.000000000000000
0.225056000000000 6.131760000000000 -0.737091000000000 11.000000000000000
0.423830000000000 6.141150000000000 -0.772196000000000 4.000000000000000
0.035937100000000 6.128040000000000 -1.478590000000000 88.000000000000000
0.036996700000000 6.126390000000000 -0.714279000000000 101.000000000000000
0.245388000000000 6.130980000000000 -0.737091000000000 10.000000000000000
0.444977000000000 6.135670000000000 -0.771698000000000 5.000000000000000
0.057073100000000 6.100660000000000 -1.472030000000000 101.000000000000000
0.058305900000000 6.118280000000000 -0.713353000000000 101.000000000000000
0.266960000000000 6.134050000000000 -0.737568000000000 10.000000000000000
0.465790000000000 6.126170000000000 -0.770702000000000 3.000000000000000
0.078967400000000 6.147080000000000 -1.483280000000000 101.000000000000000
0.079662300000000 6.118040000000000 -0.713353000000000 101.000000000000000
0.288557000000000 6.137050000000000 -0.738046000000000 9.000000000000000
0.487172000000000 6.124500000000000 -0.770702000000000 4.000000000000000
0.099916100000000 6.115660000000000 -1.475780000000000 101.000000000000000
0.101346000000000 6.137580000000000 -0.715669000000000 101.000000000000000
0.309176000000000 6.120140000000000 -0.736137000000000 29.000000000000000
0.505919000000000 6.091120000000000 -0.766719000000000 19.000000000000000
0.121572000000000 6.130830000000000 -1.479530000000000 101.000000000000000
0.122372000000000 6.117330000000000 -0.713353000000000 101.000000000000000
0.331394000000000 6.134880000000000 -0.738046000000000 32.000000000000000
0.143153000000000 6.138140000000000 -1.481410000000000 47.000000000000000
0.143631000000000 6.112900000000000 -0.712889000000000 101.000000000000000
0.353035000000000 6.137660000000000 -0.738523000000000 34.000000000000000
0.164265000000000 6.125940000000000 -1.478590000000000 31.000000000000000
0.165183000000000 6.120300000000000 -0.713816000000000 101.000000000000000
0.374457000000000 6.136390000000000 -0.738523000000000 32.000000000000000
0.186237000000000 6.144770000000000 -1.483280000000000 30.000000000000000
0.186788000000000 6.127630000000000 -0.714742000000000 101.000000000000000
0.396898000000000 6.150890000000000 -0.740431000000000 40.000000000000000
0.207685000000000 6.144080000000000 -1.483280000000000 32.000000000000000
0.208176000000000 6.126940000000000 -0.714742000000000 101.000000000000000
0.417558000000000 6.137580000000000 -0.739000000000000 7.000000000000000
0.229130000000000 6.143320000000000 -1.483280000000000 33.000000000000000
0.229711000000000 6.130150000000000 -0.715205000000000 101.000000000000000
0.439829000000000 6.147970000000000 -0.740431000000000 7.000000000000000
0.250256000000000 6.134710000000000 -1.481410000000000 101.000000000000000
0.250945000000000 6.125340000000000 -0.714742000000000 97.000000000000000
0.460098000000000 6.130560000000000 -0.738523000000000 8.000000000000000
0.271841000000000 6.137680000000000 -1.482350000000000 101.000000000000000
0.272854000000000 6.136330000000000 -0.716132000000000 100.000000000000000
0.481046000000000 6.136920000000000 -0.739477000000000 7.000000000000000
0.293117000000000 6.156170000000000 -1.487040000000000 101.000000000000000
0.293391000000000 6.139360000000000 -0.716595000000000 86.000000000000000
0.500520000000000 6.111450000000000 -0.736614000000000 31.000000000000000
0.313811000000000 6.139570000000000 -1.483280000000000 101.000000000000000
0.314006000000000 6.122430000000000 -0.714742000000000 101.000000000000000
0.335452000000000 6.142320000000000 -1.484220000000000 50.000000000000000
0.335158000000000 6.117330000000000 -0.714279000000000 101.000000000000000
0.356214000000000 6.129470000000000 -1.481410000000000 24.000000000000000
0.356971000000000 6.124050000000000 -0.715205000000000 101.000000000000000
0.378564000000000 6.143710000000000 -1.485160000000000 26.000000000000000
0.379081000000000 6.134670000000000 -0.716595000000000 100.000000000000000
0.400513000000000 6.150120000000000 -1.487040000000000 25.000000000000000
0.400752000000000 6.137270000000000 -0.717058000000000 77.000000000000000
0.421978000000000 6.148680000000000 -1.487040000000000 26.000000000000000
0.421627000000000 6.127910000000000 -0.716132000000000 24.000000000000000
0.442599000000000 6.135530000000000 -1.484220000000000 100.000000000000000
0.445021000000000 6.154140000000000 -0.719374000000000 28.000000000000000
0.464600000000000 6.141710000000000 -1.486100000000000 100.000000000000000
0.466800000000000 6.156510000000000 -0.719838000000000 23.000000000000000
0.487107000000000 6.167270000000000 -1.492670000000000 101.000000000000000
0.487214000000000 6.154930000000000 -0.719838000000000 26.000000000000000
0.507673000000000 6.153900000000000 -1.489850000000000 101.000000000000000
0.507059000000000 6.133390000000000 -0.717521000000000 101.000000000000000
0.529818000000000 6.159840000000000 -1.491730000000000 101.000000000000000
-0.174422000000000 6.106930000000000 -1.269870000000000 101.000000000000000
-0.152417000000000 6.080100000000000 -1.264170000000000 101.000000000000000
-0.131277000000000 6.084510000000000 -1.264990000000000 101.000000000000000
-0.110179000000000 6.092760000000000 -1.266620000000000 101.000000000000000
-0.089024800000000 6.100940000000000 -1.268240000000000 101.000000000000000
-0.067815000000000 6.109040000000000 -1.269870000000000 101.000000000000000
-0.066260800000000 6.064400000000000 -0.690992000000000 16.000000000000000
-0.046698600000000 6.136660000000000 -1.275570000000000 81.000000000000000
-0.044914400000000 6.040750000000000 -0.688276000000000 87.000000000000000
-0.025245100000000 6.128950000000000 -1.273940000000000 59.000000000000000
-0.023859400000000 6.048820000000000 -0.689181000000000 100.000000000000000
-0.003858350000000 6.140750000000000 -1.276380000000000 50.000000000000000
-0.002753910000000 6.068740000000000 -0.691445000000000 101.000000000000000
-0.180452000000000 6.072910000000000 -1.109160000000000 101.000000000000000
0.017520800000000 6.121140000000000 -1.272310000000000 53.000000000000000
0.018442000000000 6.072680000000000 -0.691898000000000 77.000000000000000
-0.159562000000000 6.085300000000000 -1.111320000000000 101.000000000000000
0.038912400000000 6.124960000000000 -1.273130000000000 76.000000000000000
0.039743300000000 6.088480000000000 -0.693709000000000 92.000000000000000
-0.138677000000000 6.101550000000000 -1.114190000000000 101.000000000000000
0.059983900000000 6.093460000000000 -1.266620000000000 101.000000000000000
0.061035600000000 6.092280000000000 -0.694162000000000 100.000000000000000
-0.116848000000000 6.074460000000000 -1.109160000000000 101.000000000000000
0.081462500000000 6.108880000000000 -1.269870000000000 101.000000000000000
0.082032800000000 6.072160000000000 -0.691898000000000 101.000000000000000
-0.096262600000000 6.114180000000000 -1.116340000000000 101.000000000000000
0.102984000000000 6.120300000000000 -1.272310000000000 101.000000000000000
0.103498000000000 6.087730000000000 -0.693709000000000 101.000000000000000
-0.074823200000000 6.106610000000000 -1.114910000000000 101.000000000000000
0.124108000000000 6.108160000000000 -1.269870000000000 101.000000000000000
0.124748000000000 6.087330000000000 -0.693709000000000 101.000000000000000
-0.053575600000000 6.114700000000000 -1.116340000000000 91.000000000000000
0.145802000000000 6.123350000000000 -1.273130000000000 35.000000000000000
0.145710000000000 6.074940000000000 -0.692351000000000 101.000000000000000
-0.032148100000000 6.099110000000000 -1.113470000000000 78.000000000000000
-0.031340200000000 6.149480000000000 -0.688696000000000 42.000000000000000
0.166962000000000 6.114970000000000 -1.271500000000000 21.000000000000000
0.167460000000000 6.094260000000000 -0.694615000000000 101.000000000000000
-0.010858000000000 6.099190000000000 -1.113470000000000 84.000000000000000
-0.009848820000000 6.133650000000000 -0.686916000000000 13.000000000000000
0.189270000000000 6.145670000000000 -1.278010000000000 21.000000000000000
0.188117000000000 6.073770000000000 -0.692351000000000 101.000000000000000
-0.195261000000000 6.084770000000000 -0.990823000000000 5.000000000000000
0.010459100000000 6.114930000000000 -1.116340000000000 82.000000000000000
0.210319000000000 6.133230000000000 -1.275570000000000 23.000000000000000
0.209454000000000 6.077050000000000 -0.692804000000000 101.000000000000000
-0.174246000000000 6.093300000000000 -0.992108000000000 90.000000000000000
0.031742700000000 6.103050000000000 -1.114190000000000 100.000000000000000
0.230656000000000 6.132500000000000 -1.275570000000000 25.000000000000000
0.229305000000000 6.068380000000000 -0.691898000000000 101.000000000000000
-0.154039000000000 6.093850000000000 -0.992108000000000 13.000000000000000
0.052115100000000 6.118650000000000 -1.117060000000000 55.000000000000000
0.252544000000000 6.143400000000000 -1.278010000000000 101.000000000000000
0.250650000000000 6.071510000000000 -0.692351000000000 101.000000000000000
-0.132680000000000 6.090400000000000 -0.991465000000000 12.000000000000000
0.073709000000000 6.138100000000000 -1.120650000000000 41.000000000000000
0.272416000000000 6.107260000000000 -1.270690000000000 100.000000000000000
0.272020000000000 6.074570000000000 -0.692804000000000 101.000000000000000
-0.111637000000000 6.102670000000000 -0.993393000000000 12.000000000000000
0.094890600000000 6.122070000000000 -1.117780000000000 48.000000000000000
0.095693100000000 6.105080000000000 -0.683799000000000 32.000000000000000
0.294297000000000 6.118010000000000 -1.273130000000000 100.000000000000000
0.293989000000000 6.089460000000000 -0.694615000000000 101.000000000000000
-0.090333700000000 6.103020000000000 -0.993393000000000 11.000000000000000
0.116410000000000 6.129570000000000 -1.119220000000000 36.000000000000000
0.117384000000000 6.124580000000000 -0.686025000000000 46.000000000000000
0.317670000000000 6.156060000000000 -1.281270000000000 100.000000000000000
0.315244000000000 6.088400000000000 -0.694615000000000 101.000000000000000
-0.068851000000000 6.087510000000000 -0.990823000000000 40.000000000000000
0.137628000000000 6.121260000000000 -1.117780000000000 100.000000000000000
0.138492000000000 6.112210000000000 -0.684690000000000 59.000000000000000
0.338510000000000 6.143180000000000 -1.278830000000000 46.000000000000000
0.336714000000000 6.091230000000000 -0.695068000000000 101.000000000000000
-0.047570400000000 6.083760000000000 -0.990180000000000 47.000000000000000
0.159199000000000 6.128610000000000 -1.119220000000000 100.000000000000000
0.160346000000000 6.131560000000000 -0.686916000000000 48.000000000000000
0.361097000000000 6.161510000000000 -1.282900000000000 15.000000000000000
0.357974000000000 6.090020000000000 -0.695068000000000 101.000000000000000
-0.026470500000000 6.115480000000000 -0.995320000000000 47.000000000000000
0.180707000000000 6.131950000000000 -1.119940000000000 97.000000000000000
0.181160000000000 6.111100000000000 -0.684690000000000 58.000000000000000
-0.207151000000000 6.150550000000000 -0.903481000000000 2.000000000000000
0.381632000000000 6.144580000000000 -1.279640000000000 14.000000000000000
0.380712000000000 6.112530000000000 -0.697785000000000 101.000000000000000
-0.005116720000000 6.107640000000000 -0.994035000000000 44.000000000000000
0.201851000000000 6.123410000000000 -1.118500000000000 91.000000000000000
0.202885000000000 6.122340000000000 -0.686025000000000 58.000000000000000
-0.184248000000000 6.103760000000000 -0.896509000000000 101.000000000000000
0.403334000000000 6.147120000000000 -1.280450000000000 14.000000000000000
0.403612000000000 6.134960000000000 -0.700502000000000 101.000000000000000
0.016192500000000 6.103670000000000 -0.993393000000000 39.000000000000000
0.223224000000000 6.122670000000000 -1.118500000000000 80.000000000000000
0.224400000000000 6.125570000000000 -0.686471000000000 63.000000000000000
-0.162096000000000 6.072720000000000 -0.891861000000000 101.000000000000000
0.425869000000000 6.161300000000000 -1.283710000000000 15.000000000000000
0.422827000000000 6.101800000000000 -0.696879000000000 98.000000000000000
0.037498100000000 6.103570000000000 -0.993393000000000 8.000000000000000
0.245223000000000 6.137580000000000 -1.121370000000000 13.000000000000000
0.244825000000000 6.100920000000000 -0.683799000000000 77.000000000000000
-0.140346000000000 6.049510000000000 -0.888375000000000 101.000000000000000
0.445955000000000 6.140240000000000 -1.279640000000000 90.000000000000000
0.444989000000000 6.112170000000000 -0.698237000000000 92.000000000000000
0.059031600000000 6.127090000000000 -0.997248000000000 7.000000000000000
0.264894000000000 6.121010000000000 -1.118500000000000 11.000000000000000
0.265573000000000 6.111990000000000 -0.685135000000000 58.000000000000000
-0.121150000000000 6.093460000000000 -0.894766000000000 101.000000000000000
0.465128000000000 6.123110000000000 -1.276380000000000 100.000000000000000
0.466462000000000 6.126520000000000 -0.700049000000000 60.000000000000000
0.079196000000000 6.115020000000000 -0.995320000000000 7.000000000000000
0.285191000000000 6.120100000000000 -1.118500000000000 10.000000000000000
0.286396000000000 6.122990000000000 -0.686471000000000 51.000000000000000
-0.101074000000000 6.101750000000000 -0.895928000000000 101.000000000000000
0.485568000000000 6.109740000000000 -1.273940000000000 100.000000000000000
0.488160000000000 6.128810000000000 -0.700502000000000 45.000000000000000
0.100411000000000 6.106810000000000 -0.994035000000000 5.000000000000000
0.308806000000000 6.142590000000000 -1.122810000000000 9.000000000000000
0.308236000000000 6.109980000000000 -0.685135000000000 69.000000000000000
-0.078708800000000 6.102080000000000 -0.895928000000000 101.000000000000000
0.509159000000000 6.135330000000000 -1.279640000000000 92.000000000000000
0.505598000000000 6.079540000000000 -0.695068000000000 99.000000000000000
0.121963000000000 6.118270000000000 -0.995963000000000 18.000000000000000
0.328555000000000 6.110040000000000 -1.117060000000000 45.000000000000000
0.329133000000000 6.100930000000000 -0.684245000000000 101.000000000000000
-0.057370900000000 6.098360000000000 -0.895347000000000 25.000000000000000
0.529560000000000 6.121810000000000 -1.277200000000000 101.000000000000000
0.143042000000000 6.105960000000000 -0.994035000000000 28.000000000000000
0.350556000000000 6.120640000000000 -1.119220000000000 53.000000000000000
0.351795000000000 6.123560000000000 -0.686916000000000 101.000000000000000
-0.036130200000000 6.106440000000000 -0.896509000000000 27.000000000000000
0.164674000000000 6.117270000000000 -0.995963000000000 28.000000000000000
0.371919000000000 6.119380000000000 -1.119220000000000 58.000000000000000
0.373652000000000 6.130230000000000 -0.687806000000000 61.000000000000000
-0.014852900000000 6.122350000000000 -0.898833000000000 26.000000000000000
0.186266000000000 6.124550000000000 -0.997248000000000 23.000000000000000
-0.200236000000000 6.129660000000000 -0.823755000000000 94.000000000000000
0.393782000000000 6.125900000000000 -1.120650000000000 58.000000000000000
0.395048000000000 6.128890000000000 -0.687806000000000 83.000000000000000
0.006497120000000 6.102580000000000 -0.895928000000000 23.000000000000000
0.207510000000000 6.119910000000000 -0.996606000000000 24.000000000000000
-0.178144000000000 6.106540000000000 -0.820560000000000 101.000000000000000
0.415696000000000 6.132340000000000 -1.122090000000000 68.000000000000000
0.416170000000000 6.123510000000000 -0.687361000000000 78.000000000000000
0.027636800000000 6.066900000000000 -0.890699000000000 68.000000000000000
0.228871000000000 6.119150000000000 -0.996606000000000 4.000000000000000
-0.156522000000000 6.095240000000000 -0.818962000000000 38.000000000000000
0.437826000000000 6.125980000000000 -0.687806000000000 78.000000000000000
0.049164400000000 6.110300000000000 -0.897090000000000 82.000000000000000
0.249423000000000 6.098590000000000 -0.993393000000000 4.000000000000000
-0.135685000000000 6.115560000000000 -0.821625000000000 48.000000000000000
0.460845000000000 6.160680000000000 -1.127840000000000 6.000000000000000
0.460099000000000 6.136310000000000 -0.689142000000000 55.000000000000000
0.070356000000000 6.098220000000000 -0.895347000000000 82.000000000000000
0.272285000000000 6.133180000000000 -0.999176000000000 5.000000000000000
-0.113818000000000 6.088250000000000 -0.817897000000000 62.000000000000000
0.480504000000000 6.135500000000000 -1.123530000000000 6.000000000000000
0.482449000000000 6.146550000000000 -0.690477000000000 38.000000000000000
0.091880200000000 6.113770000000000 -0.897671000000000 79.000000000000000
0.293314000000000 6.124310000000000 -0.997891000000000 7.000000000000000
-0.092565100000000 6.088610000000000 -0.817897000000000 67.000000000000000
0.502239000000000 6.137710000000000 -1.124250000000000 6.000000000000000
0.503901000000000 6.144830000000000 -0.690477000000000 62.000000000000000
0.113074000000000 6.105490000000000 -0.896509000000000 66.000000000000000