# This PCD file was generated using the MATLAB® pcwrite function
# from Computer Vision Toolbox®.
# .PCD v.7 - Point Cloud Data file format
VERSION .7
FIELDS x y z intensity
SIZE 8 8 8 8
TYPE F F F F
COUNT 1 1 1 1
WIDTH 399
HEIGHT 1
VIEWPOINT 0 0 0 1 0 0 0
POINTS 399
DATA ascii
-1.762990000000000 7.542590000000000 -0.882532000000000 66.000000000000000
-1.746000000000000 7.583270000000000 -1.617460000000000 74.000000000000000
-1.742000000000000 7.571930000000000 -0.885249000000000 32.000000000000000
-1.703070000000000 7.516750000000000 -1.601990000000000 11.000000000000000
-1.711170000000000 7.558590000000000 -0.882985000000000 37.000000000000000
-1.698980000000000 7.622030000000000 -1.623160000000000 9.000000000000000
-1.685640000000000 7.568390000000000 -0.883438000000000 38.000000000000000
-1.669850000000000 7.616440000000000 -1.620710000000000 11.000000000000000
-1.659210000000000 7.574230000000000 -0.883438000000000 53.000000000000000
-1.630040000000000 7.560970000000000 -1.607690000000000 42.000000000000000
-1.626060000000000 7.548900000000000 -0.879815000000000 101.000000000000000
-1.606890000000000 7.581940000000000 -1.610950000000000 101.000000000000000
-1.601350000000000 7.562300000000000 -0.880721000000000 101.000000000000000
-1.575620000000000 7.564500000000000 -1.606060000000000 100.000000000000000
-1.572510000000000 7.556170000000000 -0.879363000000000 101.000000000000000
-1.555240000000000 7.592700000000000 -1.610950000000000 101.000000000000000
-1.554620000000000 7.596390000000000 -0.883438000000000 101.000000000000000
-1.538770000000000 7.648000000000000 -1.621530000000000 18.000000000000000
-1.530440000000000 7.613460000000000 -0.884796000000000 48.000000000000000
-1.759990000000000 7.597920000000000 -1.423810000000000 64.000000000000000
-1.753310000000000 7.575130000000000 -0.870776000000000 101.000000000000000
-1.512070000000000 7.653320000000000 -1.621530000000000 12.000000000000000
-1.500780000000000 7.603160000000000 -0.882985000000000 51.000000000000000
-1.735200000000000 7.611690000000000 -1.425240000000000 19.000000000000000
-1.724210000000000 7.569580000000000 -0.869440000000000 33.000000000000000
-1.482360000000000 7.643170000000000 -1.618270000000000 13.000000000000000
-1.472720000000000 7.600550000000000 -0.882079000000000 62.000000000000000
-1.705180000000000 7.602340000000000 -1.422370000000000 15.000000000000000
-1.699520000000000 7.583310000000000 -0.870331000000000 31.000000000000000
-1.450550000000000 7.621370000000000 -1.612570000000000 41.000000000000000
-1.445430000000000 7.601740000000000 -0.881627000000000 101.000000000000000
-1.675720000000000 7.588740000000000 -1.418780000000000 17.000000000000000
-1.670940000000000 7.573380000000000 -0.868550000000000 42.000000000000000
-1.435340000000000 7.680030000000000 -1.623970000000000 101.000000000000000
-1.421680000000000 7.614300000000000 -0.882532000000000 101.000000000000000
-1.654230000000000 7.617620000000000 -1.423090000000000 27.000000000000000
-1.647020000000000 7.590820000000000 -0.869886000000000 101.000000000000000
-1.399340000000000 7.634920000000000 -1.613390000000000 101.000000000000000
-1.394370000000000 7.615310000000000 -0.882079000000000 101.000000000000000
-1.625980000000000 7.615650000000000 -1.421650000000000 101.000000000000000
-1.618850000000000 7.588740000000000 -0.868995000000000 101.000000000000000
-1.376150000000000 7.659030000000000 -1.617460000000000 101.000000000000000
-1.365680000000000 7.608390000000000 -0.880721000000000 200.000000000000000
-1.597770000000000 7.613580000000000 -1.420210000000000 101.000000000000000
-1.592350000000000 7.594350000000000 -0.868995000000000 101.000000000000000
-1.348720000000000 7.659930000000000 -1.616640000000000 101.000000000000000
-1.564030000000000 7.584420000000000 -1.413750000000000 101.000000000000000
-1.566640000000000 7.603750000000000 -0.869440000000000 101.000000000000000
-1.317250000000000 7.645160000000000 -0.883891000000000 42.000000000000000
-1.546140000000000 7.632260000000000 -1.421650000000000 101.000000000000000
-1.544820000000000 7.632550000000000 -0.872111000000000 45.000000000000000
-1.302390000000000 7.711640000000000 -1.625600000000000 13.000000000000000
-1.288570000000000 7.637950000000000 -0.882532000000000 45.000000000000000
-1.775710000000000 7.583870000000000 -0.857159000000000 10.000000000000000
-1.516420000000000 7.622170000000000 -1.418780000000000 28.000000000000000
-1.515840000000000 7.626200000000000 -0.870776000000000 45.000000000000000
-1.272270000000000 7.696820000000000 -1.621530000000000 12.000000000000000
-1.259960000000000 7.630640000000000 -0.881174000000000 101.000000000000000
-1.748890000000000 7.582540000000000 -1.266480000000000 98.000000000000000
-1.744760000000000 7.570650000000000 -0.854972000000000 78.000000000000000
-1.495090000000000 7.654450000000000 -1.423810000000000 21.000000000000000
-1.487690000000000 7.623640000000000 -0.869886000000000 47.000000000000000
-1.237890000000000 7.654820000000000 -1.611760000000000 90.000000000000000
-1.232680000000000 7.631070000000000 -0.880721000000000 101.000000000000000
-1.721540000000000 7.584740000000000 -1.265840000000000 19.000000000000000
-1.717440000000000 7.572810000000000 -0.854534000000000 44.000000000000000
-1.469100000000000 7.663490000000000 -1.424520000000000 42.000000000000000
-1.462560000000000 7.636600000000000 -0.870776000000000 101.000000000000000
-1.209330000000000 7.647490000000000 -1.609320000000000 70.000000000000000
-1.204800000000000 7.627470000000000 -0.879815000000000 101.000000000000000
-1.689890000000000 7.567590000000000 -1.261980000000000 22.000000000000000
-1.691860000000000 7.582640000000000 -0.854972000000000 42.000000000000000
-1.440770000000000 7.652850000000000 -1.421650000000000 101.000000000000000
-1.435030000000000 7.629690000000000 -0.869440000000000 101.000000000000000
-1.192350000000000 7.705640000000000 -1.620710000000000 73.000000000000000
-1.181320000000000 7.643210000000000 -0.881174000000000 101.000000000000000
-1.666480000000000 7.580860000000000 -1.263270000000000 23.000000000000000
-1.666710000000000 7.588210000000000 -0.854972000000000 61.000000000000000
-1.406180000000000 7.615270000000000 -1.413750000000000 101.000000000000000
-1.407660000000000 7.630740000000000 -0.868995000000000 101.000000000000000
-1.161930000000000 7.686520000000000 -1.615830000000000 72.000000000000000
-1.153450000000000 7.639430000000000 -0.880268000000000 36.000000000000000
-1.645020000000000 7.609790000000000 -1.267120000000000 101.000000000000000
-1.640210000000000 7.593980000000000 -0.854972000000000 101.000000000000000
-1.379590000000000 7.620130000000000 -1.413750000000000 101.000000000000000
-1.383850000000000 7.651250000000000 -0.870776000000000 101.000000000000000
-1.139660000000000 7.721530000000000 -1.622340000000000 10.000000000000000
-1.128510000000000 7.655200000000000 -0.881627000000000 35.000000000000000
-1.615160000000000 7.600040000000000 -1.264550000000000 101.000000000000000
-1.611220000000000 7.587990000000000 -0.853659000000000 101.000000000000000
-1.356380000000000 7.636290000000000 -1.415900000000000 101.000000000000000
-1.357080000000000 7.647970000000000 -0.869886000000000 55.000000000000000
-1.115730000000000 7.736890000000000 -1.624780000000000 7.000000000000000
-1.103690000000000 7.662840000000000 -0.882079000000000 35.000000000000000
-1.589950000000000 7.605350000000000 -1.264550000000000 101.000000000000000
-1.587670000000000 7.601080000000000 -0.854534000000000 101.000000000000000
-1.337140000000000 7.683620000000000 -1.423810000000000 34.000000000000000
-1.331060000000000 7.656580000000000 -0.870331000000000 47.000000000000000
-1.087630000000000 7.732980000000000 -1.623160000000000 7.000000000000000
-1.081350000000000 7.698130000000000 -0.885702000000000 41.000000000000000
-1.565770000000000 7.622460000000000 -1.266480000000000 200.000000000000000
-1.560330000000000 7.602680000000000 -0.854096000000000 163.000000000000000
-1.303040000000000 7.645570000000000 -1.415900000000000 23.000000000000000
-1.302990000000000 7.653340000000000 -0.869440000000000 50.000000000000000
-1.049990000000000 7.659130000000000 -1.606880000000000 35.000000000000000
-1.545410000000000 7.658840000000000 -1.271620000000000 100.000000000000000
-1.280870000000000 7.677240000000000 -1.420930000000000 17.000000000000000
-1.278880000000000 7.673530000000000 -0.871221000000000 55.000000000000000
-1.762030000000000 7.578450000000000 -1.142280000000000 101.000000000000000
-1.761170000000000 7.580770000000000 -0.841344000000000 101.000000000000000
-1.507150000000000 7.606090000000000 -1.261980000000000 30.000000000000000
-1.511850000000000 7.636790000000000 -0.856722000000000 80.000000000000000
-1.250260000000000 7.658370000000000 -1.416620000000000 101.000000000000000
-1.250800000000000 7.670100000000000 -0.870331000000000 101.000000000000000
-1.732910000000000 7.572980000000000 -1.140540000000000 101.000000000000000
-1.732040000000000 7.575240000000000 -0.840054000000000 46.000000000000000
-1.480590000000000 7.611310000000000 -1.261980000000000 30.000000000000000
-1.482150000000000 7.626410000000000 -0.854972000000000 82.000000000000000
-1.219800000000000 7.639370000000000 -1.412310000000000 101.000000000000000
-1.221520000000000 7.658720000000000 -0.868550000000000 101.000000000000000
-1.704730000000000 7.571270000000000 -1.139370000000000 101.000000000000000
-1.703840000000000 7.573480000000000 -0.839195000000000 46.000000000000000
-1.459200000000000 7.643570000000000 -1.266480000000000 101.000000000000000
-1.453280000000000 7.619820000000000 -0.853659000000000 101.000000000000000
-1.198710000000000 7.670590000000000 -1.417340000000000 101.000000000000000
-1.196730000000000 7.666650000000000 -0.868995000000000 101.000000000000000
-1.682180000000000 7.588470000000000 -1.141120000000000 101.000000000000000
-1.675280000000000 7.563550000000000 -0.837475000000000 54.000000000000000
-1.433110000000000 7.644490000000000 -1.265840000000000 101.000000000000000
-1.428740000000000 7.628510000000000 -0.854096000000000 101.000000000000000
-1.174900000000000 7.694170000000000 -1.420930000000000 101.000000000000000
-1.170560000000000 7.674710000000000 -0.869440000000000 101.000000000000000
-1.649780000000000 7.567230000000000 -1.137050000000000 101.000000000000000
-1.652250000000000 7.584900000000000 -0.839195000000000 101.000000000000000
-1.404280000000000 7.637800000000000 -1.263910000000000 200.000000000000000
-1.404260000000000 7.645180000000000 -0.855409000000000 200.000000000000000
-1.150790000000000 7.725930000000000 -0.874783000000000 30.000000000000000
-1.630000000000000 7.603900000000000 -1.141700000000000 64.000000000000000
-1.624100000000000 7.582840000000000 -0.838335000000000 101.000000000000000
-1.395820000000000 7.743670000000000 -1.280620000000000 200.000000000000000
-1.387430000000000 7.704820000000000 -0.861535000000000 200.000000000000000
-1.121720000000000 7.706080000000000 -1.421650000000000 14.000000000000000
-1.121530000000000 7.714170000000000 -0.873002000000000 30.000000000000000
-1.600180000000000 7.594050000000000 -1.139370000000000 51.000000000000000
-1.597620000000000 7.588470000000000 -0.838335000000000 101.000000000000000
-1.359160000000000 7.694070000000000 -1.271620000000000 100.000000000000000
-1.094820000000000 7.709950000000000 -1.421650000000000 10.000000000000000
-1.094590000000000 7.718040000000000 -0.873002000000000 24.000000000000000
-1.575270000000000 7.607340000000000 -1.140540000000000 63.000000000000000
-1.573540000000000 7.605680000000000 -0.839624000000000 101.000000000000000
-1.322870000000000 7.644300000000000 -1.262620000000000 24.000000000000000
-1.322770000000000 7.651630000000000 -0.854534000000000 73.000000000000000
-1.063040000000000 7.678650000000000 -1.415190000000000 44.000000000000000
-1.063290000000000 7.690310000000000 -0.869440000000000 99.000000000000000
-1.552650000000000 7.632180000000000 -1.143440000000000 101.000000000000000
-1.548560000000000 7.618920000000000 -0.840484000000000 64.000000000000000
-1.296840000000000 7.652770000000000 -1.263270000000000 24.000000000000000
-1.295390000000000 7.652280000000000 -0.854096000000000 66.000000000000000
-1.768830000000000 7.576540000000000 -0.825979000000000 100.000000000000000
-1.520570000000000 7.610390000000000 -1.139370000000000 101.000000000000000
-1.517290000000000 7.600880000000000 -0.837905000000000 64.000000000000000
-1.270770000000000 7.661140000000000 -1.263910000000000 26.000000000000000
-1.269970000000000 7.664600000000000 -0.854972000000000 100.000000000000000
-1.759170000000000 7.601020000000000 -1.047930000000000 101.000000000000000
-1.743700000000000 7.582360000000000 -0.825979000000000 79.000000000000000
-1.494560000000000 7.611510000000000 -1.138790000000000 101.000000000000000
-1.492070000000000 7.605870000000000 -0.837905000000000 58.000000000000000
-1.246620000000000 7.673110000000000 -1.265190000000000 100.000000000000000
-1.243270000000000 7.660920000000000 -0.854096000000000 101.000000000000000
-1.726020000000000 7.572030000000000 -1.043140000000000 35.000000000000000
-1.718540000000000 7.588110000000000 -0.825979000000000 83.000000000000000
-1.470060000000000 7.620310000000000 -1.139370000000000 101.000000000000000
-1.465340000000000 7.602970000000000 -0.837045000000000 100.000000000000000
-1.216730000000000 7.657920000000000 -1.261980000000000 101.000000000000000
-1.215900000000000 7.661280000000000 -0.853659000000000 101.000000000000000
-1.702180000000000 7.589610000000000 -1.044740000000000 40.000000000000000
-1.688990000000000 7.586590000000000 -0.825134000000000 79.000000000000000
-1.441390000000000 7.621760000000000 -1.138790000000000 76.000000000000000
-1.439680000000000 7.620010000000000 -0.838335000000000 101.000000000000000
-1.193020000000000 7.681620000000000 -1.265190000000000 101.000000000000000
-1.190970000000000 7.677270000000000 -0.854972000000000 101.000000000000000
-1.672260000000000 7.580020000000000 -1.042610000000000 37.000000000000000
-1.661650000000000 7.588550000000000 -0.824712000000000 100.000000000000000
-1.416940000000000 7.638410000000000 -1.140540000000000 83.000000000000000
-1.413790000000000 7.628900000000000 -0.838765000000000 101.000000000000000
-1.162650000000000 7.662320000000000 -1.261340000000000 72.000000000000000
-1.165360000000000 7.689240000000000 -0.855847000000000 77.000000000000000
-1.647470000000000 7.593560000000000 -1.043670000000000 101.000000000000000
-1.635150000000000 7.594310000000000 -0.824712000000000 101.000000000000000
-1.387430000000000 7.627740000000000 -1.138210000000000 70.000000000000000
-1.390710000000000 7.653350000000000 -0.840914000000000 101.000000000000000
-1.137630000000000 7.678050000000000 -1.263270000000000 21.000000000000000
-1.140260000000000 7.705060000000000 -0.857159000000000 63.000000000000000
-1.617650000000000 7.583760000000000 -1.041540000000000 101.000000000000000
-1.608630000000000 7.599970000000000 -0.824712000000000 101.000000000000000
-1.360100000000000 7.628640000000000 -1.137630000000000 101.000000000000000
-1.358410000000000 7.626840000000000 -0.837475000000000 101.000000000000000
-1.110820000000000 7.681970000000000 -1.263270000000000 20.000000000000000
-1.116200000000000 7.728670000000000 -0.859347000000000 55.000000000000000
-1.591170000000000 7.589360000000000 -1.041540000000000 101.000000000000000
-1.579660000000000 7.593850000000000 -0.823445000000000 101.000000000000000
-1.336190000000000 7.648930000000000 -1.139960000000000 101.000000000000000
-1.343400000000000 7.698130000000000 -0.844783000000000 61.000000000000000
-1.084550000000000 7.689710000000000 -1.263910000000000 15.000000000000000
-1.086440000000000 7.712830000000000 -0.857159000000000 48.000000000000000
-1.564670000000000 7.594870000000000 -1.041540000000000 101.000000000000000
-1.556330000000000 7.614910000000000 -0.825134000000000 101.000000000000000
-1.306150000000000 7.634050000000000 -1.137050000000000 101.000000000000000
-1.307810000000000 7.651810000000000 -0.839195000000000 66.000000000000000
-1.057700000000000 7.693450000000000 -1.263910000000000 67.000000000000000
-1.054100000000000 7.677190000000000 -0.852784000000000 84.000000000000000
-1.539720000000000 7.608050000000000 -1.042610000000000 62.000000000000000
-1.774800000000000 7.565710000000000 -0.974829000000000 16.000000000000000
-1.529740000000000 7.620300000000000 -0.825134000000000 101.000000000000000
-1.282760000000000 7.658080000000000 -1.139960000000000 101.000000000000000
-1.279780000000000 7.648490000000000 -0.838335000000000 72.000000000000000
-1.767210000000000 7.598960000000000 -0.813113000000000 101.000000000000000
-1.511610000000000 7.605600000000000 -1.041540000000000 62.000000000000000
-1.750170000000000 7.579600000000000 -0.975824000000000 100.000000000000000
-1.500050000000000 7.609980000000000 -0.823445000000000 101.000000000000000
-1.257940000000000 7.674220000000000 -1.141700000000000 71.000000000000000
-1.254360000000000 7.660760000000000 -0.839195000000000 101.000000000000000
-1.740680000000000 7.605080000000000 -0.813113000000000 101.000000000000000
-1.485810000000000 7.614730000000000 -1.042070000000000 60.000000000000000
-1.721060000000000 7.574050000000000 -0.974331000000000 101.000000000000000
-1.475750000000000 7.626880000000000 -0.824712000000000 101.000000000000000
-1.230520000000000 7.674660000000000 -1.141120000000000 64.000000000000000
-1.226980000000000 7.661160000000000 -0.838765000000000 101.000000000000000
-1.713250000000000 7.607230000000000 -0.812699000000000 101.000000000000000
-1.458470000000000 7.615970000000000 -1.041540000000000 101.000000000000000
-1.692880000000000 7.572260000000000 -0.973335000000000 101.000000000000000
-1.450600000000000 7.639800000000000 -0.825556000000000 200.000000000000000
-1.204950000000000 7.686730000000000 -1.142280000000000 64.000000000000000
-1.202080000000000 7.677190000000000 -0.840054000000000 101.000000000000000
-1.683240000000000 7.597620000000000 -0.811040000000000 101.000000000000000
-1.434810000000000 7.636600000000000 -1.043670000000000 101.000000000000000
-1.666910000000000 7.573960000000000 -0.972837000000000 101.000000000000000
-1.423070000000000 7.632840000000000 -0.824290000000000 200.000000000000000
-1.177050000000000 7.675030000000000 -1.139960000000000 51.000000000000000
-1.174810000000000 7.669340000000000 -0.838765000000000 101.000000000000000
-1.658040000000000 7.603160000000000 -0.811040000000000 101.000000000000000
-1.408760000000000 7.637420000000000 -1.043140000000000 101.000000000000000
-1.640100000000000 7.571690000000000 -0.971841000000000 43.000000000000000
-1.398470000000000 7.641430000000000 -0.824712000000000 200.000000000000000
-1.148660000000000 7.659330000000000 -1.137050000000000 101.000000000000000
-1.149370000000000 7.673190000000000 -0.838765000000000 53.000000000000000
-1.628980000000000 7.597240000000000 -0.809796000000000 101.000000000000000
-1.380680000000000 7.634490000000000 -1.042070000000000 200.000000000000000
-1.614820000000000 7.589290000000000 -0.973335000000000 39.000000000000000
-1.369050000000000 7.638680000000000 -0.823867000000000 200.000000000000000
-1.121720000000000 7.671320000000000 -1.138210000000000 101.000000000000000
-1.121810000000000 7.681290000000000 -0.839195000000000 61.000000000000000
-1.600810000000000 7.595090000000000 -0.808967000000000 101.000000000000000
-1.587500000000000 7.591000000000000 -0.972837000000000 38.000000000000000
-1.098290000000000 7.698690000000000 -1.141700000000000 101.000000000000000
-1.095550000000000 7.689090000000000 -0.839624000000000 46.000000000000000
-1.575100000000000 7.604530000000000 -0.809381000000000 101.000000000000000
-1.327350000000000 7.643940000000000 -1.042070000000000 47.000000000000000
-1.560990000000000 7.596500000000000 -0.972837000000000 100.000000000000000
-1.316360000000000 7.651970000000000 -0.824290000000000 58.000000000000000
-1.073050000000000 7.714240000000000 -1.143440000000000 101.000000000000000
-1.067060000000000 7.681050000000000 -0.838335000000000 101.000000000000000
-1.549340000000000 7.613880000000000 -0.809796000000000 101.000000000000000
-1.301320000000000 7.652430000000000 -1.042610000000000 49.000000000000000
-1.535250000000000 7.605790000000000 -0.973335000000000 101.000000000000000
-1.289640000000000 7.656520000000000 -0.824290000000000 50.000000000000000
-1.771710000000000 7.566810000000000 -0.794877000000000 25.000000000000000
-1.523530000000000 7.623140000000000 -0.810211000000000 101.000000000000000
-1.275900000000000 7.664750000000000 -1.043670000000000 47.000000000000000
-1.758230000000000 7.574710000000000 -0.934126000000000 101.000000000000000
-1.509470000000000 7.614990000000000 -0.973833000000000 101.000000000000000
-1.264850000000000 7.672740000000000 -0.825556000000000 101.000000000000000
-1.746180000000000 7.576820000000000 -0.795285000000000 45.000000000000000
-1.495380000000000 7.620600000000000 -0.809381000000000 101.000000000000000
-1.247230000000000 7.657420000000000 -1.042070000000000 101.000000000000000
-1.736200000000000 7.600160000000000 -0.936512000000000 101.000000000000000
-1.482880000000000 7.620220000000000 -0.973833000000000 200.000000000000000
-1.236790000000000 7.669260000000000 -0.824712000000000 101.000000000000000
-1.716200000000000 7.567350000000000 -0.793656000000000 43.000000000000000
-1.467260000000000 7.617960000000000 -0.808552000000000 101.000000000000000
-1.219870000000000 7.657810000000000 -1.041540000000000 101.000000000000000
-1.705310000000000 7.586800000000000 -0.934126000000000 101.000000000000000
-1.210110000000000 7.665460000000000 -0.823867000000000 101.000000000000000
-1.692830000000000 7.580760000000000 -0.794470000000000 49.000000000000000
-1.443470000000000 7.630610000000000 -0.809381000000000 200.000000000000000
-1.194470000000000 7.661820000000000 -1.041540000000000 101.000000000000000
-1.681000000000000 7.596290000000000 -0.934603000000000 101.000000000000000
-1.434630000000000 7.649640000000000 -0.976322000000000 51.000000000000000
-1.185770000000000 7.685360000000000 -0.825556000000000 101.000000000000000
-1.667220000000000 7.590510000000000 -0.794877000000000 46.000000000000000
-1.415380000000000 7.627780000000000 -0.808552000000000 187.000000000000000
-1.171300000000000 7.689450000000000 -1.044740000000000 101.000000000000000
-1.651940000000000 7.590470000000000 -0.933172000000000 53.000000000000000
-1.405770000000000 7.642890000000000 -0.974829000000000 41.000000000000000
-1.162500000000000 7.713050000000000 -0.828090000000000 45.000000000000000
-1.641550000000000 7.600180000000000 -0.795285000000000 62.000000000000000
-1.389450000000000 7.636580000000000 -0.808967000000000 200.000000000000000
-1.138610000000000 7.654280000000000 -1.039410000000000 42.000000000000000
-1.622940000000000 7.584540000000000 -0.931741000000000 47.000000000000000
-1.379780000000000 7.651660000000000 -0.975327000000000 61.000000000000000
-1.130350000000000 7.681650000000000 -0.824290000000000 37.000000000000000
-1.610050000000000 7.582510000000000 -0.792842000000000 93.000000000000000
-1.362090000000000 7.637470000000000 -0.808552000000000 101.000000000000000
-1.116450000000000 7.689600000000000 -1.043670000000000 34.000000000000000
-1.599720000000000 7.605710000000000 -0.933649000000000 55.000000000000000
-1.352380000000000 7.652520000000000 -0.974829000000000 101.000000000000000
-1.102970000000000 7.681610000000000 -0.823867000000000 46.000000000000000
-1.585200000000000 7.595870000000000 -0.793656000000000 100.000000000000000
-1.338160000000000 7.657850000000000 -0.810211000000000 101.000000000000000
-1.091820000000000 7.709150000000000 -1.045800000000000 35.000000000000000
-1.571560000000000 7.603470000000000 -0.932695000000000 51.000000000000000
-1.323620000000000 7.645460000000000 -0.973335000000000 101.000000000000000
-1.076700000000000 7.689350000000000 -0.824290000000000 100.000000000000000
-1.558680000000000 7.601360000000000 -0.793656000000000 100.000000000000000
-1.312770000000000 7.670320000000000 -0.811040000000000 101.000000000000000
-1.060020000000000 7.677570000000000 -1.041010000000000 101.000000000000000
-1.547380000000000 7.620580000000000 -0.934126000000000 101.000000000000000
-1.298930000000000 7.653720000000000 -0.973833000000000 200.000000000000000
-1.777270000000000 7.557240000000000 -0.905124000000000 61.000000000000000
-1.532670000000000 7.602580000000000 -0.793249000000000 101.000000000000000
-1.286010000000000 7.666790000000000 -0.810211000000000 101.000000000000000
-1.518990000000000 7.610090000000000 -0.932218000000000 101.000000000000000
-1.270250000000000 7.646460000000000 -0.972339000000000 113.000000000000000
-1.759840000000000 7.602110000000000 -0.909756000000000 95.000000000000000
-1.506900000000000 7.611790000000000 -0.793656000000000 101.000000000000000
-1.257300000000000 7.659450000000000 -0.808967000000000 101.000000000000000
-1.496230000000000 7.634830000000000 -0.934603000000000 101.000000000000000
-1.246100000000000 7.666520000000000 -0.974331000000000 41.000000000000000
-1.726230000000000 7.577210000000000 -0.906050000000000 53.000000000000000
-1.482600000000000 7.628720000000000 -0.794877000000000 101.000000000000000
-1.233080000000000 7.679500000000000 -0.810625000000000 101.000000000000000
-1.466570000000000 7.624410000000000 -0.932695000000000 101.000000000000000
-1.221820000000000 7.686500000000000 -0.976322000000000 35.000000000000000
-1.711070000000000 7.633590000000000 -0.912072000000000 54.000000000000000
-1.455210000000000 7.629940000000000 -0.794470000000000 101.000000000000000
-1.205650000000000 7.679830000000000 -0.810211000000000 101.000000000000000
-1.445840000000000 7.660700000000000 -0.936512000000000 44.000000000000000
-1.191940000000000 7.671110000000000 -0.973833000000000 34.000000000000000
-1.679280000000000 7.616240000000000 -0.909293000000000 65.000000000000000
-1.424180000000000 7.611510000000000 -0.792028000000000 101.000000000000000
-1.178840000000000 7.683990000000000 -0.810211000000000 101.000000000000000
-1.415480000000000 7.646180000000000 -0.934126000000000 45.000000000000000
-1.164560000000000 7.671300000000000 -0.973335000000000 101.000000000000000
-1.649310000000000 7.606520000000000 -0.907440000000000 101.000000000000000
-1.401910000000000 7.639920000000000 -0.794470000000000 101.000000000000000
-1.153190000000000 7.695930000000000 -0.811040000000000 101.000000000000000
-1.388070000000000 7.647170000000000 -0.933649000000000 50.000000000000000
-1.139520000000000 7.687100000000000 -0.974829000000000 101.000000000000000
-1.619440000000000 7.596690000000000 -0.905587000000000 101.000000000000000
-1.373830000000000 7.636930000000000 -0.793656000000000 101.000000000000000
-1.125740000000000 7.695970000000000 -0.810625000000000 101.000000000000000
-1.361370000000000 7.651960000000000 -0.933649000000000 101.000000000000000
-1.111540000000000 7.683170000000000 -0.973833000000000 101.000000000000000
-1.591280000000000 7.594520000000000 -0.904661000000000 101.000000000000000
-1.347160000000000 7.641680000000000 -0.793656000000000 101.000000000000000
-1.099990000000000 7.707730000000000 -0.811455000000000 100.000000000000000
-1.332600000000000 7.644930000000000 -0.932218000000000 101.000000000000000
-1.086930000000000 7.702720000000000 -0.975824000000000 101.000000000000000
-1.567170000000000 7.611700000000000 -0.906050000000000 101.000000000000000
-1.322510000000000 7.658100000000000 -0.794877000000000 101.000000000000000
-1.070890000000000 7.695760000000000 -0.809796000000000 101.000000000000000
-1.307920000000000 7.661280000000000 -0.933649000000000 101.000000000000000
-1.058960000000000 7.698610000000000 -0.974829000000000 32.000000000000000
-1.538220000000000 7.605450000000000 -0.904661000000000 89.000000000000000
-1.293780000000000 7.650900000000000 -0.793656000000000 101.000000000000000
-1.280510000000000 7.661880000000000 -0.933172000000000 101.000000000000000
-1.510890000000000 7.606870000000000 -0.904198000000000 100.000000000000000
-1.267060000000000 7.655370000000000 -0.793656000000000 101.000000000000000
-1.255680000000000 7.678060000000000 -0.934603000000000 49.000000000000000
-1.488130000000000 7.631600000000000 -0.906514000000000 100.000000000000000
-1.240970000000000 7.663670000000000 -0.794064000000000 101.000000000000000
-1.227700000000000 7.666500000000000 -0.932695000000000 37.000000000000000
-1.465810000000000 7.652100000000000 -0.908367000000000 101.000000000000000
-1.218040000000000 7.683470000000000 -0.795691000000000 101.000000000000000
-1.201550000000000 7.674660000000000 -0.933172000000000 40.000000000000000
-1.436890000000000 7.645450000000000 -0.906977000000000 101.000000000000000
-1.189390000000000 7.675870000000000 -0.794470000000000 101.000000000000000
-1.175350000000000 7.682740000000000 -0.933649000000000 101.000000000000000
-1.409470000000000 7.646520000000000 -0.906514000000000 101.000000000000000
-1.163780000000000 7.687850000000000 -0.795285000000000 101.000000000000000
-1.147940000000000 7.682860000000000 -0.933172000000000 101.000000000000000
-1.381360000000000 7.643570000000000 -0.905587000000000 101.000000000000000
-1.135190000000000 7.680050000000000 -0.794064000000000 100.000000000000000
-1.122260000000000 7.694680000000000 -0.934126000000000 101.000000000000000
-1.356050000000000 7.656170000000000 -0.906514000000000 101.000000000000000
-1.110640000000000 7.699720000000000 -0.795691000000000 100.000000000000000
-1.097630000000000 7.714280000000000 -0.936035000000000 101.000000000000000
-1.327280000000000 7.649110000000000 -0.905124000000000 101.000000000000000
-1.082100000000000 7.691730000000000 -0.794470000000000 100.000000000000000
-1.071790000000000 7.725930000000000 -0.936989000000000 101.000000000000000
-1.301900000000000 7.661530000000000 -0.906050000000000 101.000000000000000
-1.275800000000000 7.669950000000000 -0.906514000000000 101.000000000000000
-1.247750000000000 7.666510000000000 -0.905587000000000 101.000000000000000
-1.222850000000000 7.682590000000000 -0.906977000000000 101.000000000000000
-1.196640000000000 7.690740000000000 -0.907440000000000 101.000000000000000
-1.168590000000000 7.687020000000000 -0.906514000000000 101.000000000000000
-1.141170000000000 7.687120000000000 -0.906050000000000 101.000000000000000
-1.114330000000000 7.691050000000000 -0.906050000000000 100.000000000000000
-1.086920000000000 7.690960000000000 -0.905587000000000 92.000000000000000