# This PCD file was generated using the MATLAB® pcwrite function
# from Computer Vision Toolbox®.
# .PCD v.7 - Point Cloud Data file format
VERSION .7
FIELDS x y z intensity
SIZE 8 8 8 8
TYPE F F F F
COUNT 1 1 1 1
WIDTH 416
HEIGHT 1
VIEWPOINT 0 0 0 1 0 0 0
POINTS 416
DATA ascii
-2.382240000000000 7.316140000000000 -0.876646000000000 17.000000000000000
-2.334360000000000 7.250680000000000 -1.583270000000000 101.000000000000000
-2.329910000000000 7.241180000000000 -0.866684000000000 101.000000000000000
-2.304290000000000 7.243860000000000 -1.580010000000000 101.000000000000000
-2.313050000000000 7.275780000000000 -0.869853000000000 93.000000000000000
-2.282510000000000 7.263070000000000 -1.582460000000000 101.000000000000000
-2.286440000000000 7.280020000000000 -0.869401000000000 93.000000000000000
-2.257150000000000 7.270990000000000 -1.582460000000000 101.000000000000000
-2.261020000000000 7.287960000000000 -0.869401000000000 100.000000000000000
-2.231750000000000 7.278830000000000 -1.582460000000000 100.000000000000000
-2.229740000000000 7.276810000000000 -0.867137000000000 101.000000000000000
-2.212010000000000 7.305310000000000 -1.586530000000000 51.000000000000000
-2.206630000000000 7.292150000000000 -0.868042000000000 101.000000000000000
-2.180880000000000 7.294230000000000 -1.582460000000000 53.000000000000000
-2.178890000000000 7.292200000000000 -0.867137000000000 101.000000000000000
-2.156520000000000 7.305550000000000 -1.583270000000000 50.000000000000000
-2.154540000000000 7.303570000000000 -0.867589000000000 101.000000000000000
-2.131000000000000 7.313040000000000 -1.583270000000000 48.000000000000000
-2.134590000000000 7.330120000000000 -0.869853000000000 100.000000000000000
-2.351460000000000 7.275050000000000 -1.395790000000000 44.000000000000000
-2.359530000000000 7.304370000000000 -0.859646000000000 101.000000000000000
-2.103300000000000 7.312900000000000 -1.581640000000000 42.000000000000000
-2.107900000000000 7.333710000000000 -0.869401000000000 93.000000000000000
-2.314080000000000 7.245730000000000 -1.388610000000000 101.000000000000000
-2.321930000000000 7.274690000000000 -0.855195000000000 94.000000000000000
-2.082030000000000 7.335270000000000 -1.584900000000000 29.000000000000000
-2.082280000000000 7.341020000000000 -0.869401000000000 79.000000000000000
-2.297060000000000 7.280030000000000 -1.393630000000000 101.000000000000000
-2.297720000000000 7.286540000000000 -0.855640000000000 91.000000000000000
-2.060640000000000 7.357580000000000 -1.588150000000000 30.000000000000000
-2.057720000000000 7.352080000000000 -0.869853000000000 85.000000000000000
-2.269290000000000 7.280490000000000 -1.392200000000000 84.000000000000000
-2.277000000000000 7.309700000000000 -0.857420000000000 97.000000000000000
-2.031820000000000 7.353400000000000 -1.585710000000000 39.000000000000000
-2.034160000000000 7.366880000000000 -0.870759000000000 101.000000000000000
-2.254290000000000 7.322220000000000 -1.398660000000000 100.000000000000000
-2.251470000000000 7.317600000000000 -0.857420000000000 101.000000000000000
-2.004080000000000 7.352890000000000 -1.584080000000000 39.000000000000000
-2.007380000000000 7.370100000000000 -0.870306000000000 101.000000000000000
-2.219560000000000 7.299920000000000 -1.392920000000000 101.000000000000000
-2.214350000000000 7.287380000000000 -0.852969000000000 101.000000000000000
-1.980430000000000 7.367410000000000 -1.585710000000000 28.000000000000000
-1.980610000000000 7.373220000000000 -0.869853000000000 101.000000000000000
-2.190670000000000 7.296320000000000 -1.390760000000000 101.000000000000000
-2.194620000000000 7.314110000000000 -0.855195000000000 101.000000000000000
-1.952700000000000 7.366700000000000 -1.584080000000000 35.000000000000000
-1.959950000000000 7.399300000000000 -0.872118000000000 61.000000000000000
-2.166300000000000 7.307700000000000 -1.391480000000000 101.000000000000000
-2.170200000000000 7.325530000000000 -0.855640000000000 101.000000000000000
-1.936180000000000 7.403450000000000 -1.590600000000000 21.000000000000000
-1.932390000000000 7.394220000000000 -0.870759000000000 69.000000000000000
-2.148690000000000 7.337500000000000 -1.395790000000000 101.000000000000000
-2.154830000000000 7.363210000000000 -0.859201000000000 83.000000000000000
-1.904460000000000 7.387410000000000 -1.585710000000000 16.000000000000000
-1.905580000000000 7.397070000000000 -0.870306000000000 61.000000000000000
-2.378640000000000 7.299890000000000 -0.844908000000000 4.000000000000000
-2.123070000000000 7.344950000000000 -1.395790000000000 34.000000000000000
-2.128010000000000 7.366870000000000 -0.858756000000000 88.000000000000000
-1.876740000000000 7.386420000000000 -1.584080000000000 16.000000000000000
-1.880720000000000 7.407530000000000 -0.870759000000000 69.000000000000000
-2.337870000000000 7.256380000000000 -1.240780000000000 100.000000000000000
-2.343400000000000 7.277870000000000 -0.841407000000000 101.000000000000000
-2.103890000000000 7.375020000000000 -1.400100000000000 32.000000000000000
-2.103370000000000 7.378080000000000 -0.859201000000000 85.000000000000000
-1.856650000000000 7.415720000000000 -1.588970000000000 13.000000000000000
-1.856780000000000 7.421760000000000 -0.871665000000000 95.000000000000000
-2.317320000000000 7.279540000000000 -1.243350000000000 38.000000000000000
-2.322800000000000 7.301160000000000 -0.843158000000000 91.000000000000000
-2.068540000000000 7.348230000000000 -1.393630000000000 24.000000000000000
-2.075450000000000 7.377720000000000 -0.858311000000000 71.000000000000000
-1.827000000000000 7.406950000000000 -1.585710000000000 29.000000000000000
-1.830870000000000 7.428200000000000 -0.871665000000000 82.000000000000000
-2.283600000000000 7.261220000000000 -1.238850000000000 37.000000000000000
-2.296110000000000 7.305430000000000 -0.842720000000000 100.000000000000000
-2.044980000000000 7.362990000000000 -1.395070000000000 55.000000000000000
-2.046500000000000 7.373430000000000 -0.856975000000000 101.000000000000000
-1.802980000000000 7.420890000000000 -1.587340000000000 28.000000000000000
-1.804920000000000 7.434540000000000 -0.871665000000000 92.000000000000000
-2.259410000000000 7.272920000000000 -1.239490000000000 37.000000000000000
-2.265880000000000 7.298210000000000 -0.840970000000000 101.000000000000000
-2.019270000000000 7.370080000000000 -1.395070000000000 100.000000000000000
-2.021800000000000 7.384360000000000 -0.857420000000000 101.000000000000000
-1.778890000000000 7.434760000000000 -1.588970000000000 32.000000000000000
-1.778960000000000 7.440800000000000 -0.871665000000000 73.000000000000000
-2.227070000000000 7.258120000000000 -1.235640000000000 81.000000000000000
-2.238060000000000 7.298480000000000 -0.840095000000000 101.000000000000000
-1.997900000000000 7.388140000000000 -1.397230000000000 80.000000000000000
-2.001440000000000 7.406370000000000 -0.859201000000000 101.000000000000000
-1.758720000000000 7.459670000000000 -1.593040000000000 9.000000000000000
-1.754280000000000 7.446660000000000 -0.871665000000000 41.000000000000000
-2.205280000000000 7.273020000000000 -1.236920000000000 100.000000000000000
-2.213840000000000 7.305860000000000 -0.840095000000000 138.000000000000000
-1.970070000000000 7.387460000000000 -1.395790000000000 81.000000000000000
-1.975580000000000 7.413320000000000 -0.859201000000000 100.000000000000000
-1.730010000000000 7.454320000000000 -1.590600000000000 7.000000000000000
-1.730970000000000 7.464350000000000 -0.873023000000000 27.000000000000000
-2.175340000000000 7.265540000000000 -1.234350000000000 100.000000000000000
-2.214540000000000 7.401150000000000 -0.850158000000000 101.000000000000000
-1.953280000000000 7.428540000000000 -1.402250000000000 20.000000000000000
-1.953730000000000 7.435550000000000 -0.860982000000000 50.000000000000000
-1.699620000000000 7.441230000000000 -1.586530000000000 8.000000000000000
-1.702250000000000 7.458720000000000 -0.871665000000000 35.000000000000000
-2.156690000000000 7.295810000000000 -1.238210000000000 100.000000000000000
-2.171790000000000 7.351640000000000 -0.843595000000000 101.000000000000000
-1.922400000000000 7.416270000000000 -1.398660000000000 18.000000000000000
-1.923780000000000 7.426930000000000 -0.859201000000000 50.000000000000000
-1.680510000000000 7.477680000000000 -1.593040000000000 7.000000000000000
-1.677940000000000 7.472370000000000 -0.872570000000000 61.000000000000000
-2.131210000000000 7.303290000000000 -1.238210000000000 43.000000000000000
-1.898450000000000 7.430560000000000 -1.400100000000000 18.000000000000000
-1.903740000000000 7.456710000000000 -0.861872000000000 47.000000000000000
-2.337990000000000 7.217440000000000 -1.113810000000000 86.000000000000000
-2.353000000000000 7.268100000000000 -0.825867000000000 101.000000000000000
-1.649320000000000 7.460560000000000 -1.588150000000000 31.000000000000000
-2.111160000000000 7.329660000000000 -1.241420000000000 33.000000000000000
-2.118220000000000 7.358980000000000 -0.842720000000000 100.000000000000000
-1.873460000000000 7.440960000000000 -1.400820000000000 17.000000000000000
-1.874790000000000 7.451740000000000 -0.860537000000000 69.000000000000000
-2.330880000000000 7.282100000000000 -1.122520000000000 101.000000000000000
-2.321550000000000 7.257330000000000 -0.823718000000000 100.000000000000000
-2.084480000000000 7.333180000000000 -1.240780000000000 29.000000000000000
-2.093600000000000 7.370150000000000 -0.843158000000000 100.000000000000000
-1.842140000000000 7.420400000000000 -1.395790000000000 49.000000000000000
-1.852940000000000 7.469490000000000 -0.861872000000000 75.000000000000000
-2.295970000000000 7.255830000000000 -1.117300000000000 101.000000000000000
-2.301070000000000 7.276360000000000 -0.825007000000000 100.000000000000000
-2.060160000000000 7.340050000000000 -1.240780000000000 30.000000000000000
-2.068080000000000 7.373230000000000 -0.842720000000000 100.000000000000000
-1.817160000000000 7.430600000000000 -1.396510000000000 51.000000000000000
-1.825910000000000 7.472050000000000 -0.861427000000000 56.000000000000000
-2.263540000000000 7.241130000000000 -1.113810000000000 101.000000000000000
-2.274470000000000 7.280550000000000 -0.824577000000000 100.000000000000000
-2.034520000000000 7.347200000000000 -1.240780000000000 74.000000000000000
-2.040210000000000 7.372740000000000 -0.841845000000000 101.000000000000000
-1.794890000000000 7.452200000000000 -1.399380000000000 47.000000000000000
-1.797960000000000 7.470650000000000 -0.860537000000000 61.000000000000000
-2.248760000000000 7.283020000000000 -1.119040000000000 101.000000000000000
-2.253730000000000 7.303650000000000 -0.826297000000000 100.000000000000000
-2.011980000000000 7.365680000000000 -1.242700000000000 71.000000000000000
-2.016550000000000 7.387490000000000 -0.842720000000000 101.000000000000000
-1.769780000000000 7.462250000000000 -1.400100000000000 40.000000000000000
-1.772790000000000 7.480750000000000 -0.860982000000000 42.000000000000000
-2.230250000000000 7.313540000000000 -1.122520000000000 100.000000000000000
-2.222430000000000 7.292450000000000 -0.824147000000000 101.000000000000000
-1.988310000000000 7.380290000000000 -1.243990000000000 79.000000000000000
-1.989720000000000 7.390640000000000 -0.842283000000000 101.000000000000000
-1.743720000000000 7.468390000000000 -1.400100000000000 14.000000000000000
-1.744860000000000 7.479150000000000 -0.860092000000000 34.000000000000000
-2.208130000000000 7.332650000000000 -1.124270000000000 88.000000000000000
-2.204980000000000 7.326820000000000 -0.827157000000000 101.000000000000000
-1.959500000000000 7.375740000000000 -1.242060000000000 87.000000000000000
-1.961870000000000 7.389860000000000 -0.841407000000000 101.000000000000000
-1.719400000000000 7.482100000000000 -1.401540000000000 11.000000000000000
-1.721410000000000 7.496820000000000 -0.861427000000000 25.000000000000000
-2.180270000000000 7.332730000000000 -1.123110000000000 100.000000000000000
-2.172600000000000 7.311600000000000 -0.824577000000000 101.000000000000000
-1.938740000000000 7.401630000000000 -1.245280000000000 24.000000000000000
-1.943110000000000 7.423580000000000 -0.844470000000000 83.000000000000000
-1.691540000000000 7.480380000000000 -1.400100000000000 11.000000000000000
-1.696980000000000 7.510540000000000 -0.862317000000000 26.000000000000000
-2.150200000000000 7.325100000000000 -1.120780000000000 100.000000000000000
-2.159380000000000 7.361110000000000 -0.829306000000000 101.000000000000000
-1.910920000000000 7.400700000000000 -1.243990000000000 23.000000000000000
-1.914200000000000 7.418770000000000 -0.843158000000000 71.000000000000000
-1.656870000000000 7.447820000000000 -1.392920000000000 70.000000000000000
-2.376100000000000 7.312440000000000 -0.816266000000000 101.000000000000000
-2.119110000000000 7.313560000000000 -1.117880000000000 101.000000000000000
-2.133670000000000 7.368610000000000 -0.829306000000000 100.000000000000000
-1.888000000000000 7.418810000000000 -1.245920000000000 18.000000000000000
-1.891240000000000 7.436970000000000 -0.844470000000000 76.000000000000000
-2.349310000000000 7.277520000000000 -1.027160000000000 101.000000000000000
-2.338400000000000 7.282810000000000 -0.812043000000000 71.000000000000000
-2.101190000000000 7.347550000000000 -1.121940000000000 101.000000000000000
-2.109030000000000 7.379830000000000 -0.829736000000000 100.000000000000000
-1.858250000000000 7.410030000000000 -1.243350000000000 47.000000000000000
-1.865270000000000 7.443520000000000 -0.844470000000000 100.000000000000000
-2.309440000000000 7.240350000000000 -1.020770000000000 64.000000000000000
-2.315370000000000 7.298510000000000 -0.812888000000000 71.000000000000000
-2.074450000000000 7.351030000000000 -1.121360000000000 101.000000000000000
-2.076780000000000 7.364190000000000 -0.827157000000000 100.000000000000000
-1.833320000000000 7.420310000000000 -1.243990000000000 53.000000000000000
-1.837370000000000 7.442270000000000 -0.843595000000000 100.000000000000000
-2.291300000000000 7.271060000000000 -1.023970000000000 73.000000000000000
-2.298200000000000 7.333120000000000 -0.815844000000000 90.000000000000000
-2.051960000000000 7.369660000000000 -1.123110000000000 87.000000000000000
-2.052120000000000 7.375220000000000 -0.827587000000000 101.000000000000000
-1.806470000000000 7.422830000000000 -1.243350000000000 51.000000000000000
-1.815130000000000 7.464090000000000 -0.845345000000000 100.000000000000000
-2.270620000000000 7.294150000000000 -1.026100000000000 78.000000000000000
-2.259650000000000 7.299300000000000 -0.811199000000000 92.000000000000000
-2.025180000000000 7.372960000000000 -1.122520000000000 85.000000000000000
-2.028470000000000 7.390010000000000 -0.828447000000000 101.000000000000000
-1.784230000000000 7.444440000000000 -1.245920000000000 42.000000000000000
-1.787220000000000 7.462650000000000 -0.844470000000000 86.000000000000000
-2.249800000000000 7.317190000000000 -1.028230000000000 101.000000000000000
-2.237650000000000 7.318560000000000 -0.812466000000000 101.000000000000000
-2.001500000000000 7.387630000000000 -1.123690000000000 74.000000000000000
-2.005780000000000 7.408560000000000 -0.829736000000000 101.000000000000000
-1.762770000000000 7.469840000000000 -1.249130000000000 20.000000000000000
-1.762070000000000 7.472710000000000 -0.844908000000000 55.000000000000000
-2.216190000000000 7.298450000000000 -1.024500000000000 101.000000000000000
-2.216690000000000 7.341550000000000 -0.814155000000000 101.000000000000000
-1.974680000000000 7.390740000000000 -1.123110000000000 85.000000000000000
-1.979910000000000 7.415520000000000 -0.829736000000000 101.000000000000000
-1.736680000000000 7.475950000000000 -1.249130000000000 15.000000000000000
-1.739570000000000 7.494310000000000 -0.846658000000000 42.000000000000000
-2.189560000000000 7.302340000000000 -1.023970000000000 101.000000000000000
-2.181950000000000 7.318750000000000 -0.810777000000000 101.000000000000000
-1.945840000000000 7.386110000000000 -1.121360000000000 101.000000000000000
-1.956040000000000 7.430080000000000 -0.830596000000000 80.000000000000000
-1.703540000000000 7.451170000000000 -1.243990000000000 14.000000000000000
-1.708970000000000 7.480960000000000 -0.844470000000000 43.000000000000000
-2.167430000000000 7.321340000000000 -1.025570000000000 101.000000000000000
-2.161040000000000 7.337390000000000 -0.812043000000000 101.000000000000000
-1.925320000000000 7.407850000000000 -1.123690000000000 101.000000000000000
-1.931390000000000 7.436520000000000 -0.830596000000000 80.000000000000000
-1.684890000000000 7.483740000000000 -1.248490000000000 19.000000000000000
-1.685900000000000 7.494340000000000 -0.845345000000000 69.000000000000000
-2.139800000000000 7.317080000000000 -1.023970000000000 100.000000000000000
-2.376170000000000 7.286270000000000 -0.961386000000000 5.000000000000000
-2.136530000000000 7.348710000000000 -0.812466000000000 100.000000000000000
-1.901410000000000 7.422190000000000 -1.124850000000000 101.000000000000000
-1.899500000000000 7.420100000000000 -0.828017000000000 79.000000000000000
-2.364190000000000 7.297020000000000 -0.799430000000000 101.000000000000000
-2.119740000000000 7.343540000000000 -1.026630000000000 71.000000000000000
-2.347070000000000 7.283190000000000 -0.959893000000000 100.000000000000000
-2.109770000000000 7.352300000000000 -0.812043000000000 100.000000000000000
-1.874530000000000 7.424940000000000 -1.124270000000000 101.000000000000000
-1.876510000000000 7.438250000000000 -0.829306000000000 89.000000000000000
-2.336340000000000 7.293450000000000 -0.798186000000000 101.000000000000000
-2.094290000000000 7.346720000000000 -1.026100000000000 76.000000000000000
-2.313270000000000 7.260680000000000 -0.955910000000000 100.000000000000000
-2.083200000000000 7.351600000000000 -0.811199000000000 97.000000000000000
-1.853720000000000 7.446480000000000 -1.126590000000000 55.000000000000000
-1.848950000000000 7.432860000000000 -0.828017000000000 100.000000000000000
-2.306060000000000 7.286390000000000 -0.796528000000000 101.000000000000000
-2.069710000000000 7.357800000000000 -1.026630000000000 78.000000000000000
-2.283140000000000 7.253560000000000 -0.953918000000000 100.000000000000000
-2.060740000000000 7.370320000000000 -0.812466000000000 101.000000000000000
-1.825830000000000 7.445220000000000 -1.125430000000000 62.000000000000000
-1.827720000000000 7.458580000000000 -0.830166000000000 100.000000000000000
-2.281800000000000 7.298190000000000 -0.796942000000000 101.000000000000000
-2.048250000000000 7.380260000000000 -1.028760000000000 101.000000000000000
-2.264880000000000 7.284230000000000 -0.956905000000000 200.000000000000000
-2.037120000000000 7.385140000000000 -0.813310000000000 101.000000000000000
-1.799830000000000 7.451550000000000 -1.125430000000000 51.000000000000000
-1.797010000000000 7.445590000000000 -0.828017000000000 100.000000000000000
-2.263350000000000 7.328920000000000 -0.799430000000000 101.000000000000000
-2.019340000000000 7.375900000000000 -1.027160000000000 101.000000000000000
-2.009240000000000 7.384530000000000 -0.812466000000000 101.000000000000000
-1.773810000000000 7.457780000000000 -1.125430000000000 89.000000000000000
-1.774690000000000 7.467290000000000 -0.829736000000000 53.000000000000000
-2.231950000000000 7.317750000000000 -0.797357000000000 101.000000000000000
-1.989450000000000 7.367590000000000 -1.025030000000000 101.000000000000000
-2.222040000000000 7.326450000000000 -0.960390000000000 87.000000000000000
-1.983450000000000 7.391500000000000 -0.812466000000000 101.000000000000000
-1.748670000000000 7.467780000000000 -1.126010000000000 100.000000000000000
-1.746800000000000 7.465690000000000 -0.828877000000000 43.000000000000000
-2.210990000000000 7.340730000000000 -0.799015000000000 101.000000000000000
-1.967800000000000 7.389810000000000 -1.027160000000000 101.000000000000000
-2.196450000000000 7.334160000000000 -0.960390000000000 66.000000000000000
-1.958650000000000 7.402220000000000 -0.812888000000000 77.000000000000000
-1.722590000000000 7.473840000000000 -1.126010000000000 100.000000000000000
-1.725190000000000 7.491120000000000 -0.831026000000000 44.000000000000000
-2.184220000000000 7.344590000000000 -0.798601000000000 101.000000000000000
-1.944000000000000 7.404310000000000 -1.028230000000000 67.000000000000000
-2.173080000000000 7.349400000000000 -0.961386000000000 83.000000000000000
-1.936820000000000 7.424410000000000 -0.814577000000000 64.000000000000000
-1.698240000000000 7.487530000000000 -1.127170000000000 100.000000000000000
-1.699910000000000 7.500980000000000 -0.831456000000000 36.000000000000000
-2.161930000000000 7.363630000000000 -0.799845000000000 101.000000000000000
-1.917150000000000 7.407210000000000 -1.027700000000000 81.000000000000000
-2.147420000000000 7.356940000000000 -0.961386000000000 100.000000000000000
-1.908910000000000 7.423420000000000 -0.813733000000000 72.000000000000000
-1.669510000000000 7.481820000000000 -1.125430000000000 101.000000000000000
-2.364520000000000 7.260850000000000 -0.781039000000000 101.000000000000000
-1.669390000000000 7.487460000000000 -0.829306000000000 50.000000000000000
-2.136210000000000 7.371130000000000 -0.799845000000000 101.000000000000000
-1.888340000000000 7.402330000000000 -1.026100000000000 55.000000000000000
-2.348420000000000 7.258710000000000 -0.916474000000000 101.000000000000000
-2.119530000000000 7.356760000000000 -0.960390000000000 100.000000000000000
-1.880060000000000 7.418470000000000 -0.812466000000000 67.000000000000000
-2.341600000000000 7.276640000000000 -0.781853000000000 101.000000000000000
-2.110660000000000 7.374350000000000 -0.799430000000000 101.000000000000000
-1.866690000000000 7.420090000000000 -1.027700000000000 75.000000000000000
-2.337640000000000 7.308070000000000 -0.921722000000000 101.000000000000000
-2.096200000000000 7.367570000000000 -0.960888000000000 100.000000000000000
-1.859300000000000 7.440100000000000 -0.814155000000000 100.000000000000000
-2.317450000000000 7.284360000000000 -0.781853000000000 101.000000000000000
-2.085990000000000 7.385500000000000 -0.799845000000000 101.000000000000000
-1.843640000000000 7.438100000000000 -1.029290000000000 81.000000000000000
-2.302550000000000 7.285890000000000 -0.917905000000000 101.000000000000000
-2.068330000000000 7.367200000000000 -0.959893000000000 100.000000000000000
-1.833320000000000 7.446550000000000 -0.814155000000000 77.000000000000000
-2.283660000000000 7.265840000000000 -0.779004000000000 101.000000000000000
-2.062330000000000 7.400400000000000 -0.800674000000000 101.000000000000000
-1.815780000000000 7.436790000000000 -1.028230000000000 89.000000000000000
-2.270000000000000 7.271130000000000 -0.915043000000000 101.000000000000000
-2.047900000000000 7.393490000000000 -0.962382000000000 65.000000000000000
-1.807320000000000 7.452900000000000 -0.814155000000000 72.000000000000000
-2.255930000000000 7.266160000000000 -0.778190000000000 101.000000000000000
-2.039650000000000 7.419060000000000 -0.801918000000000 101.000000000000000
-1.788880000000000 7.439230000000000 -1.027700000000000 75.000000000000000
-2.262160000000000 7.335940000000000 -0.922199000000000 101.000000000000000
-2.018940000000000 7.389110000000000 -0.960888000000000 53.000000000000000
-1.783140000000000 7.466900000000000 -0.814999000000000 41.000000000000000
-2.243380000000000 7.315840000000000 -0.782667000000000 101.000000000000000
-2.006450000000000 7.399260000000000 -0.799015000000000 101.000000000000000
-1.767470000000000 7.464720000000000 -1.030360000000000 35.000000000000000
-2.243480000000000 7.366590000000000 -0.925062000000000 89.000000000000000
-1.992360000000000 7.388100000000000 -0.959893000000000 51.000000000000000
-1.763830000000000 7.496000000000000 -0.817533000000000 40.000000000000000
-2.217950000000000 7.319430000000000 -0.782260000000000 101.000000000000000
-1.983960000000000 7.413560000000000 -0.799845000000000 101.000000000000000
-1.746310000000000 7.485980000000000 -1.032490000000000 35.000000000000000
-2.213320000000000 7.354970000000000 -0.922676000000000 73.000000000000000
-1.972950000000000 7.413850000000000 -0.962382000000000 94.000000000000000
-1.736270000000000 7.490190000000000 -0.816266000000000 32.000000000000000
-2.195950000000000 7.334370000000000 -0.783074000000000 101.000000000000000
-1.959080000000000 7.424280000000000 -0.800259000000000 101.000000000000000
-1.719280000000000 7.488170000000000 -1.031960000000000 39.000000000000000
-2.186500000000000 7.358850000000000 -0.922199000000000 72.000000000000000
-1.947780000000000 7.428710000000000 -0.963378000000000 90.000000000000000
-1.709690000000000 7.500380000000000 -0.816688000000000 39.000000000000000
-2.164550000000000 7.327110000000000 -0.781446000000000 101.000000000000000
-1.936160000000000 7.442630000000000 -0.801503000000000 101.000000000000000
-1.691390000000000 7.486390000000000 -1.030890000000000 27.000000000000000
-2.145150000000000 7.313080000000000 -0.915520000000000 101.000000000000000
-1.920840000000000 7.431620000000000 -0.962880000000000 88.000000000000000
-2.359310000000000 7.220880000000000 -0.885669000000000 17.000000000000000
-1.682630000000000 7.502420000000000 -0.816266000000000 81.000000000000000
-2.140070000000000 7.338440000000000 -0.781853000000000 101.000000000000000
-1.912150000000000 7.457050000000000 -0.802333000000000 101.000000000000000
-1.660940000000000 7.472900000000000 -1.028230000000000 66.000000000000000
-2.132860000000000 7.366300000000000 -0.921245000000000 101.000000000000000
-1.891950000000000 7.426740000000000 -0.961386000000000 95.000000000000000
-2.358510000000000 7.304690000000000 -0.894933000000000 101.000000000000000
-2.117740000000000 7.357330000000000 -0.783074000000000 100.000000000000000
-1.882210000000000 7.448250000000000 -0.800674000000000 101.000000000000000
-2.110410000000000 7.385160000000000 -0.922676000000000 101.000000000000000
-1.867940000000000 7.441000000000000 -0.962382000000000 56.000000000000000
-2.313670000000000 7.252320000000000 -0.887522000000000 101.000000000000000
-2.089870000000000 7.357030000000000 -0.782260000000000 100.000000000000000
-1.857160000000000 7.458630000000000 -0.801089000000000 101.000000000000000
-2.085690000000000 7.396300000000000 -0.923153000000000 101.000000000000000
-1.844210000000000 7.451000000000000 -0.962880000000000 39.000000000000000
-2.301560000000000 7.297840000000000 -0.892154000000000 101.000000000000000
-2.065470000000000 7.363920000000000 -0.782260000000000 100.000000000000000
-1.832410000000000 7.464750000000000 -0.801089000000000 101.000000000000000
-2.063290000000000 7.410830000000000 -0.924107000000000 67.000000000000000
-1.819490000000000 7.457080000000000 -0.962880000000000 37.000000000000000
-2.277350000000000 7.305430000000000 -0.892154000000000 101.000000000000000
-2.043160000000000 7.378400000000000 -0.783074000000000 100.000000000000000
-1.808780000000000 7.486890000000000 -0.802747000000000 101.000000000000000
-2.030850000000000 7.399190000000000 -0.921722000000000 69.000000000000000
-1.795860000000000 7.479130000000000 -0.964871000000000 39.000000000000000
-2.255230000000000 7.328920000000000 -0.894007000000000 101.000000000000000
-2.017150000000000 7.389670000000000 -0.783481000000000 100.000000000000000
-1.787630000000000 7.508320000000000 -0.804406000000000 81.000000000000000
-2.006310000000000 7.405890000000000 -0.921722000000000 66.000000000000000
-1.765700000000000 7.474080000000000 -0.963378000000000 57.000000000000000
-2.228350000000000 7.337140000000000 -0.894007000000000 101.000000000000000
-1.992120000000000 7.404700000000000 -0.784295000000000 101.000000000000000
-1.754650000000000 7.491580000000000 -0.801918000000000 79.000000000000000
-1.977100000000000 7.405520000000000 -0.920768000000000 71.000000000000000
-1.740090000000000 7.488230000000000 -0.964373000000000 70.000000000000000
-2.201450000000000 7.345260000000000 -0.894007000000000 101.000000000000000
-1.962930000000000 7.404260000000000 -0.783481000000000 100.000000000000000
-1.728010000000000 7.489610000000000 -0.801089000000000 69.000000000000000
-1.949500000000000 7.400510000000000 -0.919337000000000 96.000000000000000
-1.715670000000000 7.489790000000000 -0.963876000000000 66.000000000000000
-2.176100000000000 7.344520000000000 -0.893080000000000 101.000000000000000
-1.940660000000000 7.414240000000000 -0.783888000000000 91.000000000000000
-1.707140000000000 7.518870000000000 -0.803577000000000 88.000000000000000
-1.930640000000000 7.434180000000000 -0.922676000000000 99.000000000000000
-1.691260000000000 7.503480000000000 -0.964871000000000 84.000000000000000
-2.150450000000000 7.352070000000000 -0.893080000000000 101.000000000000000
-1.913780000000000 7.417120000000000 -0.783481000000000 100.000000000000000
-1.906650000000000 7.448570000000000 -0.923630000000000 78.000000000000000
-2.126980000000000 7.367160000000000 -0.894007000000000 101.000000000000000
-1.891800000000000 7.439180000000000 -0.785109000000000 100.000000000000000
-1.877720000000000 7.443620000000000 -0.922199000000000 50.000000000000000
-2.105610000000000 7.389830000000000 -0.895860000000000 101.000000000000000
-1.857110000000000 7.411000000000000 -0.781446000000000 101.000000000000000
-1.849810000000000 7.442420000000000 -0.921245000000000 48.000000000000000
-2.073350000000000 7.374180000000000 -0.893080000000000 101.000000000000000
-1.840770000000000 7.456070000000000 -0.785516000000000 101.000000000000000
-1.827600000000000 7.464270000000000 -0.923153000000000 51.000000000000000
-2.050780000000000 7.392860000000000 -0.894470000000000 101.000000000000000
-1.811910000000000 7.450850000000000 -0.784295000000000 69.000000000000000
-1.798740000000000 7.459020000000000 -0.921722000000000 40.000000000000000
-2.026010000000000 7.403810000000000 -0.894933000000000 101.000000000000000
-1.785890000000000 7.457130000000000 -0.784295000000000 81.000000000000000
-1.776360000000000 7.480710000000000 -0.923630000000000 70.000000000000000
-2.000150000000000 7.410830000000000 -0.894933000000000 101.000000000000000
-1.758940000000000 7.459440000000000 -0.783888000000000 83.000000000000000
-1.750240000000000 7.486860000000000 -0.923630000000000 83.000000000000000
-1.974270000000000 7.417770000000000 -0.894933000000000 101.000000000000000
-1.734690000000000 7.473290000000000 -0.784702000000000 82.000000000000000
-1.724090000000000 7.492930000000000 -0.923630000000000 68.000000000000000
-1.949660000000000 7.424280000000000 -0.894933000000000 89.000000000000000
-1.709010000000000 7.475120000000000 -0.784295000000000 88.000000000000000
-1.699240000000000 7.498600000000000 -0.923630000000000 78.000000000000000
-1.929710000000000 7.454120000000000 -0.897713000000000 90.000000000000000
-1.684650000000000 7.488800000000000 -0.785109000000000 76.000000000000000
-1.902690000000000 7.456960000000000 -0.897249000000000 100.000000000000000
-1.876650000000000 7.463550000000000 -0.897249000000000 100.000000000000000
-1.854010000000000 7.433820000000000 -0.768774000000000 100.000000000000000
-1.849630000000000 7.466200000000000 -0.896786000000000 100.000000000000000
-1.834700000000000 7.467300000000000 -0.771569000000000 68.000000000000000
-1.825440000000000 7.480330000000000 -0.897713000000000 94.000000000000000
-1.795610000000000 7.471210000000000 -0.895860000000000 76.000000000000000
-1.774090000000000 7.496760000000000 -0.898176000000000 84.000000000000000
-1.747010000000000 7.499040000000000 -0.897713000000000 82.000000000000000
-1.723020000000000 7.508660000000000 -0.898176000000000 97.000000000000000
-1.696800000000000 7.514630000000000 -0.898176000000000 100.000000000000000