# This PCD file was generated using the MATLAB® pcwrite function
# from Computer Vision Toolbox®.
# .PCD v.7 - Point Cloud Data file format
VERSION .7
FIELDS x y z intensity
SIZE 8 8 8 8
TYPE F F F F
COUNT 1 1 1 1
WIDTH 562
HEIGHT 1
VIEWPOINT 0 0 0 1 0 0 0
POINTS 562
DATA ascii
0.879394000000000 7.859790000000000 -0.901098000000000 101.000000000000000
0.384733000000000 7.946020000000000 -1.294750000000000 20.000000000000000
0.387695000000000 7.978360000000000 -0.879037000000000 47.000000000000000
0.641863000000000 7.929140000000000 -0.767388000000000 101.000000000000000
0.894092000000000 7.879130000000000 -0.780309000000000 64.000000000000000
0.399858000000000 7.970400000000000 -0.754372000000000 101.000000000000000
0.649498000000000 7.886510000000000 -1.444640000000000 100.000000000000000
0.654252000000000 7.927320000000000 -0.890809000000000 101.000000000000000
0.909279000000000 7.890030000000000 -1.650830000000000 25.000000000000000
0.905458000000000 7.844830000000000 -0.899739000000000 101.000000000000000
0.412672000000000 7.948570000000000 -1.295390000000000 18.000000000000000
0.415956000000000 7.984900000000000 -0.879912000000000 51.000000000000000
0.669537000000000 7.926850000000000 -0.767388000000000 101.000000000000000
0.919277000000000 7.856200000000000 -0.778350000000000 101.000000000000000
0.428958000000000 7.992820000000000 -0.756631000000000 101.000000000000000
0.678033000000000 7.895960000000000 -1.446790000000000 101.000000000000000
0.681238000000000 7.917070000000000 -0.889919000000000 101.000000000000000
0.930958000000000 7.825830000000000 -0.897928000000000 101.000000000000000
0.439978000000000 7.939200000000000 -1.294110000000000 62.000000000000000
0.441619000000000 7.943700000000000 -0.875536000000000 94.000000000000000
0.697203000000000 7.924460000000000 -0.767388000000000 100.000000000000000
0.455492000000000 7.967420000000000 -0.754372000000000 87.000000000000000
0.707343000000000 7.913140000000000 -1.450390000000000 101.000000000000000
0.708869000000000 7.914640000000000 -0.889919000000000 101.000000000000000
0.206055000000000 7.916430000000000 -1.162610000000000 5.000000000000000
0.467456000000000 7.933670000000000 -1.293470000000000 75.000000000000000
0.469814000000000 7.950050000000000 -0.876411000000000 101.000000000000000
0.724135000000000 7.914050000000000 -0.766620000000000 101.000000000000000
0.482818000000000 7.957830000000000 -0.753619000000000 87.000000000000000
0.735325000000000 7.914540000000000 -1.451100000000000 20.000000000000000
0.738334000000000 7.931910000000000 -0.892145000000000 57.000000000000000
0.235322000000000 7.971050000000000 -1.170750000000000 101.000000000000000
0.237274000000000 7.989900000000000 -0.864130000000000 101.000000000000000
0.240868000000000 7.970250000000000 -0.738312000000000 101.000000000000000
0.495147000000000 7.931990000000000 -1.293470000000000 100.000000000000000
0.497810000000000 7.952330000000000 -0.876849000000000 101.000000000000000
0.752132000000000 7.915440000000000 -0.767004000000000 101.000000000000000
0.512123000000000 7.979940000000000 -0.755878000000000 95.000000000000000
0.763702000000000 7.919760000000000 -1.452540000000000 22.000000000000000
0.765253000000000 7.921370000000000 -0.891254000000000 63.000000000000000
0.262753000000000 7.958310000000000 -1.169010000000000 27.000000000000000
0.265163000000000 7.989030000000000 -0.864130000000000 100.000000000000000
0.268419000000000 7.961400000000000 -0.737574000000000 49.000000000000000
0.522832000000000 7.930210000000000 -1.293470000000000 52.000000000000000
0.525828000000000 7.954510000000000 -0.877286000000000 101.000000000000000
0.779367000000000 7.908800000000000 -0.766620000000000 101.000000000000000
0.538362000000000 7.954260000000000 -0.753619000000000 101.000000000000000
0.789386000000000 7.897470000000000 -1.448950000000000 23.000000000000000
0.791711000000000 7.906790000000000 -0.889919000000000 65.000000000000000
0.290675000000000 7.961300000000000 -1.169590000000000 32.000000000000000
0.291882000000000 7.956260000000000 -0.860690000000000 100.000000000000000
0.295764000000000 7.948480000000000 -0.736468000000000 57.000000000000000
0.549416000000000 7.912590000000000 -1.290900000000000 32.000000000000000
0.554696000000000 7.968490000000000 -0.879037000000000 100.000000000000000
0.805352000000000 7.890190000000000 -0.765083000000000 101.000000000000000
0.564736000000000 7.952430000000000 -0.753619000000000 101.000000000000000
0.815571000000000 7.894810000000000 -1.448950000000000 101.000000000000000
0.818336000000000 7.908070000000000 -0.890364000000000 75.000000000000000
0.317074000000000 7.960290000000000 -1.169590000000000 35.000000000000000
0.318423000000000 7.959220000000000 -0.861120000000000 100.000000000000000
0.322282000000000 7.951430000000000 -0.736837000000000 67.000000000000000
0.577945000000000 7.942220000000000 -1.296040000000000 25.000000000000000
0.579382000000000 7.942820000000000 -0.876411000000000 100.000000000000000
0.831930000000000 7.891430000000000 -0.765467000000000 101.000000000000000
0.590514000000000 7.942570000000000 -0.752867000000000 101.000000000000000
0.842164000000000 7.895970000000000 -1.449670000000000 101.000000000000000
0.844555000000000 7.905310000000000 -0.890364000000000 101.000000000000000
0.342446000000000 7.935470000000000 -1.166100000000000 101.000000000000000
0.344987000000000 7.962100000000000 -0.861550000000000 53.000000000000000
0.349159000000000 7.930360000000000 -0.734993000000000 101.000000000000000
0.604764000000000 7.928350000000000 -1.294110000000000 29.000000000000000
0.607407000000000 7.944710000000000 -0.876849000000000 82.000000000000000
0.860765000000000 7.900360000000000 -0.766620000000000 101.000000000000000
0.619931000000000 7.944330000000000 -0.753243000000000 101.000000000000000
0.869372000000000 7.877190000000000 -1.446790000000000 101.000000000000000
0.873087000000000 7.898210000000000 -0.889919000000000 101.000000000000000
0.372269000000000 7.949980000000000 -1.168420000000000 101.000000000000000
0.374541000000000 7.968720000000000 -0.862410000000000 46.000000000000000
0.377218000000000 7.937050000000000 -0.735730000000000 101.000000000000000
0.631179000000000 7.910440000000000 -1.291540000000000 98.000000000000000
0.634818000000000 7.938580000000000 -0.876411000000000 101.000000000000000
0.888337000000000 7.897300000000000 -0.766620000000000 101.000000000000000
0.648629000000000 7.954020000000000 -0.754372000000000 101.000000000000000
0.894636000000000 7.854560000000000 -1.443200000000000 101.000000000000000
0.898850000000000 7.879320000000000 -0.888138000000000 101.000000000000000
0.399620000000000 7.940720000000000 -1.167260000000000 101.000000000000000
0.401552000000000 7.951480000000000 -0.860690000000000 51.000000000000000
0.405327000000000 7.943640000000000 -0.736468000000000 101.000000000000000
0.658460000000000 7.904260000000000 -1.290900000000000 101.000000000000000
0.661864000000000 7.928390000000000 -0.875536000000000 101.000000000000000
0.915439000000000 7.890200000000000 -0.766235000000000 101.000000000000000
0.675040000000000 7.935840000000000 -0.752867000000000 101.000000000000000
0.925720000000000 7.882650000000000 -1.448950000000000 101.000000000000000
0.924026000000000 7.856390000000000 -0.885912000000000 101.000000000000000
0.426910000000000 7.931380000000000 -1.166100000000000 101.000000000000000
0.428877000000000 7.942090000000000 -0.859830000000000 53.000000000000000
0.433270000000000 7.946160000000000 -0.736837000000000 101.000000000000000
0.686389000000000 7.905850000000000 -1.291540000000000 101.000000000000000
0.689535000000000 7.926030000000000 -0.875536000000000 101.000000000000000
0.942030000000000 7.879050000000000 -0.765467000000000 101.000000000000000
0.703439000000000 7.941370000000000 -0.753619000000000 100.000000000000000
0.454367000000000 7.925890000000000 -1.165520000000000 66.000000000000000
0.456369000000000 7.936570000000000 -0.859401000000000 101.000000000000000
0.460312000000000 7.932670000000000 -0.735730000000000 81.000000000000000
0.713626000000000 7.899470000000000 -1.290900000000000 101.000000000000000
0.717198000000000 7.923580000000000 -0.875536000000000 101.000000000000000
0.215938000000000 7.985340000000000 -1.072960000000000 18.000000000000000
0.729330000000000 7.919030000000000 -0.751737000000000 101.000000000000000
0.229358000000000 8.015660000000000 -0.851315000000000 86.000000000000000
0.230189000000000 7.995880000000000 -0.725169000000000 19.000000000000000
0.482511000000000 7.932150000000000 -1.166680000000000 62.000000000000000
0.485039000000000 7.950810000000000 -0.861120000000000 101.000000000000000
0.489712000000000 7.958840000000000 -0.738312000000000 63.000000000000000
0.741934000000000 7.904790000000000 -1.292180000000000 41.000000000000000
0.745224000000000 7.924980000000000 -0.875974000000000 100.000000000000000
0.242963000000000 7.956800000000000 -1.069230000000000 90.000000000000000
0.757726000000000 7.924370000000000 -0.752490000000000 101.000000000000000
0.256698000000000 7.994930000000000 -0.849204000000000 58.000000000000000
0.258870000000000 8.018920000000000 -0.727336000000000 37.000000000000000
0.511975000000000 7.958070000000000 -1.170750000000000 49.000000000000000
0.513045000000000 7.953040000000000 -0.861550000000000 101.000000000000000
0.516198000000000 7.937210000000000 -0.736468000000000 92.000000000000000
0.768757000000000 7.894300000000000 -1.290900000000000 40.000000000000000
0.772497000000000 7.918380000000000 -0.875536000000000 101.000000000000000
0.271141000000000 7.967790000000000 -1.070830000000000 100.000000000000000
0.784204000000000 7.909790000000000 -0.751361000000000 101.000000000000000
0.284180000000000 7.982060000000000 -0.847937000000000 59.000000000000000
0.285720000000000 7.986120000000000 -0.724446000000000 31.000000000000000
0.537340000000000 7.920690000000000 -1.165520000000000 101.000000000000000
0.539994000000000 7.939290000000000 -0.860260000000000 76.000000000000000
0.542539000000000 7.915490000000000 -0.734624000000000 101.000000000000000
0.796705000000000 7.895490000000000 -1.291540000000000 40.000000000000000
0.800133000000000 7.915630000000000 -0.875536000000000 100.000000000000000
0.298655000000000 7.958880000000000 -1.069760000000000 101.000000000000000
0.812216000000000 7.910960000000000 -0.751737000000000 101.000000000000000
0.311730000000000 7.973070000000000 -0.847093000000000 63.000000000000000
0.313282000000000 7.977110000000000 -0.723724000000000 38.000000000000000
0.564422000000000 7.910880000000000 -1.164360000000000 101.000000000000000
0.566285000000000 7.917530000000000 -0.858111000000000 67.000000000000000
0.570452000000000 7.917520000000000 -0.734993000000000 101.000000000000000
0.823850000000000 7.888740000000000 -1.290900000000000 101.000000000000000
0.826931000000000 7.904880000000000 -0.874661000000000 101.000000000000000
0.327084000000000 7.973630000000000 -1.071890000000000 101.000000000000000
0.840246000000000 7.912040000000000 -0.752114000000000 101.000000000000000
0.340405000000000 7.991800000000000 -0.849204000000000 55.000000000000000
0.341636000000000 7.987910000000000 -0.724808000000000 42.000000000000000
0.592623000000000 7.916750000000000 -1.165520000000000 101.000000000000000
0.595407000000000 7.935330000000000 -0.860260000000000 70.000000000000000
0.598386000000000 7.919450000000000 -0.735362000000000 101.000000000000000
0.849263000000000 7.866190000000000 -1.287680000000000 101.000000000000000
0.854947000000000 7.905900000000000 -0.875099000000000 101.000000000000000
0.354387000000000 7.960560000000000 -1.070300000000000 36.000000000000000
0.866990000000000 7.901140000000000 -0.751361000000000 101.000000000000000
0.367934000000000 7.982620000000000 -0.848359000000000 36.000000000000000
0.369517000000000 7.986670000000000 -0.724808000000000 80.000000000000000
0.621182000000000 7.926470000000000 -1.167260000000000 101.000000000000000
0.622169000000000 7.921310000000000 -0.858971000000000 84.000000000000000
0.624770000000000 7.901430000000000 -0.733887000000000 101.000000000000000
0.877153000000000 7.867100000000000 -1.288330000000000 187.000000000000000
0.881214000000000 7.891010000000000 -0.873786000000000 187.000000000000000
0.382552000000000 7.967190000000000 -1.071360000000000 36.000000000000000
0.895013000000000 7.902020000000000 -0.751737000000000 101.000000000000000
0.395008000000000 7.965390000000000 -0.846670000000000 38.000000000000000
0.396602000000000 7.969420000000000 -0.723363000000000 76.000000000000000
0.646909000000000 7.900590000000000 -1.163780000000000 55.000000000000000
0.650466000000000 7.927020000000000 -0.859830000000000 101.000000000000000
0.652676000000000 7.903180000000000 -0.734255000000000 101.000000000000000
0.909572000000000 7.907130000000000 -1.295390000000000 200.000000000000000
0.909209000000000 7.891840000000000 -0.874224000000000 200.000000000000000
0.409137000000000 7.942050000000000 -1.068170000000000 43.000000000000000
0.922591000000000 7.898850000000000 -0.751737000000000 101.000000000000000
0.424075000000000 7.987800000000000 -0.849204000000000 48.000000000000000
0.424418000000000 7.967980000000000 -0.723363000000000 70.000000000000000
0.676167000000000 7.918000000000000 -1.166680000000000 68.000000000000000
0.676776000000000 7.908850000000000 -0.858111000000000 101.000000000000000
0.679917000000000 7.896880000000000 -0.733887000000000 101.000000000000000
0.934876000000000 7.872830000000000 -0.872473000000000 138.000000000000000
0.437075000000000 7.944530000000000 -1.068700000000000 101.000000000000000
0.951585000000000 7.907440000000000 -0.752867000000000 101.000000000000000
0.450831000000000 7.966410000000000 -0.847093000000000 100.000000000000000
0.452906000000000 7.978380000000000 -0.724446000000000 49.000000000000000
0.701699000000000 7.891940000000000 -1.163200000000000 82.000000000000000
0.704379000000000 7.906440000000000 -0.858111000000000 101.000000000000000
0.708545000000000 7.906360000000000 -0.734993000000000 101.000000000000000
0.464572000000000 7.939000000000000 -1.068170000000000 101.000000000000000
0.219901000000000 7.982390000000000 -1.001710000000000 51.000000000000000
0.477247000000000 7.964880000000000 -0.847093000000000 101.000000000000000
0.477927000000000 7.952980000000000 -0.722280000000000 49.000000000000000
0.728956000000000 7.901390000000000 -1.164940000000000 101.000000000000000
0.733522000000000 7.935740000000000 -0.861550000000000 101.000000000000000
0.735865000000000 7.915860000000000 -0.736099000000000 101.000000000000000
0.236378000000000 8.021050000000001 -0.836333000000000 101.000000000000000
0.237776000000000 8.020960000000001 -0.711931000000000 101.000000000000000
0.491875000000000 7.953250000000000 -1.070300000000000 101.000000000000000
0.246493000000000 7.985580000000000 -1.002210000000000 19.000000000000000
0.503405000000000 7.959280000000000 -0.846670000000000 101.000000000000000
0.504045000000000 7.947380000000000 -0.721918000000000 56.000000000000000
0.754024000000000 7.887110000000000 -1.163200000000000 101.000000000000000
0.757559000000000 7.909510000000000 -0.858971000000000 91.000000000000000
0.761580000000000 7.893420000000000 -0.734255000000000 101.000000000000000
0.263720000000000 8.000299999999999 -0.834260000000000 101.000000000000000
0.265773000000000 8.020080000000000 -0.711931000000000 100.000000000000000
0.519117000000000 7.943570000000000 -1.069230000000000 101.000000000000000
0.275075000000000 7.964790000000000 -0.999722000000000 20.000000000000000
0.531777000000000 7.945470000000000 -0.845403000000000 101.000000000000000
0.533170000000000 7.945480000000000 -0.721918000000000 67.000000000000000
0.784491000000000 7.900040000000000 -1.165520000000000 101.000000000000000
0.786150000000000 7.902720000000000 -0.858541000000000 100.000000000000000
0.788732000000000 7.886760000000000 -0.733887000000000 101.000000000000000
0.291065000000000 7.983430000000000 -0.832601000000000 101.000000000000000
0.293621000000000 8.015120000000000 -0.711577000000000 101.000000000000000
0.546570000000000 7.937750000000000 -1.068700000000000 63.000000000000000
0.303177000000000 7.971720000000000 -1.000720000000000 23.000000000000000
0.560627000000000 7.959440000000000 -0.847093000000000 46.000000000000000
0.561744000000000 7.955490000000000 -0.723002000000000 100.000000000000000
0.812872000000000 7.905130000000000 -1.166680000000000 101.000000000000000
0.812916000000000 7.892020000000000 -0.857681000000000 101.000000000000000
0.817078000000000 7.891880000000000 -0.734624000000000 101.000000000000000
0.319407000000000 7.994290000000000 -0.833845000000000 101.000000000000000
0.320479000000000 7.986180000000000 -0.709103000000000 100.000000000000000
0.574847000000000 7.943710000000000 -1.069760000000000 54.000000000000000
0.331002000000000 7.970610000000000 -1.000720000000000 31.000000000000000
0.588114000000000 7.953470000000000 -0.846670000000000 54.000000000000000
0.589510000000000 7.953480000000000 -0.723002000000000 100.000000000000000
0.842136000000000 7.917990000000000 -1.169010000000000 100.000000000000000
0.841302000000000 7.897040000000000 -0.858541000000000 101.000000000000000
0.845468000000000 7.896900000000000 -0.735362000000000 101.000000000000000
0.346619000000000 7.977220000000000 -0.832187000000000 64.000000000000000
0.348354000000000 7.985010000000000 -0.709103000000000 100.000000000000000
0.602272000000000 7.937700000000000 -1.069230000000000 58.000000000000000
0.357573000000000 7.941650000000000 -0.997233000000000 74.000000000000000
0.612187000000000 7.903780000000000 -0.841603000000000 65.000000000000000
0.616961000000000 7.947400000000000 -0.722641000000000 100.000000000000000
0.866743000000000 7.887460000000000 -1.164940000000000 95.000000000000000
0.869297000000000 7.898010000000000 -0.858971000000000 101.000000000000000
0.873029000000000 7.893900000000000 -0.735362000000000 101.000000000000000
0.375023000000000 7.987890000000000 -0.833431000000000 59.000000000000000
0.376225000000000 7.983750000000000 -0.709103000000000 101.000000000000000
0.628721000000000 7.919740000000000 -1.067100000000000 101.000000000000000
0.384289000000000 7.948350000000000 -0.998229000000000 99.000000000000000
0.639995000000000 7.921530000000000 -0.843714000000000 101.000000000000000
0.642026000000000 7.929430000000000 -0.721196000000000 94.000000000000000
0.895566000000000 7.908140000000000 -1.168420000000000 101.000000000000000
0.895035000000000 7.891130000000000 -0.858541000000000 101.000000000000000
0.897848000000000 7.879090000000000 -0.734255000000000 101.000000000000000
0.401909000000000 7.994550000000000 -0.834260000000000 66.000000000000000
0.401493000000000 7.958580000000000 -0.706982000000000 101.000000000000000
0.654327000000000 7.909710000000000 -1.066040000000000 101.000000000000000
0.411874000000000 7.970810000000000 -1.001220000000000 100.000000000000000
0.665260000000000 7.907470000000000 -0.842448000000000 101.000000000000000
0.668318000000000 7.927260000000000 -0.721196000000000 100.000000000000000
0.917660000000000 7.869750000000000 -1.163200000000000 101.000000000000000
0.920276000000000 7.880220000000000 -0.857681000000000 101.000000000000000
0.926275000000000 7.883820000000000 -0.734993000000000 101.000000000000000
0.428531000000000 7.969260000000000 -0.831772000000000 84.000000000000000
0.430130000000000 7.973040000000000 -0.708396000000000 101.000000000000000
0.681252000000000 7.899480000000000 -1.064970000000000 101.000000000000000
0.441305000000000 7.973210000000000 -1.001710000000000 34.000000000000000
0.695978000000000 7.924790000000000 -0.844559000000000 101.000000000000000
0.697019000000000 7.920780000000000 -0.720835000000000 100.000000000000000
0.456119000000000 7.963740000000000 -0.831358000000000 101.000000000000000
0.456587000000000 7.947630000000000 -0.706275000000000 100.000000000000000
0.709885000000000 7.908900000000000 -1.066570000000000 101.000000000000000
0.210632000000000 7.979830000000000 -0.958934000000000 15.000000000000000
0.467735000000000 7.947850000000000 -0.998726000000000 29.000000000000000
0.723636000000000 7.922310000000000 -0.844559000000000 101.000000000000000
0.726115000000000 7.934170000000000 -0.722280000000000 101.000000000000000
0.223159000000000 7.979230000000000 -0.816449000000000 94.000000000000000
0.483914000000000 7.962100000000000 -0.831358000000000 101.000000000000000
0.485539000000000 7.965870000000000 -0.708043000000000 100.000000000000000
0.736384000000000 7.894530000000000 -1.064970000000000 67.000000000000000
0.239078000000000 7.998890000000000 -0.961320000000000 51.000000000000000
0.495722000000000 7.950130000000000 -0.999224000000000 36.000000000000000
0.751286000000000 7.919740000000000 -0.844559000000000 80.000000000000000
0.752676000000000 7.919690000000000 -0.721196000000000 101.000000000000000
0.251636000000000 7.998290000000000 -0.818484000000000 68.000000000000000
0.512215000000000 7.968310000000000 -0.832187000000000 101.000000000000000
0.513342000000000 7.964130000000000 -0.708043000000000 101.000000000000000
0.764318000000000 7.895860000000000 -1.065500000000000 81.000000000000000
0.266998000000000 7.998010000000000 -0.961320000000000 32.000000000000000
0.522166000000000 7.928550000000000 -0.996735000000000 42.000000000000000
0.778147000000000 7.909150000000000 -0.843714000000000 83.000000000000000
0.780316000000000 7.917020000000000 -0.721196000000000 101.000000000000000
0.279276000000000 7.989410000000000 -0.817670000000000 50.000000000000000
0.540295000000000 7.970440000000000 -0.832601000000000 100.000000000000000
0.541409000000000 7.966260000000000 -0.708396000000000 101.000000000000000
0.792667000000000 7.901030000000000 -1.066570000000000 74.000000000000000
0.293890000000000 7.969250000000000 -0.957980000000000 34.000000000000000
0.550114000000000 7.930640000000000 -0.997233000000000 100.000000000000000
0.806557000000000 7.914300000000000 -0.844559000000000 92.000000000000000
0.808756000000000 7.922170000000000 -0.721918000000000 101.000000000000000
0.306245000000000 7.964530000000000 -0.815228000000000 50.000000000000000
0.568397000000000 7.972470000000000 -0.833016000000000 100.000000000000000
0.568929000000000 7.960350000000000 -0.708043000000000 101.000000000000000
0.819832000000000 7.894270000000000 -1.066040000000000 101.000000000000000
0.322187000000000 7.980080000000000 -0.959412000000000 38.000000000000000
0.578370000000000 7.936590000000000 -0.998229000000000 101.000000000000000
0.834178000000000 7.911440000000000 -0.844559000000000 101.000000000000000
0.834731000000000 7.903450000000000 -0.720474000000000 101.000000000000000
0.334044000000000 7.963410000000000 -0.815228000000000 42.000000000000000
0.593647000000000 7.954670000000000 -0.831358000000000 100.000000000000000
0.594432000000000 7.946500000000000 -0.706982000000000 101.000000000000000
0.845583000000000 7.887570000000000 -1.065500000000000 101.000000000000000
0.348475000000000 7.975000000000000 -0.958934000000000 92.000000000000000
0.606373000000000 7.938480000000000 -0.998726000000000 101.000000000000000
0.861358000000000 7.904520000000000 -0.844137000000000 150.000000000000000
0.861450000000000 7.892570000000000 -0.719752000000000 101.000000000000000
0.361840000000000 7.962200000000000 -0.815228000000000 72.000000000000000
0.622488000000000 7.948480000000000 -0.830943000000000 101.000000000000000
0.623241000000000 7.940290000000000 -0.706629000000000 101.000000000000000
0.874487000000000 7.884410000000000 -1.065500000000000 101.000000000000000
0.377514000000000 7.969700000000000 -0.958457000000000 100.000000000000000
0.633764000000000 7.932360000000000 -0.998229000000000 67.000000000000000
0.887611000000000 7.889610000000000 -0.842870000000000 113.000000000000000
0.888548000000000 7.885560000000000 -0.719390000000000 101.000000000000000
0.390020000000000 7.968840000000000 -0.816042000000000 69.000000000000000
0.390611000000000 7.952490000000000 -0.690990000000000 41.000000000000000
0.649905000000000 7.942290000000000 -0.830528000000000 101.000000000000000
0.650954000000000 7.938070000000000 -0.706629000000000 101.000000000000000
0.901102000000000 7.873440000000000 -1.064440000000000 101.000000000000000
0.405332000000000 7.968340000000000 -0.958457000000000 100.000000000000000
0.660459000000000 7.918230000000000 -0.996735000000000 56.000000000000000
0.914229000000000 7.878560000000000 -0.842025000000000 150.000000000000000
0.918368000000000 7.902190000000000 -0.721196000000000 101.000000000000000
0.418042000000000 7.971400000000000 -0.816449000000000 70.000000000000000
0.675564000000000 7.932160000000000 -0.829699000000000 101.000000000000000
0.677274000000000 7.935870000000000 -0.706629000000000 101.000000000000000
0.927206000000000 7.870410000000000 -1.064440000000000 101.000000000000000
0.431538000000000 7.962980000000000 -0.957980000000000 73.000000000000000
0.686713000000000 7.916000000000000 -0.996735000000000 51.000000000000000
0.945041000000000 7.903060000000000 -0.721557000000000 101.000000000000000
0.444474000000000 7.969970000000000 -0.816449000000000 51.000000000000000
0.705005000000000 7.949570000000000 -0.831772000000000 101.000000000000000
0.704619000000000 7.929490000000000 -0.706275000000000 101.000000000000000
0.458874000000000 7.953500000000000 -0.957026000000000 43.000000000000000
0.713984000000000 7.909600000000000 -0.996237000000000 55.000000000000000
0.216418000000000 7.967080000000000 -0.929211000000000 101.000000000000000
0.471586000000000 7.956450000000000 -0.815228000000000 49.000000000000000
0.731289000000000 7.931220000000000 -0.830114000000000 101.000000000000000
0.731927000000000 7.923010000000000 -0.705922000000000 101.000000000000000
0.232580000000000 7.996450000000000 -0.802720000000000 42.000000000000000
0.487362000000000 7.963740000000000 -0.958457000000000 52.000000000000000
0.742331000000000 7.914960000000000 -0.997233000000000 101.000000000000000
0.246662000000000 8.045700000000000 -0.938475000000000 30.000000000000000
0.499107000000000 7.950790000000000 -0.814821000000000 57.000000000000000
0.758970000000000 7.928620000000000 -0.830114000000000 101.000000000000000
0.757297000000000 7.896610000000000 -0.703801000000000 101.000000000000000
0.260621000000000 7.999560000000000 -0.803119000000000 32.000000000000000
0.515414000000000 7.965950000000000 -0.958934000000000 48.000000000000000
0.770950000000000 7.908240000000000 -0.996735000000000 101.000000000000000
0.274241000000000 7.989150000000000 -0.931991000000000 28.000000000000000
0.528772000000000 7.956850000000000 -0.815635000000000 60.000000000000000
0.789205000000000 7.937660000000000 -0.831358000000000 101.000000000000000
0.787024000000000 7.901710000000000 -0.704508000000000 101.000000000000000
0.289074000000000 7.974690000000000 -0.800723000000000 34.000000000000000
0.542982000000000 7.940240000000000 -0.956072000000000 101.000000000000000
0.797569000000000 7.909590000000000 -0.997233000000000 101.000000000000000
0.301031000000000 7.996140000000000 -0.932917000000000 51.000000000000000
0.554601000000000 7.947110000000000 -0.814821000000000 100.000000000000000
0.815523000000000 7.935000000000000 -0.831358000000000 101.000000000000000
0.816079000000000 7.926800000000000 -0.706982000000000 101.000000000000000
0.315360000000000 7.969710000000000 -0.800323000000000 30.000000000000000
0.570446000000000 7.954240000000000 -0.957980000000000 101.000000000000000
0.824205000000000 7.910850000000000 -0.997731000000000 100.000000000000000
0.327058000000000 7.983180000000000 -0.931527000000000 54.000000000000000
0.579791000000000 7.929350000000000 -0.813193000000000 101.000000000000000
0.841534000000000 7.916280000000000 -0.829699000000000 101.000000000000000
0.842900000000000 7.915980000000000 -0.706275000000000 101.000000000000000
0.343520000000000 7.976510000000000 -0.801122000000000 45.000000000000000
0.597612000000000 7.944280000000000 -0.957026000000000 101.000000000000000
0.851917000000000 7.895930000000000 -0.996237000000000 64.000000000000000
0.355607000000000 7.966050000000000 -0.929674000000000 100.000000000000000
0.609459000000000 7.935110000000000 -0.814007000000000 101.000000000000000
0.868728000000000 7.909340000000000 -0.829284000000000 101.000000000000000
0.870527000000000 7.912990000000000 -0.706275000000000 101.000000000000000
0.371731000000000 7.983220000000000 -0.801921000000000 46.000000000000000
0.625339000000000 7.942140000000000 -0.957026000000000 100.000000000000000
0.880792000000000 7.904750000000000 -0.997731000000000 91.000000000000000
0.383984000000000 7.976670000000000 -0.931064000000000 100.000000000000000
0.638747000000000 7.952770000000000 -0.816042000000000 45.000000000000000
0.896779000000000 7.910210000000000 -0.829699000000000 101.000000000000000
0.896795000000000 7.898030000000000 -0.705215000000000 101.000000000000000
0.399198000000000 7.973920000000000 -0.801122000000000 48.000000000000000
0.652082000000000 7.928040000000000 -0.955595000000000 60.000000000000000
0.907473000000000 7.893740000000000 -0.996735000000000 71.000000000000000
0.412235000000000 7.983220000000000 -0.931991000000000 100.000000000000000
0.665838000000000 7.942560000000000 -0.815228000000000 62.000000000000000
0.922538000000000 7.891220000000000 -0.828040000000000 101.000000000000000
0.925285000000000 7.902760000000000 -0.705922000000000 101.000000000000000
0.427242000000000 7.976450000000000 -0.801521000000000 50.000000000000000
0.681449000000000 7.945500000000000 -0.957980000000000 73.000000000000000
0.934555000000000 7.886580000000000 -0.996237000000000 101.000000000000000
0.439225000000000 7.965860000000000 -0.930138000000000 100.000000000000000
0.691481000000000 7.916400000000000 -0.812786000000000 63.000000000000000
0.454629000000000 7.966970000000000 -0.800723000000000 36.000000000000000
0.708826000000000 7.939110000000000 -0.957503000000000 74.000000000000000
0.466102000000000 7.972290000000000 -0.931064000000000 81.000000000000000
0.719526000000000 7.933880000000000 -0.814821000000000 71.000000000000000
0.481766000000000 7.977330000000000 -0.801921000000000 38.000000000000000
0.733318000000000 7.916950000000000 -0.955118000000000 101.000000000000000
0.491801000000000 7.958810000000000 -0.929674000000000 74.000000000000000
0.744714000000000 7.919560000000000 -0.813600000000000 101.000000000000000
0.508848000000000 7.963690000000000 -0.800723000000000 38.000000000000000
0.760569000000000 7.910390000000000 -0.954641000000000 101.000000000000000
0.521747000000000 7.968850000000000 -0.931064000000000 81.000000000000000
0.773736000000000 7.916780000000000 -0.813600000000000 101.000000000000000
0.535037000000000 7.938040000000000 -0.798327000000000 56.000000000000000
0.789752000000000 7.923490000000000 -0.956549000000000 101.000000000000000
0.549560000000000 7.966980000000000 -0.931064000000000 100.000000000000000
0.800564000000000 7.906110000000000 -0.812786000000000 101.000000000000000
0.563306000000000 7.944060000000000 -0.799125000000000 56.000000000000000
0.816590000000000 7.912780000000000 -0.955595000000000 101.000000000000000
0.575931000000000 7.945200000000000 -0.928748000000000 101.000000000000000
0.830230000000000 7.923060000000000 -0.814821000000000 92.000000000000000
0.591032000000000 7.942050000000000 -0.799125000000000 69.000000000000000
0.846313000000000 7.929630000000000 -0.957980000000000 74.000000000000000
0.602575000000000 7.947200000000000 -0.929211000000000 101.000000000000000
0.855216000000000 7.908390000000000 -0.813600000000000 63.000000000000000
0.617674000000000 7.944010000000000 -0.799525000000000 64.000000000000000
0.871301000000000 7.914940000000000 -0.956549000000000 83.000000000000000
0.630312000000000 7.945050000000000 -0.929211000000000 101.000000000000000
0.883258000000000 7.909310000000000 -0.814007000000000 82.000000000000000
0.645400000000000 7.941810000000000 -0.799525000000000 39.000000000000000
0.896682000000000 7.892120000000000 -0.954164000000000 82.000000000000000
0.657714000000000 7.938840000000000 -0.928748000000000 101.000000000000000
0.909950000000000 7.898280000000000 -0.813193000000000 85.000000000000000
0.672446000000000 7.931570000000000 -0.798726000000000 40.000000000000000
0.923763000000000 7.885000000000000 -0.953687000000000 101.000000000000000
0.685422000000000 7.936500000000000 -0.928748000000000 101.000000000000000
0.936107000000000 7.883200000000000 -0.811972000000000 101.000000000000000
0.700828000000000 7.937110000000000 -0.799525000000000 46.000000000000000
0.710316000000000 7.918350000000000 -0.926895000000000 101.000000000000000
0.726055000000000 7.922850000000000 -0.798327000000000 85.000000000000000
0.736202000000000 7.912000000000000 -0.926432000000000 101.000000000000000
0.752953000000000 7.912340000000000 -0.797528000000000 101.000000000000000
0.765579000000000 7.913200000000000 -0.926895000000000 101.000000000000000
0.781740000000000 7.921550000000000 -0.798726000000000 101.000000000000000
0.793593000000000 7.914430000000000 -0.927358000000000 101.000000000000000
0.808577000000000 7.910850000000000 -0.797927000000000 101.000000000000000
0.820805000000000 7.907660000000000 -0.926895000000000 101.000000000000000
0.838697000000000 7.931730000000000 -0.800323000000000 42.000000000000000
0.847023000000000 7.904900000000000 -0.926895000000000 101.000000000000000
0.863700000000000 7.917030000000000 -0.799125000000000 44.000000000000000
0.875485000000000 7.909790000000000 -0.927822000000000 101.000000000000000
0.890885000000000 7.910020000000000 -0.798726000000000 49.000000000000000
0.903090000000000 7.906690000000000 -0.927822000000000 101.000000000000000
0.913439000000000 7.863370000000000 -0.794333000000000 101.000000000000000
0.931613000000000 7.911380000000000 -0.928748000000000 101.000000000000000
0.228267000000000 7.953250000000000 -0.906531000000000 100.000000000000000
0.240791000000000 7.953920000000000 -0.783051000000000 52.000000000000000
0.256155000000000 7.956380000000000 -0.906984000000000 42.000000000000000
0.268957000000000 7.964970000000000 -0.784226000000000 21.000000000000000
0.283360000000000 7.939550000000000 -0.905173000000000 60.000000000000000
0.295869000000000 7.940110000000000 -0.781875000000000 32.000000000000000
0.312162000000000 7.966310000000000 -0.908343000000000 61.000000000000000
0.324232000000000 7.954940000000000 -0.783442000000000 35.000000000000000
0.339967000000000 7.965170000000000 -0.908343000000000 62.000000000000000
0.350414000000000 7.917970000000000 -0.779917000000000 69.000000000000000
0.367035000000000 7.948050000000000 -0.906531000000000 40.000000000000000
0.379190000000000 7.940560000000000 -0.782267000000000 80.000000000000000
0.395566000000000 7.962600000000000 -0.908343000000000 35.000000000000000
0.405519000000000 7.939250000000000 -0.782267000000000 82.000000000000000
0.421548000000000 7.953310000000000 -0.907437000000000 35.000000000000000
0.433230000000000 7.937790000000000 -0.782267000000000 83.000000000000000
0.447962000000000 7.927980000000000 -0.904720000000000 95.000000000000000
0.461397000000000 7.944180000000000 -0.783051000000000 35.000000000000000
0.217077000000000 7.981090000000000 -1.457570000000000 74.000000000000000
0.218852000000000 7.995010000000000 -0.895706000000000 63.000000000000000
0.476586000000000 7.942240000000000 -0.906531000000000 100.000000000000000
0.233877000000000 7.983500000000000 -0.770460000000000 101.000000000000000
0.487901000000000 7.922650000000000 -0.781092000000000 41.000000000000000
0.244694000000000 7.972420000000000 -1.456130000000000 60.000000000000000
0.246881000000000 7.998170000000000 -0.896151000000000 79.000000000000000
0.522069000000000 8.242950000000000 -1.716770000000000 2.000000000000000
0.503803000000000 7.932590000000000 -0.905626000000000 101.000000000000000
0.261612000000000 7.978660000000000 -0.770076000000000 44.000000000000000
0.516588000000000 7.936790000000000 -0.782659000000000 39.000000000000000
0.272387000000000 7.967580000000000 -1.455410000000000 52.000000000000000
0.274662000000000 7.993280000000000 -0.895706000000000 90.000000000000000
0.531755000000000 7.934750000000000 -0.906079000000000 100.000000000000000
0.289173000000000 7.969740000000000 -0.769308000000000 39.000000000000000
0.541837000000000 7.899200000000000 -0.779133000000000 100.000000000000000
0.300049000000000 7.962650000000000 -1.454700000000000 52.000000000000000
0.301660000000000 7.968440000000000 -0.893035000000000 95.000000000000000
0.560288000000000 7.944740000000000 -0.907437000000000 57.000000000000000
0.317149000000000 7.972660000000000 -0.769692000000000 53.000000000000000
0.570839000000000 7.917110000000000 -0.781092000000000 100.000000000000000
0.328489000000000 7.977280000000000 -1.457570000000000 17.000000000000000
0.329966000000000 7.979260000000000 -0.894370000000000 98.000000000000000
0.587137000000000 7.930850000000000 -0.906079000000000 58.000000000000000
0.344804000000000 7.967520000000000 -0.769308000000000 99.000000000000000
0.599072000000000 7.923010000000000 -0.781875000000000 101.000000000000000
0.356158000000000 7.972160000000000 -1.456850000000000 10.000000000000000
0.358529000000000 7.993940000000000 -0.896151000000000 28.000000000000000
0.614202000000000 7.920820000000000 -0.905173000000000 61.000000000000000
0.372428000000000 7.962290000000000 -0.768924000000000 101.000000000000000
0.627038000000000 7.924840000000000 -0.782267000000000 101.000000000000000
0.383984000000000 7.970860000000000 -1.456850000000000 8.000000000000000
0.386239000000000 7.988670000000000 -0.895706000000000 30.000000000000000
0.639921000000000 7.894860000000000 -0.902456000000000 101.000000000000000
0.400220000000000 7.960950000000000 -0.768924000000000 101.000000000000000
0.654042000000000 7.914660000000000 -0.781484000000000 56.000000000000000
0.411196000000000 7.957690000000000 -1.454700000000000 13.000000000000000
0.412887000000000 7.963450000000000 -0.893035000000000 32.000000000000000
0.665466000000000 7.868820000000000 -0.899739000000000 101.000000000000000
0.428006000000000 7.959500000000000 -0.768924000000000 101.000000000000000
0.682690000000000 7.924230000000000 -0.782659000000000 51.000000000000000
0.437887000000000 7.936560000000000 -1.451100000000000 77.000000000000000
0.439804000000000 7.946090000000000 -0.891254000000000 87.000000000000000
0.693296000000000 7.886360000000000 -0.902003000000000 101.000000000000000
0.453036000000000 7.934190000000000 -0.766620000000000 83.000000000000000
0.708254000000000 7.913990000000000 -0.781875000000000 56.000000000000000
0.462824000000000 7.911490000000000 -1.446790000000000 74.000000000000000
0.467083000000000 7.960460000000000 -0.893035000000000 100.000000000000000
0.721906000000000 7.895770000000000 -0.903362000000000 101.000000000000000
0.224013000000000 7.960070000000000 -1.296040000000000 67.000000000000000
0.225985000000000 7.980600000000000 -0.878599000000000 60.000000000000000
0.481452000000000 7.944480000000000 -0.767772000000000 83.000000000000000
0.732557000000000 7.875800000000000 -0.778350000000000 101.000000000000000
0.241128000000000 8.020610000000000 -0.758513000000000 101.000000000000000
0.493039000000000 7.929380000000000 -1.450390000000000 94.000000000000000
0.495514000000000 7.946790000000000 -0.891699000000000 101.000000000000000
0.753099000000000 7.916810000000000 -0.906079000000000 81.000000000000000
0.253940000000000 7.982870000000000 -1.299890000000000 55.000000000000000
0.255234000000000 7.979720000000000 -0.878599000000000 93.000000000000000
0.510311000000000 7.938690000000000 -0.767388000000000 92.000000000000000
0.762792000000000 7.872930000000000 -0.778350000000000 101.000000000000000
0.269853000000000 7.999770000000000 -0.756631000000000 46.000000000000000
0.522616000000000 7.935370000000000 -1.451820000000000 59.000000000000000
0.525423000000000 7.956820000000000 -0.893035000000000 100.000000000000000
0.776232000000000 7.882630000000000 -0.902456000000000 64.000000000000000
0.280688000000000 7.989880000000000 -1.301180000000000 50.000000000000000
0.281273000000000 7.966910000000000 -0.877286000000000 74.000000000000000
0.536902000000000 7.940920000000000 -0.767772000000000 100.000000000000000
0.788711000000000 7.882380000000000 -0.779525000000000 101.000000000000000
0.295130000000000 8.002860000000000 -0.757007000000000 52.000000000000000
0.546188000000000 7.914060000000000 -1.448230000000000 15.000000000000000
0.550417000000000 7.955130000000000 -0.893035000000000 51.000000000000000
0.805759000000000 7.899640000000000 -0.904720000000000 74.000000000000000
0.308576000000000 7.988850000000000 -1.301180000000000 54.000000000000000
0.309698000000000 7.981770000000000 -0.879037000000000 86.000000000000000
0.563488000000000 7.923120000000000 -0.766235000000000 101.000000000000000
0.816631000000000 7.883540000000000 -0.779917000000000 101.000000000000000
0.322903000000000 7.997800000000000 -0.756631000000000 59.000000000000000
0.574664000000000 7.923880000000000 -1.450390000000000 18.000000000000000
0.579047000000000 7.965050000000000 -0.894370000000000 42.000000000000000
0.831661000000000 7.880970000000000 -0.902909000000000 101.000000000000000
0.335298000000000 7.960110000000000 -1.296680000000000 16.000000000000000
0.337054000000000 7.968720000000000 -0.877724000000000 100.000000000000000
0.592031000000000 7.933010000000000 -0.767388000000000 101.000000000000000
0.846265000000000 7.900430000000000 -0.781875000000000 72.000000000000000
0.349946000000000 7.976730000000000 -0.754749000000000 101.000000000000000
0.602916000000000 7.929680000000000 -1.451820000000000 19.000000000000000
0.606243000000000 7.955060000000000 -0.893480000000000 44.000000000000000
0.857873000000000 7.866170000000000 -0.901550000000000 101.000000000000000
0.362722000000000 7.951000000000000 -1.295390000000000 19.000000000000000
0.365413000000000 7.979410000000000 -0.879037000000000 46.000000000000000
0.619098000000000 7.922960000000000 -0.766620000000000 101.000000000000000
0.873837000000000 7.897430000000000 -0.781875000000000 70.000000000000000
0.378164000000000 7.983420000000000 -0.755502000000000 101.000000000000000
0.628096000000000 7.896140000000000 -1.446080000000000 100.000000000000000
0.631164000000000 7.917230000000000 -0.889473000000000 100.000000000000000