# This PCD file was generated using the MATLAB® pcwrite function
# from Computer Vision Toolbox®.
# .PCD v.7 - Point Cloud Data file format
VERSION .7
FIELDS x y z intensity
SIZE 8 8 8 8
TYPE F F F F
COUNT 1 1 1 1
WIDTH 554
HEIGHT 1
VIEWPOINT 0 0 0 1 0 0 0
POINTS 554
DATA ascii
0.940714000000000 7.872700000000000 -0.903362000000000 13.000000000000000
0.950328000000000 7.848490000000000 -0.777958000000000 44.000000000000000
0.965277000000000 7.845700000000000 -0.900645000000000 47.000000000000000
0.975257000000000 7.825370000000000 -0.776000000000000 12.000000000000000
0.994995000000000 7.871780000000000 -1.649200000000000 12.000000000000000
0.990661000000000 7.826510000000000 -0.898834000000000 51.000000000000000
1.001550000000000 7.814020000000000 -0.775216000000000 12.000000000000000
1.016950000000000 7.815120000000000 -0.897928000000000 58.000000000000000
1.031420000000000 7.830210000000000 -0.777175000000000 12.000000000000000
1.045800000000000 7.823340000000000 -0.899286000000000 56.000000000000000
1.056320000000000 7.818860000000000 -0.776391000000000 62.000000000000000
1.073900000000000 7.835580000000000 -0.901098000000000 12.000000000000000
1.079230000000000 7.783580000000000 -0.773258000000000 62.000000000000000
1.100140000000000 7.823920000000000 -0.900192000000000 12.000000000000000
1.109200000000000 7.799470000000000 -0.775216000000000 56.000000000000000
1.127510000000000 7.830160000000000 -1.644320000000000 13.000000000000000
1.126310000000000 7.812160000000000 -0.899286000000000 13.000000000000000
1.136990000000000 7.799490000000000 -0.775608000000000 56.000000000000000
1.155970000000000 7.833920000000000 -1.645950000000000 15.000000000000000
1.151250000000000 7.792460000000000 -0.897475000000000 35.000000000000000
1.167150000000000 7.815160000000000 -0.777567000000000 14.000000000000000
1.180390000000000 7.810480000000000 -1.641880000000000 13.000000000000000
1.179030000000000 7.792320000000000 -0.897928000000000 52.000000000000000
0.948055000000000 7.894370000000000 -0.767004000000000 101.000000000000000
1.189610000000000 7.779560000000000 -0.774433000000000 26.000000000000000
0.953156000000000 7.832890000000000 -0.883686000000000 46.000000000000000
1.210040000000000 7.821790000000000 -1.645130000000000 11.000000000000000
1.206230000000000 7.788160000000000 -0.897928000000000 61.000000000000000
0.970720000000000 7.851500000000000 -0.763163000000000 21.000000000000000
1.215520000000000 7.767490000000000 -0.773649000000000 17.000000000000000
0.979969000000000 7.836440000000000 -1.441770000000000 44.000000000000000
0.982961000000000 7.849240000000000 -0.885912000000000 46.000000000000000
1.229050000000000 7.756420000000000 -0.894758000000000 75.000000000000000
1.000130000000000 7.863860000000000 -0.764699000000000 21.000000000000000
1.240110000000000 7.747480000000000 -0.772082000000000 66.000000000000000
1.008320000000000 7.840780000000000 -1.443200000000000 40.000000000000000
1.010350000000000 7.845760000000000 -0.885912000000000 46.000000000000000
1.262110000000000 7.797690000000000 -1.641880000000000 8.000000000000000
1.260570000000000 7.779540000000000 -0.897928000000000 21.000000000000000
1.027060000000000 7.856370000000000 -0.764315000000000 24.000000000000000
1.264580000000000 7.727390000000000 -0.770516000000000 66.000000000000000
1.037230000000000 7.848910000000000 -1.445360000000000 37.000000000000000
1.039820000000000 7.857950000000000 -0.887693000000000 56.000000000000000
1.288040000000000 7.785510000000000 -1.640250000000000 9.000000000000000
1.287070000000000 7.771180000000000 -0.897475000000000 20.000000000000000
1.053950000000000 7.848790000000000 -0.763931000000000 40.000000000000000
1.294170000000000 7.738630000000000 -0.772082000000000 72.000000000000000
1.065150000000000 7.849140000000000 -1.446080000000000 35.000000000000000
1.067240000000000 7.854270000000000 -0.887693000000000 15.000000000000000
1.314850000000000 7.770560000000000 -0.897928000000000 18.000000000000000
1.074270000000000 7.793790000000000 -0.758938000000000 97.000000000000000
1.323190000000000 7.745840000000000 -0.773258000000000 65.000000000000000
1.096890000000000 7.876550000000000 -1.451820000000000 5.000000000000000
1.094110000000000 7.846560000000000 -0.887248000000000 12.000000000000000
1.339940000000000 7.754170000000000 -0.896569000000000 42.000000000000000
1.104810000000000 7.813650000000000 -0.761242000000000 100.000000000000000
1.348850000000000 7.733330000000000 -0.772474000000000 19.000000000000000
1.115780000000000 7.822230000000000 -1.442480000000000 4.000000000000000
1.118430000000000 7.831080000000000 -0.885912000000000 14.000000000000000
1.364950000000000 7.745770000000000 -0.896117000000000 69.000000000000000
1.132430000000000 7.821760000000000 -0.762395000000000 100.000000000000000
1.372390000000000 7.717060000000000 -0.771299000000000 32.000000000000000
1.145350000000000 7.833860000000000 -1.445360000000000 5.000000000000000
1.146910000000000 7.835000000000000 -0.886802000000000 17.000000000000000
1.390570000000000 7.733130000000000 -0.895211000000000 89.000000000000000
1.160310000000000 7.821700000000000 -0.762779000000000 41.000000000000000
1.402170000000000 7.727890000000000 -0.772866000000000 33.000000000000000
1.170360000000000 7.814250000000000 -1.442480000000000 8.000000000000000
1.168360000000000 7.791640000000000 -0.882351000000000 47.000000000000000
1.444250000000000 7.881510000000000 -1.665490000000000 3.000000000000000
1.413970000000000 7.708690000000000 -0.892947000000000 100.000000000000000
0.939505000000000 7.888290000000000 -0.874224000000000 4.000000000000000
1.185210000000000 7.801860000000000 -0.761242000000000 32.000000000000000
1.426130000000000 7.699210000000000 -0.770516000000000 66.000000000000000
0.953814000000000 7.891130000000000 -0.751361000000000 100.000000000000000
1.196600000000000 7.794350000000000 -1.439610000000000 41.000000000000000
1.200530000000000 7.810870000000000 -0.885022000000000 64.000000000000000
1.450260000000000 7.746420000000000 -0.897928000000000 38.000000000000000
0.963121000000000 7.853060000000000 -1.287680000000000 43.000000000000000
0.965502000000000 7.861120000000000 -0.871598000000000 74.000000000000000
1.214410000000000 7.801390000000000 -0.761627000000000 28.000000000000000
1.450780000000000 7.682450000000000 -0.769340000000000 101.000000000000000
0.979387000000000 7.871950000000000 -0.749855000000000 47.000000000000000
1.223190000000000 7.786240000000000 -1.438890000000000 45.000000000000000
1.227790000000000 7.806640000000000 -0.885022000000000 78.000000000000000
1.478780000000000 7.749120000000000 -0.898834000000000 31.000000000000000
0.990033000000000 7.845730000000000 -1.287040000000000 48.000000000000000
0.987454000000000 7.814310000000000 -0.866785000000000 52.000000000000000
1.242890000000000 7.804970000000000 -0.762395000000000 40.000000000000000
1.482100000000000 7.700800000000000 -0.771691000000000 100.000000000000000
1.004840000000000 7.852680000000000 -0.748349000000000 44.000000000000000
1.250360000000000 7.781920000000000 -1.438890000000000 52.000000000000000
1.256300000000000 7.810150000000000 -0.885912000000000 20.000000000000000
1.500680000000000 7.724670000000000 -0.896569000000000 37.000000000000000
1.013510000000000 7.822830000000000 -1.283830000000000 34.000000000000000
1.015920000000000 7.830700000000000 -0.868973000000000 62.000000000000000
1.259180000000000 7.741860000000000 -0.756634000000000 100.000000000000000
1.507440000000000 7.687760000000000 -0.770907000000000 101.000000000000000
1.032760000000000 7.853070000000000 -0.748726000000000 35.000000000000000
1.278160000000000 7.781390000000000 -1.439610000000000 11.000000000000000
1.282910000000000 7.801800000000000 -0.885467000000000 18.000000000000000
1.525900000000000 7.703520000000000 -0.894758000000000 47.000000000000000
1.043740000000000 7.830800000000000 -1.285760000000000 42.000000000000000
1.047240000000000 7.846630000000000 -0.871161000000000 70.000000000000000
1.294730000000000 7.780390000000000 -0.760858000000000 101.000000000000000
1.535270000000000 7.694430000000000 -0.772082000000000 38.000000000000000
1.058260000000000 7.845660000000000 -0.748349000000000 100.000000000000000
1.303300000000000 7.773230000000000 -1.438890000000000 5.000000000000000
1.308770000000000 7.797500000000000 -0.885467000000000 22.000000000000000
1.549860000000000 7.690630000000000 -0.893853000000000 100.000000000000000
1.071840000000000 7.842940000000000 -1.288330000000000 32.000000000000000
1.075950000000000 7.862810000000000 -0.873349000000000 21.000000000000000
1.320530000000000 7.776060000000000 -0.760858000000000 101.000000000000000
1.560530000000000 7.681230000000000 -0.771299000000000 36.000000000000000
1.084280000000000 7.842110000000000 -0.748349000000000 101.000000000000000
1.333050000000000 7.792140000000000 -1.443200000000000 7.000000000000000
1.335290000000000 7.797030000000000 -0.885912000000000 20.000000000000000
1.575100000000000 7.677380000000000 -0.892947000000000 101.000000000000000
1.094280000000000 7.803970000000000 -1.282540000000000 5.000000000000000
1.099520000000000 7.831450000000000 -0.870286000000000 21.000000000000000
1.350380000000000 7.787090000000000 -0.762395000000000 49.000000000000000
1.588140000000000 7.679630000000000 -0.771691000000000 37.000000000000000
1.112450000000000 7.834140000000000 -0.747973000000000 101.000000000000000
1.359570000000000 7.775570000000000 -1.441050000000000 10.000000000000000
1.357690000000000 7.756850000000000 -0.881905000000000 70.000000000000000
1.602700000000000 7.675730000000000 -0.893400000000000 101.000000000000000
1.123760000000000 7.815730000000000 -1.285110000000000 7.000000000000000
1.126290000000000 7.823630000000000 -0.869848000000000 26.000000000000000
1.376170000000000 7.774490000000000 -0.761627000000000 47.000000000000000
1.611660000000000 7.658460000000000 -0.770124000000000 62.000000000000000
1.138640000000000 7.822320000000000 -0.747220000000000 101.000000000000000
1.380480000000000 7.735920000000000 -1.434580000000000 53.000000000000000
1.388960000000000 7.775540000000000 -0.884576000000000 88.000000000000000
1.629490000000000 7.670090000000000 -0.893400000000000 101.000000000000000
1.155060000000000 7.839100000000000 -1.289610000000000 7.000000000000000
1.152430000000000 7.811780000000000 -0.868973000000000 46.000000000000000
1.401880000000000 7.761800000000000 -0.760858000000000 50.000000000000000
1.168290000000000 7.834060000000000 -0.748726000000000 38.000000000000000
1.404660000000000 7.715560000000000 -1.431710000000000 56.000000000000000
1.413240000000000 7.755000000000000 -0.882796000000000 89.000000000000000
0.930376000000000 7.871300000000000 -0.733887000000000 27.000000000000000
1.177120000000000 7.799890000000000 -1.283830000000000 38.000000000000000
1.181470000000000 7.819510000000000 -0.870286000000000 93.000000000000000
1.425360000000000 7.737280000000000 -0.758938000000000 47.000000000000000
1.194260000000000 7.830140000000000 -0.748726000000000 35.000000000000000
1.435980000000000 7.741820000000000 -1.437450000000000 68.000000000000000
1.441120000000000 7.762000000000000 -0.884131000000000 77.000000000000000
0.952991000000000 7.885480000000000 -1.166100000000000 10.000000000000000
0.954232000000000 7.884190000000000 -0.858541000000000 100.000000000000000
0.949744000000000 7.812820000000000 -0.728724000000000 100.000000000000000
1.201770000000000 7.788140000000000 -1.282540000000000 36.000000000000000
1.205570000000000 7.803760000000000 -0.868973000000000 100.000000000000000
1.445870000000000 7.705120000000000 -0.756249000000000 101.000000000000000
1.219750000000000 7.814120000000000 -0.747596000000000 32.000000000000000
1.465920000000000 7.752220000000000 -1.440330000000000 49.000000000000000
1.468210000000000 7.756920000000000 -0.884131000000000 25.000000000000000
0.978557000000000 7.866400000000000 -1.163780000000000 27.000000000000000
0.974864000000000 7.825570000000000 -0.852522000000000 65.000000000000000
0.980966000000000 7.841070000000000 -0.731674000000000 101.000000000000000
1.228950000000000 7.783900000000000 -1.282540000000000 49.000000000000000
1.233430000000000 7.803430000000000 -0.869411000000000 100.000000000000000
1.475750000000000 7.715670000000000 -0.757786000000000 101.000000000000000
1.243880000000000 7.790150000000000 -0.745714000000000 100.000000000000000
1.489990000000000 7.731600000000000 -1.437450000000000 11.000000000000000
1.496030000000000 7.755650000000000 -0.884576000000000 27.000000000000000
1.003500000000000 7.843310000000000 -1.160870000000000 13.000000000000000
1.001670000000000 7.818170000000000 -0.852092000000000 58.000000000000000
1.006300000000000 7.821800000000000 -0.730199000000000 101.000000000000000
1.256110000000000 7.779560000000000 -1.282540000000000 61.000000000000000
1.263200000000000 7.814770000000000 -0.871161000000000 40.000000000000000
1.504960000000000 7.722200000000000 -0.758938000000000 101.000000000000000
1.271700000000000 7.789690000000000 -0.746091000000000 101.000000000000000
1.517730000000000 7.730210000000000 -1.438170000000000 12.000000000000000
1.520030000000000 7.734780000000000 -0.882796000000000 31.000000000000000
1.031390000000000 7.843680000000000 -1.161450000000000 13.000000000000000
1.034660000000000 7.858000000000000 -0.856821000000000 73.000000000000000
1.030980000000000 7.798500000000000 -0.728355000000000 101.000000000000000
1.287760000000000 7.802390000000000 -1.287040000000000 7.000000000000000
1.286580000000000 7.786780000000000 -0.868536000000000 34.000000000000000
1.531910000000000 7.716900000000000 -0.758938000000000 101.000000000000000
1.297580000000000 7.777350000000000 -0.745338000000000 101.000000000000000
1.543930000000000 7.721010000000000 -1.437450000000000 13.000000000000000
1.541560000000000 7.702140000000000 -0.879680000000000 100.000000000000000
1.059290000000000 7.843950000000000 -1.162030000000000 15.000000000000000
1.064220000000000 7.870100000000000 -0.858541000000000 28.000000000000000
1.060880000000000 7.814590000000000 -0.730199000000000 101.000000000000000
1.314330000000000 7.793960000000000 -1.286400000000000 10.000000000000000
1.316400000000000 7.797920000000000 -0.870286000000000 31.000000000000000
1.558830000000000 7.711500000000000 -0.758938000000000 76.000000000000000
1.328060000000000 7.792400000000000 -0.747220000000000 101.000000000000000
1.564590000000000 7.684730000000000 -1.431710000000000 71.000000000000000
1.570810000000000 7.708400000000000 -0.881015000000000 101.000000000000000
1.079060000000000 7.785330000000000 -1.153900000000000 73.000000000000000
1.090590000000000 7.858460000000000 -0.857681000000000 20.000000000000000
1.085690000000000 7.803130000000000 -0.729461000000000 101.000000000000000
1.340170000000000 7.789560000000000 -1.286400000000000 13.000000000000000
1.337530000000000 7.766090000000000 -0.867223000000000 38.000000000000000
1.581990000000000 7.694590000000000 -0.757786000000000 71.000000000000000
1.353210000000000 7.784030000000000 -0.746844000000000 54.000000000000000
1.589270000000000 7.675640000000000 -1.430990000000000 86.000000000000000
1.597170000000000 7.707040000000000 -0.881460000000000 101.000000000000000
1.107090000000000 7.797380000000000 -1.156220000000000 87.000000000000000
1.111610000000000 7.819370000000000 -0.853812000000000 20.000000000000000
1.113480000000000 7.803240000000000 -0.729830000000000 101.000000000000000
1.360520000000000 7.745950000000000 -1.279970000000000 46.000000000000000
1.366010000000000 7.769200000000000 -0.868098000000000 100.000000000000000
1.609660000000000 7.692920000000000 -0.758170000000000 78.000000000000000
1.380370000000000 7.779260000000000 -0.746844000000000 57.000000000000000
1.619300000000000 7.685450000000000 -1.433860000000000 100.000000000000000
1.623250000000000 7.697530000000000 -0.881015000000000 101.000000000000000
1.138290000000000 7.820880000000000 -1.160290000000000 100.000000000000000
1.140620000000000 7.827240000000000 -0.855101000000000 23.000000000000000
1.138410000000000 7.783540000000000 -0.728355000000000 101.000000000000000
1.386160000000000 7.733380000000000 -1.278690000000000 61.000000000000000
1.391710000000000 7.756560000000000 -0.867223000000000 101.000000000000000
1.629870000000000 7.656100000000000 -0.755097000000000 101.000000000000000
1.410360000000000 7.790070000000000 -0.748349000000000 64.000000000000000
1.650240000000000 7.698990000000000 -1.437450000000000 101.000000000000000
1.647600000000000 7.680150000000000 -0.879680000000000 27.000000000000000
1.164420000000000 7.809030000000000 -1.159130000000000 75.000000000000000
1.159120000000000 7.764220000000000 -0.848653000000000 73.000000000000000
1.163800000000000 7.767700000000000 -0.727248000000000 100.000000000000000
1.415990000000000 7.744030000000000 -1.281260000000000 79.000000000000000
1.418060000000000 7.747750000000000 -0.866785000000000 101.000000000000000
1.431760000000000 7.753770000000000 -0.745338000000000 95.000000000000000
0.945894000000000 7.886840000000000 -0.843292000000000 69.000000000000000
1.189280000000000 7.789270000000000 -1.156800000000000 21.000000000000000
1.190420000000000 7.787640000000000 -0.851662000000000 85.000000000000000
1.192720000000000 7.775400000000000 -0.728355000000000 84.000000000000000
1.443010000000000 7.739040000000000 -1.281260000000000 87.000000000000000
1.447290000000000 7.754470000000000 -0.868098000000000 58.000000000000000
0.956874000000000 7.850880000000000 -1.062310000000000 71.000000000000000
1.459550000000000 7.752640000000000 -0.745714000000000 101.000000000000000
0.970494000000000 7.859810000000000 -0.840758000000000 24.000000000000000
1.217080000000000 7.788980000000000 -1.157390000000000 25.000000000000000
1.223130000000000 7.818800000000000 -0.855531000000000 100.000000000000000
1.221090000000000 7.779060000000000 -0.729092000000000 100.000000000000000
1.473700000000000 7.753350000000000 -1.284470000000000 14.000000000000000
1.476580000000000 7.761090000000000 -0.869411000000000 49.000000000000000
0.980326000000000 7.816020000000000 -1.058050000000000 72.000000000000000
1.484350000000000 7.735760000000000 -0.744585000000000 101.000000000000000
0.999929000000000 7.872160000000000 -0.842448000000000 33.000000000000000
1.243630000000000 7.780780000000000 -1.156800000000000 24.000000000000000
1.246650000000000 7.790920000000000 -0.852952000000000 61.000000000000000
1.246340000000000 7.762960000000000 -0.727986000000000 101.000000000000000
1.495500000000000 7.721020000000000 -1.279970000000000 16.000000000000000
1.499120000000000 7.732470000000000 -0.866785000000000 47.000000000000000
1.009120000000000 7.824350000000000 -1.059650000000000 55.000000000000000
1.509820000000000 7.722720000000000 -0.743832000000000 101.000000000000000
1.025340000000000 7.852840000000000 -0.840758000000000 40.000000000000000
1.265040000000000 7.741240000000000 -1.151580000000000 100.000000000000000
1.275760000000000 7.798300000000000 -0.854242000000000 23.000000000000000
1.268270000000000 7.727120000000000 -0.725036000000000 101.000000000000000
1.520910000000000 7.708010000000000 -1.278690000000000 14.000000000000000
1.529950000000000 7.746690000000000 -0.868973000000000 43.000000000000000
1.039030000000000 7.840430000000000 -1.062310000000000 65.000000000000000
1.540660000000000 7.736930000000000 -0.745714000000000 81.000000000000000
1.051160000000000 7.837390000000000 -0.839492000000000 44.000000000000000
1.056240000000000 7.864850000000000 -0.719390000000000 25.000000000000000
1.293360000000000 7.744580000000000 -1.152740000000000 101.000000000000000
1.305600000000000 7.809480000000000 -0.855961000000000 25.000000000000000
1.296550000000000 7.730500000000000 -0.725773000000000 101.000000000000000
1.551700000000000 7.722000000000000 -1.281900000000000 58.000000000000000
1.549140000000000 7.702330000000000 -0.864598000000000 100.000000000000000
1.064260000000000 7.821040000000000 -1.060180000000000 36.000000000000000
1.567650000000000 7.731500000000000 -0.745714000000000 77.000000000000000
1.080140000000000 7.845490000000000 -0.840758000000000 29.000000000000000
1.082600000000000 7.853220000000000 -0.718668000000000 44.000000000000000
1.328370000000000 7.786830000000000 -1.159710000000000 101.000000000000000
1.328160000000000 7.777440000000000 -0.852952000000000 27.000000000000000
1.322860000000000 7.722000000000000 -0.725404000000000 101.000000000000000
1.573900000000000 7.693330000000000 -1.278050000000000 71.000000000000000
1.576820000000000 7.700770000000000 -0.865035000000000 101.000000000000000
1.091000000000000 7.813350000000000 -1.059650000000000 14.000000000000000
1.593830000000000 7.722080000000000 -0.745338000000000 82.000000000000000
1.104740000000000 7.821980000000000 -0.838647000000000 28.000000000000000
1.108330000000000 7.837560000000000 -0.717585000000000 91.000000000000000
1.351470000000000 7.758760000000000 -1.156220000000000 101.000000000000000
1.345740000000000 7.717910000000000 -0.846933000000000 96.000000000000000
1.354610000000000 7.744800000000000 -0.727986000000000 101.000000000000000
1.599940000000000 7.683930000000000 -1.277400000000000 85.000000000000000
1.607750000000000 7.714680000000000 -0.867223000000000 101.000000000000000
1.119390000000000 7.817340000000000 -1.060710000000000 16.000000000000000
1.620240000000000 7.720650000000000 -0.745714000000000 80.000000000000000
1.130670000000000 7.818270000000000 -0.838647000000000 38.000000000000000
1.133180000000000 7.825960000000000 -0.716862000000000 96.000000000000000
1.377880000000000 7.758130000000000 -1.156800000000000 29.000000000000000
1.376200000000000 7.740810000000000 -0.849942000000000 101.000000000000000
1.374690000000000 7.708890000000000 -0.725036000000000 101.000000000000000
1.619690000000000 7.651540000000000 -1.272910000000000 100.000000000000000
1.631670000000000 7.701530000000000 -0.866348000000000 101.000000000000000
1.145310000000000 7.813590000000000 -1.060710000000000 16.000000000000000
1.644180000000000 7.707450000000000 -0.744961000000000 49.000000000000000
1.154840000000000 7.802680000000000 -0.837380000000000 51.000000000000000
1.160870000000000 7.833980000000000 -0.717946000000000 36.000000000000000
1.402900000000000 7.749620000000000 -1.156220000000000 30.000000000000000
1.403990000000000 7.747940000000000 -0.851232000000000 101.000000000000000
1.402940000000000 7.703800000000000 -0.725036000000000 101.000000000000000
1.648550000000000 7.649410000000000 -1.273550000000000 100.000000000000000
1.170410000000000 7.785820000000000 -1.057520000000000 63.000000000000000
0.935400000000000 7.858500000000000 -0.992752000000000 1.000000000000000
1.185990000000000 7.806050000000000 -0.838225000000000 49.000000000000000
1.189750000000000 7.821590000000000 -0.717224000000000 38.000000000000000
1.431920000000000 7.740290000000000 -1.155640000000000 33.000000000000000
1.433730000000000 7.742490000000000 -0.851232000000000 101.000000000000000
1.429090000000000 7.694940000000000 -0.724667000000000 101.000000000000000
0.955163000000000 7.895360000000000 -0.828870000000000 99.000000000000000
1.198780000000000 7.789520000000000 -1.058580000000000 79.000000000000000
0.962419000000000 7.863240000000000 -0.993748000000000 34.000000000000000
1.213090000000000 7.809930000000000 -0.839069000000000 52.000000000000000
1.214450000000000 7.809730000000000 -0.716501000000000 42.000000000000000
1.450990000000000 7.700490000000000 -1.150410000000000 101.000000000000000
1.464560000000000 7.765050000000000 -0.854242000000000 30.000000000000000
1.455340000000000 7.694080000000000 -0.725036000000000 101.000000000000000
0.981340000000000 7.892150000000000 -0.828870000000000 22.000000000000000
1.228300000000000 7.809000000000000 -1.061780000000000 95.000000000000000
0.987499000000000 7.852120000000000 -0.992752000000000 7.000000000000000
1.238980000000000 7.805870000000000 -0.839069000000000 59.000000000000000
1.240340000000000 7.805660000000000 -0.716501000000000 49.000000000000000
1.478750000000000 7.707300000000000 -1.152160000000000 101.000000000000000
1.484300000000000 7.728910000000000 -0.850802000000000 35.000000000000000
1.482940000000000 7.692860000000000 -0.725404000000000 101.000000000000000
1.006860000000000 7.872890000000000 -0.827211000000000 20.000000000000000
1.252410000000000 7.785090000000000 -1.059110000000000 84.000000000000000
1.018820000000000 7.868130000000000 -0.995241000000000 7.000000000000000
1.270140000000000 7.816980000000000 -0.840758000000000 29.000000000000000
1.269590000000000 7.804990000000000 -0.716862000000000 45.000000000000000
1.510790000000000 7.721250000000000 -1.155060000000000 101.000000000000000
1.514140000000000 7.731220000000000 -0.851662000000000 47.000000000000000
1.510550000000000 7.691550000000000 -0.725773000000000 101.000000000000000
1.033300000000000 7.861430000000000 -0.826382000000000 24.000000000000000
1.281500000000000 7.792410000000000 -1.060710000000000 23.000000000000000
1.043660000000000 7.844860000000000 -0.992752000000000 8.000000000000000
1.294810000000000 7.796800000000000 -0.839069000000000 32.000000000000000
1.297480000000000 7.804440000000000 -0.717224000000000 52.000000000000000
1.537730000000000 7.715930000000000 -1.155060000000000 101.000000000000000
1.531790000000000 7.679090000000000 -0.846503000000000 101.000000000000000
1.538960000000000 7.694040000000000 -0.726511000000000 71.000000000000000
1.060740000000000 7.857780000000000 -0.826382000000000 80.000000000000000
1.305410000000000 7.768340000000000 -1.058050000000000 19.000000000000000
1.066740000000000 7.809710000000000 -0.988769000000000 40.000000000000000
1.320680000000000 7.784390000000000 -0.838225000000000 27.000000000000000
1.322710000000000 7.788080000000000 -0.716140000000000 59.000000000000000
1.564660000000000 7.710510000000000 -1.155060000000000 43.000000000000000
1.561750000000000 7.689290000000000 -0.848223000000000 101.000000000000000
1.562080000000000 7.677180000000000 -0.725404000000000 79.000000000000000
1.088970000000000 7.869980000000000 -0.828040000000000 89.000000000000000
1.331830000000000 7.767880000000000 -1.058580000000000 21.000000000000000
1.092630000000000 7.806130000000000 -0.988769000000000 36.000000000000000
1.347850000000000 7.787810000000000 -0.839069000000000 70.000000000000000
1.349210000000000 7.787580000000000 -0.716501000000000 56.000000000000000
1.588620000000000 7.697530000000000 -1.153900000000000 45.000000000000000
1.592060000000000 7.707430000000000 -0.850802000000000 101.000000000000000
1.585640000000000 7.656080000000000 -0.723929000000000 96.000000000000000
1.112520000000000 7.838560000000000 -0.825138000000000 100.000000000000000
1.357570000000000 7.755370000000000 -1.057520000000000 85.000000000000000
1.121570000000000 7.814050000000000 -0.990263000000000 48.000000000000000
1.371560000000000 7.763470000000000 -0.836958000000000 80.000000000000000
1.375000000000000 7.774970000000000 -0.715779000000000 64.000000000000000
1.617100000000000 7.699680000000000 -1.155060000000000 45.000000000000000
1.620600000000000 7.709610000000000 -0.851662000000000 101.000000000000000
1.612350000000000 7.650500000000000 -0.723929000000000 101.000000000000000
1.139300000000000 7.830690000000000 -0.824723000000000 98.000000000000000
1.386730000000000 7.762290000000000 -1.059110000000000 100.000000000000000
1.148260000000000 7.806160000000000 -0.989765000000000 53.000000000000000
1.399360000000000 7.762550000000000 -0.837380000000000 85.000000000000000
1.402130000000000 7.770130000000000 -0.715779000000000 68.000000000000000
1.627430000000000 7.616590000000000 -1.143440000000000 101.000000000000000
1.642510000000000 7.680570000000000 -0.849083000000000 86.000000000000000
1.167220000000000 7.830600000000000 -0.825138000000000 63.000000000000000
1.412390000000000 7.749610000000000 -1.058050000000000 101.000000000000000
1.178460000000000 7.821730000000000 -0.992254000000000 12.000000000000000
1.423570000000000 7.741970000000000 -0.835691000000000 100.000000000000000
1.429240000000000 7.765190000000000 -0.715779000000000 81.000000000000000
0.938350000000000 7.866900000000000 -0.810344000000000 68.000000000000000
1.192740000000000 7.814680000000000 -0.823894000000000 76.000000000000000
1.436540000000000 7.729040000000000 -1.055920000000000 101.000000000000000
0.956842000000000 7.893050000000000 -0.955118000000000 95.000000000000000
1.203330000000000 7.801880000000000 -0.990263000000000 13.000000000000000
1.452790000000000 7.748680000000000 -0.836958000000000 24.000000000000000
1.454130000000000 7.748400000000000 -0.714696000000000 101.000000000000000
0.964834000000000 7.855680000000000 -0.809530000000000 10.000000000000000
1.221240000000000 7.818330000000000 -0.824723000000000 76.000000000000000
1.466460000000000 7.739560000000000 -1.058050000000000 29.000000000000000
0.983896000000000 7.885720000000000 -0.954641000000000 11.000000000000000
1.230560000000000 7.797630000000000 -0.990263000000000 11.000000000000000
1.480570000000000 7.747470000000000 -0.837380000000000 30.000000000000000
1.478180000000000 7.727630000000000 -0.713251000000000 101.000000000000000
0.994245000000000 7.868050000000000 -0.811158000000000 12.000000000000000
1.245390000000000 7.794380000000000 -0.822650000000000 100.000000000000000
1.249860000000000 7.813590000000000 -0.702033000000000 38.000000000000000
1.494220000000000 7.738280000000000 -1.058580000000000 30.000000000000000
1.009900000000000 7.870420000000000 -0.953209000000000 12.000000000000000
1.252080000000000 7.758020000000000 -0.985782000000000 52.000000000000000
1.508370000000000 7.746160000000000 -0.837802000000000 39.000000000000000
1.508190000000000 7.738060000000000 -0.714696000000000 89.000000000000000
1.020170000000000 7.852700000000000 -0.809937000000000 14.000000000000000
1.272590000000000 7.789980000000000 -0.822650000000000 93.000000000000000
1.275190000000000 7.797380000000000 -0.700973000000000 43.000000000000000
1.521220000000000 7.733020000000000 -1.058580000000000 28.000000000000000
1.035810000000000 7.855040000000000 -0.951778000000000 13.000000000000000
1.279800000000000 7.757520000000000 -0.986280000000000 50.000000000000000
1.534620000000000 7.736950000000000 -0.837380000000000 96.000000000000000
1.538300000000000 7.748380000000000 -0.716140000000000 86.000000000000000
1.043890000000000 7.821480000000000 -0.807088000000000 27.000000000000000
1.301080000000000 7.793340000000000 -0.823479000000000 100.000000000000000
1.303720000000000 7.800740000000000 -0.701680000000000 49.000000000000000
1.540420000000000 7.688790000000000 -1.053260000000000 93.000000000000000
1.058430000000000 7.815950000000000 -0.947484000000000 55.000000000000000
1.310830000000000 7.776490000000000 -0.989267000000000 67.000000000000000
1.558470000000000 7.715950000000000 -0.835691000000000 101.000000000000000
1.562180000000000 7.727350000000000 -0.714696000000000 89.000000000000000
1.072800000000000 7.829610000000000 -0.808309000000000 59.000000000000000
1.327610000000000 7.784830000000000 -0.823065000000000 98.000000000000000
1.327590000000000 7.776510000000000 -0.699912000000000 53.000000000000000
1.568040000000000 7.687250000000000 -1.053790000000000 101.000000000000000
1.089530000000000 7.839750000000000 -0.950824000000000 59.000000000000000
1.337950000000000 7.779920000000000 -0.990263000000000 74.000000000000000
1.581650000000000 7.699050000000000 -0.834424000000000 101.000000000000000
1.586990000000000 7.718220000000000 -0.714334000000000 100.000000000000000
1.096550000000000 7.810250000000000 -0.806681000000000 69.000000000000000
1.352740000000000 7.776470000000000 -0.822650000000000 100.000000000000000
1.354730000000000 7.779910000000000 -0.700619000000000 63.000000000000000
1.595940000000000 7.693650000000000 -1.055390000000000 101.000000000000000
1.115520000000000 7.836090000000000 -0.950824000000000 73.000000000000000
1.367160000000000 7.786930000000000 -0.991756000000000 24.000000000000000
1.607700000000000 7.689590000000000 -0.834002000000000 101.000000000000000
1.613920000000000 7.712630000000000 -0.714334000000000 99.000000000000000
1.126640000000000 7.826070000000000 -0.808716000000000 57.000000000000000
1.380570000000000 7.775620000000000 -0.823065000000000 101.000000000000000
1.382580000000000 7.779060000000000 -0.700973000000000 60.000000000000000
1.623610000000000 7.691920000000000 -1.055920000000000 101.000000000000000
1.144010000000000 7.840010000000000 -0.951778000000000 72.000000000000000
1.393630000000000 7.778210000000000 -0.991258000000000 19.000000000000000
1.636190000000000 7.691710000000000 -0.834846000000000 101.000000000000000
1.641660000000000 7.710850000000000 -0.714696000000000 96.000000000000000
1.152210000000000 7.810280000000000 -0.807495000000000 16.000000000000000
1.407700000000000 7.770750000000000 -0.823065000000000 101.000000000000000
1.406170000000000 7.754580000000000 -0.699205000000000 67.000000000000000
1.646280000000000 7.666820000000000 -1.053260000000000 101.000000000000000
1.175480000000000 7.863460000000000 -0.955118000000000 21.000000000000000
1.416500000000000 7.749870000000000 -0.988271000000000 23.000000000000000
1.180060000000000 7.810140000000000 -0.807902000000000 19.000000000000000
1.432650000000000 7.754050000000000 -0.821821000000000 101.000000000000000
1.431780000000000 7.741790000000000 -0.698498000000000 101.000000000000000
0.944942000000000 7.847620000000000 -0.793135000000000 37.000000000000000
1.198120000000000 7.827910000000000 -0.951301000000000 19.000000000000000
1.436270000000000 7.705860000000000 -0.983292000000000 60.000000000000000
0.958008000000000 7.852190000000000 -0.922263000000000 81.000000000000000
1.206100000000000 7.798110000000000 -0.807088000000000 20.000000000000000
1.462650000000000 7.764640000000000 -0.823479000000000 92.000000000000000
1.459530000000000 7.740660000000000 -0.698852000000000 101.000000000000000
0.976246000000000 7.875870000000000 -0.796330000000000 28.000000000000000
1.224210000000000 7.815830000000000 -0.950347000000000 24.000000000000000
1.466860000000000 7.720290000000000 -0.985782000000000 77.000000000000000
0.989371000000000 7.880340000000000 -0.925969000000000 86.000000000000000
1.236420000000000 7.813510000000000 -0.809123000000000 27.000000000000000
1.489000000000000 7.755580000000000 -0.823065000000000 95.000000000000000
1.487300000000000 7.739430000000000 -0.699205000000000 101.000000000000000
1.002730000000000 7.864520000000000 -0.795531000000000 20.000000000000000
1.250220000000000 7.803670000000000 -0.949393000000000 67.000000000000000
1.497730000000000 7.742660000000000 -0.989267000000000 91.000000000000000
1.013470000000000 7.861250000000000 -0.924116000000000 82.000000000000000
1.259150000000000 7.789720000000000 -0.807088000000000 85.000000000000000
1.513950000000000 7.746700000000000 -0.822650000000000 100.000000000000000
1.513720000000000 7.738370000000000 -0.699559000000000 101.000000000000000
1.029320000000000 7.865100000000000 -0.795930000000000 23.000000000000000
1.279940000000000 7.822990000000000 -0.952255000000000 90.000000000000000
1.521680000000000 7.721810000000000 -0.987275000000000 100.000000000000000
1.042470000000000 7.869480000000000 -0.925505000000000 84.000000000000000
1.280490000000000 7.749950000000000 -0.803425000000000 89.000000000000000
1.537870000000000 7.725760000000000 -0.820991000000000 101.000000000000000
1.539940000000000 7.729130000000000 -0.699205000000000 101.000000000000000
1.053050000000000 7.833850000000000 -0.793135000000000 52.000000000000000
1.304620000000000 7.802810000000000 -0.950347000000000 100.000000000000000
1.552530000000000 7.735910000000000 -0.989765000000000 24.000000000000000
1.074210000000000 7.897290000000000 -0.929211000000000 17.000000000000000
1.312180000000000 7.772890000000000 -0.806274000000000 91.000000000000000
1.566410000000000 7.728140000000000 -0.821821000000000 101.000000000000000
1.566120000000000 7.719800000000000 -0.698852000000000 101.000000000000000
1.081480000000000 7.838010000000000 -0.793934000000000 43.000000000000000
1.330510000000000 7.790380000000000 -0.949393000000000 95.000000000000000
1.575550000000000 7.711000000000000 -0.987275000000000 28.000000000000000
1.098480000000000 7.869880000000000 -0.926432000000000 22.000000000000000
1.339300000000000 7.768270000000000 -0.806274000000000 28.000000000000000
1.594180000000000 7.726520000000000 -0.822235000000000 101.000000000000000
1.593060000000000 7.714290000000000 -0.698852000000000 101.000000000000000
1.110510000000000 7.846010000000000 -0.795132000000000 42.000000000000000
1.356340000000000 7.777860000000000 -0.948439000000000 21.000000000000000
1.603260000000000 7.709340000000000 -0.987773000000000 29.000000000000000
1.122560000000000 7.842400000000000 -0.923653000000000 19.000000000000000
1.366410000000000 7.763550000000000 -0.806274000000000 24.000000000000000
1.622780000000000 7.728700000000000 -0.823065000000000 101.000000000000000
1.619980000000000 7.708680000000000 -0.698852000000000 101.000000000000000
1.137320000000000 7.838140000000000 -0.794732000000000 41.000000000000000
1.383480000000000 7.773080000000000 -0.948439000000000 28.000000000000000
1.621130000000000 7.660990000000000 -0.982297000000000 67.000000000000000
1.147630000000000 7.822710000000000 -0.921800000000000 53.000000000000000
1.390690000000000 7.743060000000000 -0.804646000000000 23.000000000000000
1.167390000000000 7.861890000000000 -0.797528000000000 31.000000000000000
1.408540000000000 7.764540000000000 -0.947962000000000 30.000000000000000
1.171380000000000 7.795090000000000 -0.919020000000000 93.000000000000000
1.417710000000000 7.738160000000000 -0.804646000000000 28.000000000000000
1.190210000000000 7.818210000000000 -0.793534000000000 24.000000000000000
1.437710000000000 7.763230000000000 -0.948439000000000 62.000000000000000
1.199640000000000 7.806870000000000 -0.920873000000000 95.000000000000000
1.441170000000000 7.721680000000000 -0.803425000000000 100.000000000000000
1.215520000000000 7.810290000000000 -0.793135000000000 26.000000000000000
1.459030000000000 7.735010000000000 -0.945576000000000 100.000000000000000
1.229220000000000 7.826400000000000 -0.923653000000000 100.000000000000000
1.463790000000000 7.701220000000000 -0.801797000000000 100.000000000000000
1.237770000000000 7.774550000000000 -0.789940000000000 50.000000000000000
1.489770000000000 7.749370000000000 -0.947962000000000 101.000000000000000
1.257900000000000 7.821840000000000 -0.923653000000000 36.000000000000000
1.496550000000000 7.719240000000000 -0.804239000000000 100.000000000000000
1.268740000000000 7.793750000000000 -0.792336000000000 47.000000000000000
1.517570000000000 7.748020000000000 -0.948439000000000 101.000000000000000
1.281900000000000 7.805860000000000 -0.922263000000000 45.000000000000000
1.522140000000000 7.714240000000000 -0.804239000000000 42.000000000000000
1.294570000000000 7.789500000000000 -0.792336000000000 45.000000000000000
1.540150000000000 7.727360000000000 -0.946530000000000 40.000000000000000
1.307770000000000 7.801570000000000 -0.922263000000000 49.000000000000000
1.546150000000000 7.701350000000000 -0.803425000000000 34.000000000000000
1.320420000000000 7.777090000000000 -0.791537000000000 49.000000000000000
1.566330000000000 7.718050000000000 -0.946053000000000 38.000000000000000
1.335020000000000 7.788890000000000 -0.921337000000000 62.000000000000000
1.575160000000000 7.699530000000000 -0.803832000000000 43.000000000000000
1.353000000000000 7.803810000000000 -0.794732000000000 31.000000000000000
1.592450000000000 7.708640000000000 -0.945576000000000 46.000000000000000
1.362200000000000 7.784180000000000 -0.921337000000000 101.000000000000000
1.603650000000000 7.701770000000000 -0.804646000000000 49.000000000000000
1.379540000000000 7.795120000000000 -0.794333000000000 34.000000000000000
1.623440000000000 7.722470000000000 -0.947962000000000 52.000000000000000
1.390060000000000 7.783290000000000 -0.921800000000000 100.000000000000000
1.621460000000000 7.653310000000000 -0.800169000000000 101.000000000000000
1.401080000000000 7.758920000000000 -0.791138000000000 33.000000000000000
1.646230000000000 7.697340000000000 -0.945576000000000 35.000000000000000
1.416510000000000 7.774480000000000 -0.921337000000000 101.000000000000000
1.427440000000000 7.750070000000000 -0.790739000000000 50.000000000000000
1.442910000000000 7.765580000000000 -0.920873000000000 73.000000000000000
1.453010000000000 7.737220000000000 -0.789940000000000 53.000000000000000
1.472970000000000 7.776120000000000 -0.922726000000000 79.000000000000000
1.482260000000000 7.743820000000000 -0.791138000000000 55.000000000000000
1.497840000000000 7.759220000000000 -0.921337000000000 83.000000000000000
1.508520000000000 7.734700000000000 -0.790739000000000 56.000000000000000
1.525690000000000 7.757850000000000 -0.921800000000000 89.000000000000000
1.534730000000000 7.725480000000000 -0.790339000000000 37.000000000000000
1.550410000000000 7.740790000000000 -0.920410000000000 101.000000000000000
1.565630000000000 7.739580000000000 -0.792336000000000 35.000000000000000
1.577430000000000 7.735330000000000 -0.920410000000000 101.000000000000000
1.592640000000000 7.734070000000000 -0.792336000000000 39.000000000000000
1.603610000000000 7.725880000000000 -0.919947000000000 101.000000000000000
1.606570000000000 7.666130000000000 -0.785946000000000 50.000000000000000
1.625640000000000 7.696910000000000 -0.917168000000000 101.000000000000000