# This PCD file was generated using the MATLAB® pcwrite function
# from Computer Vision Toolbox®.
# .PCD v.7 - Point Cloud Data file format
VERSION .7
FIELDS x y z intensity
SIZE 8 8 8 8
TYPE F F F F
COUNT 1 1 1 1
WIDTH 302
HEIGHT 1
VIEWPOINT 0 0 0 1 0 0 0
POINTS 302
DATA ascii
-1.795540000000000 5.151450000000000 -1.133930000000000 101.000000000000000
-1.762230000000000 5.113250000000000 -1.124160000000000 69.000000000000000
-1.750690000000000 5.137910000000000 -1.128230000000000 38.000000000000000
-1.730240000000000 5.136570000000000 -1.126600000000000 33.000000000000000
-1.713540000000000 5.146290000000000 -1.127420000000000 35.000000000000000
-1.697690000000000 5.155660000000000 -1.128230000000000 36.000000000000000
-1.671200000000000 5.135490000000000 -1.122530000000000 100.000000000000000
-1.664050000000000 5.174850000000000 -1.129860000000000 101.000000000000000
-1.643610000000000 5.173160000000000 -1.128230000000000 101.000000000000000
-1.796660000000000 5.132750000000000 -0.992785000000000 75.000000000000000
-1.629060000000000 5.190080000000000 -1.130670000000000 101.000000000000000
-1.763290000000000 5.094370000000000 -0.984165000000000 50.000000000000000
-1.609770000000000 5.191990000000000 -1.129860000000000 101.000000000000000
-1.756960000000000 5.134000000000000 -0.990630000000000 18.000000000000000
-1.591640000000000 5.197580000000000 -1.129860000000000 101.000000000000000
-1.735250000000000 5.128920000000000 -0.988475000000000 15.000000000000000
-1.575750000000000 5.210600000000000 -1.131490000000000 20.000000000000000
-1.717330000000000 5.134950000000000 -0.988475000000000 15.000000000000000
-1.563160000000000 5.234830000000000 -1.135560000000000 18.000000000000000
-1.703100000000000 5.152120000000000 -0.990630000000000 13.000000000000000
-1.545980000000000 5.244010000000000 -1.136370000000000 16.000000000000000
-1.688770000000000 5.169260000000000 -0.992785000000000 19.000000000000000
-1.526570000000000 5.245620000000000 -1.135560000000000 16.000000000000000
-1.658630000000000 5.137670000000000 -0.985601000000000 57.000000000000000
-1.505010000000000 5.239620000000000 -1.133120000000000 21.000000000000000
-1.653840000000000 5.184670000000000 -0.993503000000000 59.000000000000000
-1.476030000000000 5.207160000000000 -1.124980000000000 74.000000000000000
-1.799100000000000 5.100850000000000 -0.880303000000000 1.000000000000000
-1.634550000000000 5.186660000000000 -0.992785000000000 43.000000000000000
-1.459960000000000 5.219830000000000 -1.126600000000000 72.000000000000000
-1.773480000000000 5.084740000000000 -0.876447000000000 39.000000000000000
-1.613830000000000 5.180780000000000 -0.990630000000000 42.000000000000000
-1.454100000000000 5.266160000000000 -1.135560000000000 92.000000000000000
-1.759180000000000 5.098050000000000 -0.877733000000000 36.000000000000000
-1.601270000000000 5.201140000000000 -0.993503000000000 41.000000000000000
-1.432630000000000 5.259870000000000 -1.133120000000000 85.000000000000000
-1.750300000000000 5.130320000000000 -0.882231000000000 32.000000000000000
-1.585630000000000 5.218270000000000 -0.995658000000000 17.000000000000000
-1.414260000000000 5.264840000000000 -1.133120000000000 97.000000000000000
-1.728600000000000 5.125170000000000 -0.880303000000000 31.000000000000000
-1.562880000000000 5.208700000000000 -0.992785000000000 19.000000000000000
-1.711940000000000 5.134920000000000 -0.880945000000000 29.000000000000000
-1.552520000000000 5.240530000000000 -0.997814000000000 22.000000000000000
-1.385380000000000 5.304900000000000 -1.139630000000000 10.000000000000000
-1.691540000000000 5.133370000000000 -0.879660000000000 25.000000000000000
-1.527590000000000 5.223260000000000 -0.993503000000000 16.000000000000000
-1.367830000000000 5.313500000000000 -1.140440000000000 11.000000000000000
-1.676050000000000 5.146750000000000 -0.880945000000000 7.000000000000000
-1.506070000000000 5.217220000000000 -0.991348000000000 16.000000000000000
-1.347350000000000 5.310650000000000 -1.138810000000000 9.000000000000000
-1.659290000000000 5.156330000000000 -0.881588000000000 6.000000000000000
-1.494320000000000 5.245150000000000 -0.995658000000000 25.000000000000000
-1.328810000000000 5.315320000000000 -1.138810000000000 10.000000000000000
-1.641280000000000 5.162090000000000 -0.881588000000000 6.000000000000000
-1.479200000000000 5.261700000000000 -0.997814000000000 25.000000000000000
-1.788470000000000 5.101640000000000 -0.793669000000000 50.000000000000000
-1.298070000000000 5.270490000000000 -1.128230000000000 43.000000000000000
-1.623250000000000 5.167790000000000 -0.881588000000000 5.000000000000000
-1.456610000000000 5.251660000000000 -0.994940000000000 31.000000000000000
-1.773240000000000 5.115330000000000 -0.794831000000000 32.000000000000000
-1.289820000000000 5.316850000000000 -1.137190000000000 47.000000000000000
-1.607540000000000 5.180960000000000 -0.882873000000000 5.000000000000000
-1.444500000000000 5.279490000000000 -0.999250000000000 18.000000000000000
-1.748960000000000 5.102770000000000 -0.791926000000000 22.000000000000000
-1.274890000000000 5.336560000000000 -1.140440000000000 59.000000000000000
-1.589450000000000 5.186540000000000 -0.882873000000000 16.000000000000000
-1.432220000000000 5.307290000000000 -1.003560000000000 19.000000000000000
-1.740030000000000 5.135080000000000 -0.795993000000000 19.000000000000000
-1.252670000000000 5.325730000000000 -1.137190000000000 49.000000000000000
-1.569050000000000 5.184500000000000 -0.881588000000000 18.000000000000000
-1.407610000000000 5.289440000000000 -0.999250000000000 14.000000000000000
-1.718320000000000 5.129870000000000 -0.794250000000000 23.000000000000000
-1.237600000000000 5.345330000000000 -1.140440000000000 52.000000000000000
-1.553200000000000 5.197510000000000 -0.882873000000000 18.000000000000000
-1.390140000000000 5.298130000000000 -0.999969000000000 14.000000000000000
-1.707870000000000 5.158380000000000 -0.797736000000000 22.000000000000000
-1.533720000000000 5.195060000000000 -0.881588000000000 19.000000000000000
-1.375520000000000 5.314140000000000 -1.002120000000000 16.000000000000000
-1.687060000000000 5.152730000000000 -0.795993000000000 26.000000000000000
-1.210620000000000 5.395660000000000 -1.149400000000000 9.000000000000000
-1.516680000000000 5.204170000000000 -0.882231000000000 17.000000000000000
-1.351120000000000 5.296030000000000 -0.997814000000000 15.000000000000000
-1.665410000000000 5.147290000000000 -0.794250000000000 35.000000000000000
-1.184180000000000 5.365440000000000 -1.142070000000000 9.000000000000000
-1.499600000000000 5.213230000000000 -0.882873000000000 10.000000000000000
-1.338380000000000 5.323610000000000 -1.002120000000000 16.000000000000000
-1.646220000000000 5.149300000000000 -0.793669000000000 30.000000000000000
-1.174590000000000 5.411640000000000 -1.151020000000000 9.000000000000000
-1.482470000000000 5.222230000000000 -0.883516000000000 3.000000000000000
-1.822700000000000 5.158310000000000 -0.734830000000000 1.000000000000000
-1.319790000000000 5.328250000000000 -1.002120000000000 9.000000000000000
-1.640160000000000 5.192760000000000 -0.799479000000000 30.000000000000000
-1.150780000000000 5.392720000000000 -1.146140000000000 9.000000000000000
-1.466360000000000 5.234980000000000 -0.884801000000000 4.000000000000000
-1.791610000000000 5.127220000000000 -0.729505000000000 71.000000000000000
-1.297460000000000 5.317540000000000 -0.999250000000000 9.000000000000000
-1.618490000000000 5.187120000000000 -0.797736000000000 31.000000000000000
-1.131150000000000 5.392880000000000 -1.145330000000000 80.000000000000000
-1.449130000000000 5.243870000000000 -0.885443000000000 4.000000000000000
-1.763340000000000 5.103460000000000 -0.725245000000000 20.000000000000000
-1.285320000000000 5.348820000000000 -1.004280000000000 9.000000000000000
-1.598040000000000 5.185170000000000 -0.796574000000000 24.000000000000000
-1.428740000000000 5.241280000000000 -0.884158000000000 4.000000000000000
-1.748080000000000 5.117090000000000 -0.726310000000000 20.000000000000000
-1.267580000000000 5.353050000000000 -1.004280000000000 8.000000000000000
-1.577380000000000 5.179080000000000 -0.794831000000000 16.000000000000000
-1.417510000000000 5.268860000000000 -0.888014000000000 5.000000000000000
-1.737450000000000 5.141640000000000 -0.728972000000000 22.000000000000000
-1.245310000000000 5.342110000000000 -1.001410000000000 9.000000000000000
-1.564990000000000 5.203510000000000 -0.797736000000000 12.000000000000000
-1.400120000000000 5.277590000000000 -0.888656000000000 12.000000000000000
-1.714470000000000 5.132630000000000 -0.726843000000000 19.000000000000000
-1.230180000000000 5.361770000000000 -1.004280000000000 16.000000000000000
-1.543440000000000 5.197560000000000 -0.795993000000000 13.000000000000000
-1.378690000000000 5.270990000000000 -0.886728000000000 12.000000000000000
-1.700270000000000 5.149880000000000 -0.728440000000000 19.000000000000000
-1.208850000000000 5.354510000000000 -1.002120000000000 26.000000000000000
-1.528620000000000 5.214310000000000 -0.797736000000000 13.000000000000000
-1.360280000000000 5.275770000000000 -0.886728000000000 11.000000000000000
-1.679820000000000 5.148240000000000 -0.727375000000000 48.000000000000000
-1.191010000000000 5.362540000000000 -1.002840000000000 22.000000000000000
-1.512610000000000 5.227210000000000 -0.798898000000000 10.000000000000000
-1.340890000000000 5.276660000000000 -0.886086000000000 12.000000000000000
-1.661840000000000 5.154080000000000 -0.727375000000000 69.000000000000000
-1.175640000000000 5.382040000000000 -1.005720000000000 34.000000000000000
-1.496530000000000 5.240070000000000 -0.800060000000000 16.000000000000000
-1.330100000000000 5.307880000000000 -0.890584000000000 9.000000000000000
-1.649560000000000 5.174670000000000 -0.729505000000000 40.000000000000000
-1.157790000000000 5.385910000000000 -1.005720000000000 28.000000000000000
-1.472700000000000 5.222150000000000 -0.796574000000000 17.000000000000000
-1.306830000000000 5.293330000000000 -0.887371000000000 3.000000000000000
-1.636250000000000 5.195520000000000 -0.731635000000000 38.000000000000000
-1.786710000000000 5.118640000000000 -0.680090000000000 25.000000000000000
-1.140610000000000 5.397620000000000 -1.007150000000000 33.000000000000000
-1.459770000000000 5.246330000000000 -0.799479000000000 19.000000000000000
-1.289280000000000 5.301700000000000 -0.888014000000000 3.000000000000000
-1.609860000000000 5.174700000000000 -0.727907000000000 38.000000000000000
-1.764940000000000 5.113590000000000 -0.678596000000000 25.000000000000000
-1.440400000000000 5.247570000000000 -0.798898000000000 18.000000000000000
-1.274440000000000 5.321520000000000 -0.890584000000000 4.000000000000000
-1.596440000000000 5.195450000000000 -0.730037000000000 19.000000000000000
-1.741960000000000 5.104690000000000 -0.676605000000000 28.000000000000000
-1.425170000000000 5.264030000000000 -0.800641000000000 13.000000000000000
-1.256760000000000 5.329780000000000 -0.891226000000000 4.000000000000000
-1.577150000000000 5.197190000000000 -0.729505000000000 9.000000000000000
-1.721590000000000 5.103220000000000 -0.675609000000000 30.000000000000000
-1.406790000000000 5.268970000000000 -0.800641000000000 10.000000000000000
-1.235470000000000 5.322600000000000 -0.889299000000000 5.000000000000000
-1.563550000000000 5.217860000000000 -0.731635000000000 9.000000000000000
-1.712550000000000 5.135560000000000 -0.679094000000000 31.000000000000000
-1.388390000000000 5.273850000000000 -0.800641000000000 12.000000000000000
-1.220400000000000 5.342270000000000 -0.891869000000000 6.000000000000000
-1.545320000000000 5.223280000000000 -0.731635000000000 10.000000000000000
-1.698340000000000 5.152810000000000 -0.680588000000000 37.000000000000000
-1.371960000000000 5.286330000000000 -0.801803000000000 11.000000000000000
-1.202610000000000 5.350350000000000 -0.892511000000000 6.000000000000000
-1.523750000000000 5.217230000000000 -0.730037000000000 8.000000000000000
-1.675430000000000 5.143610000000000 -0.678596000000000 35.000000000000000
-1.351540000000000 5.283410000000000 -0.800641000000000 11.000000000000000
-1.185640000000000 5.362230000000000 -0.893797000000000 6.000000000000000
-1.506620000000000 5.226330000000000 -0.730570000000000 21.000000000000000
-1.662330000000000 5.164540000000000 -0.680588000000000 32.000000000000000
-1.340830000000000 5.318800000000000 -0.805289000000000 13.000000000000000
-1.166170000000000 5.358420000000000 -0.892511000000000 5.000000000000000
-1.488200000000000 5.227480000000000 -0.730037000000000 30.000000000000000
-1.637970000000000 5.147330000000000 -0.677601000000000 81.000000000000000
-1.321270000000000 5.315540000000000 -0.804127000000000 7.000000000000000
-1.151590000000000 5.381760000000000 -0.895724000000000 6.000000000000000
-1.475300000000000 5.251730000000000 -0.732700000000000 29.000000000000000
-1.789300000000000 5.104310000000000 -1.555250000000000 101.000000000000000
-1.623570000000000 5.164380000000000 -0.679094000000000 94.000000000000000
-1.298940000000000 5.304740000000000 -0.801803000000000 7.000000000000000
-1.134420000000000 5.393470000000000 -0.897009000000000 30.000000000000000
-1.451670000000000 5.237740000000000 -0.730037000000000 26.000000000000000
-1.772730000000000 5.114160000000000 -1.556360000000000 35.000000000000000
-1.609060000000000 5.181380000000000 -0.680588000000000 94.000000000000000
-1.279490000000000 5.305390000000000 -0.801222000000000 6.000000000000000
-1.441740000000000 5.273370000000000 -0.734297000000000 27.000000000000000
-1.752380000000000 5.113040000000000 -1.554150000000000 13.000000000000000
-1.593290000000000 5.194560000000000 -0.681584000000000 22.000000000000000
-1.267370000000000 5.336780000000000 -0.805289000000000 6.000000000000000
-1.423320000000000 5.278370000000000 -0.734297000000000 25.000000000000000
-1.734520000000000 5.119120000000000 -1.554150000000000 11.000000000000000
-1.577450000000000 5.207690000000000 -0.682579000000000 17.000000000000000
-1.249630000000000 5.345030000000000 -0.805870000000000 6.000000000000000
-1.402850000000000 5.275650000000000 -0.733232000000000 5.000000000000000
-1.708090000000000 5.099630000000000 -1.546410000000000 11.000000000000000
-1.561540000000000 5.220770000000000 -0.683575000000000 15.000000000000000
-1.232740000000000 5.357070000000000 -0.807032000000000 9.000000000000000
-1.390460000000000 5.303520000000000 -0.736427000000000 6.000000000000000
-1.702370000000000 5.142060000000000 -1.557460000000000 11.000000000000000
-1.543090000000000 5.222110000000000 -0.683077000000000 17.000000000000000
-1.213220000000000 5.353410000000000 -0.805870000000000 10.000000000000000
-1.369890000000000 5.296590000000000 -0.734830000000000 5.000000000000000
-1.682910000000000 5.140370000000000 -1.555250000000000 38.000000000000000
-1.525970000000000 5.231270000000000 -0.683575000000000 23.000000000000000
-1.194520000000000 5.357610000000000 -0.805870000000000 15.000000000000000
-1.354330000000000 5.312860000000000 -0.736427000000000 5.000000000000000
-1.662590000000000 5.138900000000000 -1.553040000000000 72.000000000000000
-1.508790000000000 5.240380000000000 -0.684073000000000 23.000000000000000
-1.176660000000000 5.365610000000000 -0.806451000000000 13.000000000000000
-1.336700000000000 5.317320000000000 -0.736427000000000 5.000000000000000
-1.649060000000000 5.155370000000000 -1.556360000000000 87.000000000000000
-1.485980000000000 5.226270000000000 -0.681584000000000 26.000000000000000
-1.806660000000000 5.106380000000000 -1.306900000000000 6.000000000000000
-1.163040000000000 5.388830000000000 -0.809356000000000 16.000000000000000
-1.308600000000000 5.283470000000000 -0.731102000000000 14.000000000000000
-1.629890000000000 5.157420000000000 -1.555250000000000 59.000000000000000
-1.472020000000000 5.246710000000000 -0.683575000000000 31.000000000000000
-1.795250000000000 5.131010000000000 -1.311590000000000 101.000000000000000
-1.140940000000000 5.377370000000000 -0.807032000000000 19.000000000000000
-1.299550000000000 5.326520000000000 -0.736427000000000 15.000000000000000
-1.618750000000000 5.185100000000000 -1.561880000000000 61.000000000000000
-1.450520000000000 5.240340000000000 -0.682081000000000 33.000000000000000
-1.767150000000000 5.107850000000000 -1.304090000000000 101.000000000000000
-1.280950000000000 5.326950000000000 -0.735895000000000 16.000000000000000
-1.594750000000000 5.168400000000000 -1.555250000000000 62.000000000000000
-1.442550000000000 5.279580000000000 -0.686562000000000 20.000000000000000
-1.748950000000000 5.110000000000000 -1.303150000000000 101.000000000000000
-1.264180000000000 5.339110000000000 -0.736960000000000 16.000000000000000
-1.424110000000000 5.284580000000000 -0.686562000000000 27.000000000000000
-1.736080000000000 5.130810000000000 -1.306900000000000 101.000000000000000
-1.241030000000000 5.324180000000000 -0.734297000000000 14.000000000000000
-1.554200000000000 5.164680000000000 -1.550830000000000 3.000000000000000
-1.400560000000000 5.270340000000000 -0.684073000000000 26.000000000000000
-1.720630000000000 5.144210000000000 -1.308780000000000 100.000000000000000
-1.224210000000000 5.336210000000000 -0.735362000000000 3.000000000000000
-1.548200000000000 5.210610000000000 -1.562990000000000 6.000000000000000
-1.383160000000000 5.279040000000000 -0.684571000000000 24.000000000000000
-1.701440000000000 5.146500000000000 -1.307840000000000 70.000000000000000
-1.215180000000000 5.382990000000000 -0.741220000000000 3.000000000000000
-1.528920000000000 5.212290000000000 -1.561880000000000 5.000000000000000
-1.372660000000000 5.314580000000000 -0.688554000000000 23.000000000000000
-1.687090000000000 5.163490000000000 -1.310660000000000 69.000000000000000
-1.192090000000000 5.367850000000000 -0.738557000000000 3.000000000000000
-1.516070000000000 5.236060000000000 -1.567410000000000 6.000000000000000
-1.351160000000000 5.307800000000000 -0.687060000000000 20.000000000000000
-1.667860000000000 5.165650000000000 -1.309720000000000 63.000000000000000
-1.175970000000000 5.379520000000000 -0.739622000000000 3.000000000000000
-1.498690000000000 5.241060000000000 -1.567410000000000 55.000000000000000
-1.330700000000000 5.304780000000000 -0.686064000000000 23.000000000000000
-1.649820000000000 5.171440000000000 -1.309720000000000 56.000000000000000
-1.157080000000000 5.387670000000000 -0.740155000000000 3.000000000000000
-1.470080000000000 5.213220000000000 -1.557460000000000 44.000000000000000
-1.313100000000000 5.309170000000000 -0.686064000000000 54.000000000000000
-1.636170000000000 5.188010000000000 -1.312530000000000 68.000000000000000
-1.130190000000000 5.348810000000000 -0.734297000000000 14.000000000000000
-1.453820000000000 5.221770000000000 -1.558570000000000 38.000000000000000
-1.303010000000000 5.344340000000000 -0.690047000000000 58.000000000000000
-1.617800000000000 5.189690000000000 -1.311590000000000 68.000000000000000
-1.443730000000000 5.256470000000000 -1.567410000000000 42.000000000000000
-1.282480000000000 5.345220000000000 -0.689549000000000 68.000000000000000
-1.594190000000000 5.180720000000000 -1.307840000000000 57.000000000000000
-1.423360000000000 5.254050000000000 -1.565200000000000 41.000000000000000
-1.267490000000000 5.361030000000000 -0.691043000000000 20.000000000000000
-1.581530000000000 5.200860000000000 -1.311590000000000 46.000000000000000
-1.251510000000000 5.372930000000000 -0.692039000000000 18.000000000000000
-1.566510000000000 5.213520000000000 -1.313470000000000 32.000000000000000
-1.386580000000000 5.259900000000000 -1.564100000000000 3.000000000000000
-1.229150000000000 5.365880000000000 -0.690545000000000 22.000000000000000
-1.541870000000000 5.200590000000000 -1.308780000000000 38.000000000000000
-1.370150000000000 5.272150000000000 -1.566310000000000 5.000000000000000
-1.209540000000000 5.366260000000000 -0.690047000000000 25.000000000000000
-1.526980000000000 5.217140000000000 -1.311590000000000 24.000000000000000
-1.355550000000000 5.291800000000000 -1.570730000000000 3.000000000000000
-1.191660000000000 5.374330000000000 -0.690545000000000 33.000000000000000
-1.512000000000000 5.233640000000000 -1.314410000000000 48.000000000000000
-1.337070000000000 5.296500000000000 -1.570730000000000 3.000000000000000
-1.172040000000000 5.374580000000000 -0.690047000000000 31.000000000000000
-1.493720000000000 5.238890000000000 -1.314410000000000 59.000000000000000
-1.326000000000000 5.330980000000000 -1.579570000000000 37.000000000000000
-1.152440000000000 5.374760000000000 -0.689549000000000 33.000000000000000
-1.473320000000000 5.236580000000000 -1.312530000000000 63.000000000000000
-1.297320000000000 5.294500000000000 -1.567410000000000 38.000000000000000
-1.139410000000000 5.405930000000000 -0.693034000000000 12.000000000000000
-1.462310000000000 5.267920000000000 -1.319100000000000 70.000000000000000
-1.277950000000000 5.291300000000000 -1.565200000000000 31.000000000000000
-1.439700000000000 5.253990000000000 -1.314410000000000 74.000000000000000
-1.265700000000000 5.321910000000000 -1.572940000000000 36.000000000000000
-1.423380000000000 5.266490000000000 -1.316290000000000 65.000000000000000
-1.247990000000000 5.330040000000000 -1.574040000000000 42.000000000000000
-1.225920000000000 5.319380000000000 -1.569620000000000 8.000000000000000
-1.389540000000000 5.287580000000000 -1.319100000000000 10.000000000000000
-1.213300000000000 5.349870000000000 -1.577360000000000 3.000000000000000
-1.375950000000000 5.311220000000000 -1.323790000000000 11.000000000000000
-1.197970000000000 5.369080000000000 -1.581780000000000 5.000000000000000
-1.357400000000000 5.315990000000000 -1.323790000000000 9.000000000000000
-1.180870000000000 5.380740000000000 -1.583990000000000 3.000000000000000
-1.339790000000000 5.324470000000000 -1.324730000000000 11.000000000000000
-1.162080000000000 5.384830000000000 -1.583990000000000 3.000000000000000
-1.322120000000000 5.328880000000000 -1.324730000000000 55.000000000000000
-1.148210000000000 5.407450000000000 -1.589520000000000 74.000000000000000
-1.300750000000000 5.318130000000000 -1.320980000000000 47.000000000000000
-1.280340000000000 5.319080000000000 -1.320040000000000 56.000000000000000
-1.265350000000000 5.338650000000000 -1.323790000000000 59.000000000000000
-1.248470000000000 5.350610000000000 -1.325670000000000 51.000000000000000
-1.233340000000000 5.366090000000000 -1.328480000000000 9.000000000000000
-1.214600000000000 5.370360000000000 -1.328480000000000 10.000000000000000
-1.196690000000000 5.378360000000000 -1.329420000000000 9.000000000000000
-1.173750000000000 5.363520000000000 -1.324730000000000 10.000000000000000
-1.160750000000000 5.394190000000000 -1.331300000000000 12.000000000000000
-1.145940000000000 5.417230000000000 -1.335990000000000 101.000000000000000