# This PCD file was generated using the MATLAB® pcwrite function
# from Computer Vision Toolbox®.
# .PCD v.7 - Point Cloud Data file format
VERSION .7
FIELDS x y z intensity
SIZE 8 8 8 8
TYPE F F F F
COUNT 1 1 1 1
WIDTH 372
HEIGHT 1
VIEWPOINT 0 0 0 1 0 0 0
POINTS 372
DATA ascii
0.993118000000000 6.115470000000000 -1.287780000000000 101.000000000000000
0.983398000000000 6.048940000000000 -0.698237000000000 101.000000000000000
1.014460000000000 6.111960000000000 -1.287780000000000 101.000000000000000
1.003200000000000 6.037620000000000 -0.697332000000000 101.000000000000000
1.027930000000000 6.062050000000000 -1.278010000000000 101.000000000000000
1.028260000000000 6.057600000000000 -0.700049000000000 101.000000000000000
1.046410000000000 6.042990000000000 -1.274760000000000 101.000000000000000
1.049400000000000 6.053970000000000 -0.700049000000000 101.000000000000000
1.067500000000000 6.039300000000000 -1.274760000000000 101.000000000000000
1.068450000000000 6.038530000000000 -0.698690000000000 101.000000000000000
1.095530000000000 6.074080000000000 -1.282900000000000 101.000000000000000
1.087400000000000 6.023030000000000 -0.697332000000000 101.000000000000000
1.116720000000000 6.070220000000000 -1.282900000000000 101.000000000000000
1.106260000000000 6.007470000000000 -0.695973000000000 101.000000000000000
1.139010000000000 6.078030000000000 -1.285340000000000 100.000000000000000
1.124710000000000 5.995960000000000 -0.695068000000000 101.000000000000000
1.156540000000000 6.054780000000000 -1.281270000000000 101.000000000000000
1.147130000000000 5.999800000000000 -0.695973000000000 101.000000000000000
0.981568000000000 6.095430000000000 -1.127120000000000 101.000000000000000
0.974952000000000 6.047620000000000 -0.686025000000000 87.000000000000000
1.177670000000000 6.050710000000000 -1.281270000000000 101.000000000000000
1.168060000000000 5.995760000000000 -0.695973000000000 187.000000000000000
1.004120000000000 6.099730000000000 -1.128560000000000 56.000000000000000
0.999288000000000 6.063790000000000 -0.688251000000000 100.000000000000000
1.198790000000000 6.046560000000000 -1.281270000000000 101.000000000000000
1.193630000000000 6.015040000000000 -0.698690000000000 200.000000000000000
1.021490000000000 6.072910000000000 -1.124250000000000 66.000000000000000
1.019790000000000 6.056350000000000 -0.687806000000000 100.000000000000000
1.212910000000000 6.007790000000000 -1.273940000000000 101.000000000000000
1.214620000000000 6.010830000000000 -0.698690000000000 200.000000000000000
1.044680000000000 6.080940000000000 -1.126400000000000 65.000000000000000
1.041600000000000 6.056670000000000 -0.688251000000000 101.000000000000000
1.237030000000000 6.018860000000000 -1.277200000000000 101.000000000000000
1.233990000000000 5.998770000000000 -0.697785000000000 200.000000000000000
1.064540000000000 6.069510000000000 -1.124960000000000 61.000000000000000
1.063420000000000 6.056910000000000 -0.688696000000000 101.000000000000000
1.262840000000000 6.037510000000000 -1.282080000000000 101.000000000000000
1.252480000000000 5.982760000000000 -0.696426000000000 113.000000000000000
1.085030000000000 6.061880000000000 -1.124250000000000 100.000000000000000
1.084560000000000 6.053160000000000 -0.688696000000000 101.000000000000000
1.283090000000000 6.029230000000000 -1.281270000000000 101.000000000000000
1.272530000000000 5.974460000000000 -0.695973000000000 101.000000000000000
1.108300000000000 6.069670000000000 -1.126400000000000 101.000000000000000
1.102100000000000 6.029790000000000 -0.686471000000000 101.000000000000000
1.303300000000000 6.020890000000000 -1.280450000000000 71.000000000000000
1.289170000000000 5.950560000000000 -0.693709000000000 101.000000000000000
1.126600000000000 6.050290000000000 -1.123530000000000 101.000000000000000
1.120960000000000 6.014180000000000 -0.685135000000000 101.000000000000000
1.330200000000000 6.043080000000000 -1.286150000000000 92.000000000000000
1.309930000000000 5.946030000000000 -0.693709000000000 101.000000000000000
1.147710000000000 6.046320000000000 -1.123530000000000 101.000000000000000
1.142690000000000 6.014140000000000 -0.685580000000000 101.000000000000000
1.347870000000000 6.023110000000000 -1.282900000000000 86.000000000000000
1.330680000000000 5.941420000000000 -0.693709000000000 101.000000000000000
0.965985000000000 6.090730000000000 -1.003670000000000 1.000000000000000
1.169560000000000 6.046140000000000 -1.124250000000000 101.000000000000000
1.165940000000000 6.021820000000000 -0.686916000000000 101.000000000000000
1.368020000000000 6.014550000000000 -1.282080000000000 78.000000000000000
1.352290000000000 5.940610000000000 -0.694162000000000 101.000000000000000
0.987240000000000 6.087320000000000 -1.003670000000000 86.000000000000000
1.189890000000000 6.038160000000000 -1.123530000000000 101.000000000000000
1.188490000000000 6.025510000000000 -0.687806000000000 200.000000000000000
1.374890000000000 5.948690000000000 -1.269060000000000 101.000000000000000
1.374810000000000 5.943600000000000 -0.695068000000000 101.000000000000000
1.006550000000000 6.072150000000000 -1.001750000000000 29.000000000000000
1.210190000000000 6.030110000000000 -1.122810000000000 64.000000000000000
1.209520000000000 6.021330000000000 -0.687806000000000 200.000000000000000
1.400870000000000 5.970780000000000 -1.274760000000000 101.000000000000000
1.396330000000000 5.946750000000000 -0.695973000000000 101.000000000000000
1.029310000000000 6.084350000000000 -1.004320000000000 37.000000000000000
1.232540000000000 6.037630000000000 -1.124960000000000 82.000000000000000
1.228680000000000 6.013390000000000 -0.687361000000000 200.000000000000000
1.433510000000000 6.015380000000000 -1.285340000000000 101.000000000000000
1.421690000000000 5.961160000000000 -0.698237000000000 101.000000000000000
1.047850000000000 6.065160000000000 -1.001750000000000 42.000000000000000
1.255210000000000 6.041000000000000 -1.126400000000000 67.000000000000000
1.246430000000000 5.993500000000000 -0.685580000000000 101.000000000000000
1.449890000000000 5.991310000000000 -1.281270000000000 101.000000000000000
1.443420000000000 5.960030000000000 -0.698690000000000 101.000000000000000
1.069700000000000 6.065360000000000 -1.002390000000000 46.000000000000000
1.275470000000000 6.032730000000000 -1.125680000000000 66.000000000000000
1.266520000000000 5.985220000000000 -0.685135000000000 101.000000000000000
1.479210000000000 6.020440000000000 -1.288590000000000 101.000000000000000
1.466120000000000 5.962670000000000 -0.699596000000000 101.000000000000000
1.088070000000000 6.046040000000000 -0.999818000000000 100.000000000000000
1.296530000000000 6.028240000000000 -1.125680000000000 101.000000000000000
1.290750000000000 5.996310000000000 -0.686916000000000 101.000000000000000
1.501160000000000 6.019040000000000 -1.289410000000000 64.000000000000000
1.478260000000000 5.922810000000000 -0.695521000000000 101.000000000000000
1.111310000000000 6.053860000000000 -1.001750000000000 200.000000000000000
1.311470000000000 6.000840000000000 -1.121370000000000 101.000000000000000
1.313180000000000 6.003640000000000 -0.688251000000000 101.000000000000000
1.514390000000000 5.987450000000000 -1.283710000000000 60.000000000000000
1.496920000000000 5.914030000000000 -0.695068000000000 101.000000000000000
1.149520000000000 6.147160000000000 -1.017810000000000 200.000000000000000
1.331360000000000 5.996460000000000 -1.121370000000000 101.000000000000000
1.333940000000000 6.003140000000000 -0.688696000000000 101.000000000000000
1.535280000000000 5.982130000000000 -1.283710000000000 46.000000000000000
1.517550000000000 5.908770000000000 -0.695068000000000 101.000000000000000
1.170970000000000 6.143110000000000 -1.017810000000000 200.000000000000000
1.358530000000000 6.014570000000000 -1.125680000000000 101.000000000000000
1.355940000000000 5.998210000000000 -0.688696000000000 101.000000000000000
0.976357000000000 6.088110000000000 -0.905224000000000 81.000000000000000
1.554180000000000 5.969150000000000 -1.282080000000000 53.000000000000000
1.547190000000000 5.938050000000000 -0.699143000000000 101.000000000000000
1.173590000000000 6.042090000000000 -1.001750000000000 200.000000000000000
1.179160000000000 6.065140000000000 -0.679952000000000 3.000000000000000
1.380400000000000 6.013630000000000 -1.126400000000000 101.000000000000000
1.373300000000000 5.977940000000000 -0.686916000000000 101.000000000000000
0.996321000000000 6.076860000000000 -0.904062000000000 101.000000000000000
1.567010000000000 5.933400000000000 -1.275570000000000 101.000000000000000
1.569940000000000 5.940290000000000 -0.700049000000000 101.000000000000000
1.405850000000000 6.027930000000000 -1.129990000000000 51.000000000000000
1.395070000000000 5.976980000000000 -0.687361000000000 101.000000000000000
1.016870000000000 6.069440000000000 -0.903481000000000 101.000000000000000
1.589710000000000 5.939520000000000 -1.278010000000000 101.000000000000000
1.590660000000000 5.938890000000000 -0.700502000000000 101.000000000000000
1.214690000000000 6.033970000000000 -1.001750000000000 39.000000000000000
1.420390000000000 6.000260000000000 -1.125680000000000 47.000000000000000
1.419460000000000 5.991660000000000 -0.689587000000000 101.000000000000000
1.037000000000000 6.066030000000000 -0.903481000000000 101.000000000000000
1.619670000000000 5.967950000000000 -1.285340000000000 101.000000000000000
1.614500000000000 5.944810000000000 -0.701860000000000 101.000000000000000
1.238120000000000 6.041290000000000 -1.003670000000000 25.000000000000000
1.440530000000000 5.987360000000000 -1.124250000000000 36.000000000000000
1.437690000000000 5.970960000000000 -0.687806000000000 101.000000000000000
1.061260000000000 6.073890000000000 -0.905224000000000 101.000000000000000
1.641530000000000 5.961970000000000 -1.285340000000000 101.000000000000000
1.635220000000000 5.935020000000000 -0.701407000000000 101.000000000000000
1.258640000000000 6.028980000000000 -1.002390000000000 19.000000000000000
1.467140000000000 6.001160000000000 -1.127840000000000 30.000000000000000
1.463340000000000 5.981100000000000 -0.689587000000000 101.000000000000000
1.083520000000000 6.069960000000000 -0.905224000000000 101.000000000000000
1.659170000000000 5.944890000000000 -1.282900000000000 101.000000000000000
1.657000000000000 5.933110000000000 -0.701860000000000 101.000000000000000
1.278040000000000 6.016830000000000 -1.001100000000000 84.000000000000000
1.481260000000000 5.977420000000000 -1.124250000000000 101.000000000000000
1.478300000000000 5.961040000000000 -0.687806000000000 101.000000000000000
1.100460000000000 6.054840000000000 -0.903481000000000 100.000000000000000
1.688460000000000 5.973270000000000 -1.290220000000000 101.000000000000000
1.675580000000000 5.923750000000000 -0.701407000000000 101.000000000000000
1.297150000000000 6.008700000000000 -1.000460000000000 100.000000000000000
1.500190000000000 5.964580000000000 -1.122810000000000 101.000000000000000
1.502980000000000 5.971260000000000 -0.689587000000000 101.000000000000000
1.122310000000000 6.054850000000000 -0.904062000000000 100.000000000000000
1.318120000000000 6.004130000000000 -1.000460000000000 100.000000000000000
1.523920000000000 5.970750000000000 -1.124960000000000 101.000000000000000
1.520860000000000 5.954420000000000 -0.688251000000000 101.000000000000000
1.139760000000000 6.031460000000000 -0.901157000000000 97.000000000000000
1.349390000000000 6.045740000000000 -1.008170000000000 187.000000000000000
1.546730000000000 5.973010000000000 -1.126400000000000 101.000000000000000
1.547620000000000 5.972170000000000 -0.690922000000000 81.000000000000000
1.163060000000000 6.039100000000000 -0.902900000000000 100.000000000000000
1.363500000000000 6.010190000000000 -1.003030000000000 100.000000000000000
0.983581000000000 6.093700000000000 -0.829080000000000 100.000000000000000
1.571570000000000 5.982800000000000 -1.129270000000000 101.000000000000000
1.565430000000000 5.955190000000000 -0.689587000000000 64.000000000000000
1.183370000000000 6.031120000000000 -0.902319000000000 101.000000000000000
1.386240000000000 6.013080000000000 -1.004320000000000 15.000000000000000
1.002260000000000 6.074580000000000 -0.826950000000000 101.000000000000000
1.589280000000000 5.961220000000000 -0.690922000000000 55.000000000000000
1.205960000000000 6.034710000000000 -0.903481000000000 200.000000000000000
1.401820000000000 5.985150000000000 -1.000460000000000 14.000000000000000
1.021490000000000 6.059320000000000 -0.825352000000000 101.000000000000000
1.611240000000000 5.964080000000000 -1.127840000000000 22.000000000000000
1.605930000000000 5.940280000000000 -0.689142000000000 63.000000000000000
1.230180000000000 6.045980000000000 -0.905805000000000 200.000000000000000
1.427270000000000 5.999420000000000 -1.003670000000000 14.000000000000000
1.045990000000000 6.075250000000000 -0.828015000000000 101.000000000000000
1.635170000000000 5.973890000000000 -1.130710000000000 22.000000000000000
1.630870000000000 5.954090000000000 -0.691368000000000 52.000000000000000
1.246210000000000 6.022490000000000 -0.902900000000000 200.000000000000000
1.443450000000000 5.979300000000000 -1.001100000000000 13.000000000000000
1.068190000000000 6.083460000000000 -0.829612000000000 101.000000000000000
1.650760000000000 5.953260000000000 -1.127840000000000 23.000000000000000
1.646350000000000 5.933330000000000 -0.689587000000000 66.000000000000000
1.266990000000000 6.022200000000000 -0.903481000000000 200.000000000000000
1.469020000000000 5.993400000000000 -1.004320000000000 13.000000000000000
1.087320000000000 6.067990000000000 -0.828015000000000 101.000000000000000
1.667240000000000 5.928230000000000 -1.124250000000000 95.000000000000000
1.674550000000000 5.950220000000000 -0.692258000000000 57.000000000000000
1.486110000000000 5.972910000000000 -1.001750000000000 37.000000000000000
1.107070000000000 6.056360000000000 -0.826950000000000 55.000000000000000
1.309210000000000 6.009110000000000 -0.902900000000000 48.000000000000000
1.509850000000000 5.979170000000000 -1.003670000000000 43.000000000000000
1.123120000000000 6.025180000000000 -0.823222000000000 56.000000000000000
1.335310000000000 6.027690000000000 -0.906386000000000 46.000000000000000
1.530720000000000 5.973860000000000 -1.003670000000000 54.000000000000000
1.144140000000000 6.021220000000000 -0.823222000000000 83.000000000000000
0.965243000000000 6.095680000000000 -0.774187000000000 2.000000000000000
1.350260000000000 5.995960000000000 -0.902319000000000 46.000000000000000
1.550570000000000 5.964660000000000 -1.003030000000000 52.000000000000000
1.168170000000000 6.032760000000000 -0.825352000000000 100.000000000000000
0.986515000000000 6.092280000000000 -0.774187000000000 73.000000000000000
1.369410000000000 5.983500000000000 -0.901157000000000 50.000000000000000
1.570370000000000 5.955400000000000 -1.002390000000000 11.000000000000000
1.192290000000000 6.044200000000000 -0.827482000000000 200.000000000000000
1.004530000000000 6.069220000000000 -0.771698000000000 21.000000000000000
1.392980000000000 5.990240000000000 -0.902900000000000 101.000000000000000
1.590130000000000 5.946060000000000 -1.001750000000000 8.000000000000000
1.211040000000000 6.028340000000000 -0.825885000000000 200.000000000000000
1.024390000000000 6.057850000000000 -0.770702000000000 26.000000000000000
1.412970000000000 5.981490000000000 -0.902319000000000 101.000000000000000
1.617070000000000 5.963340000000000 -1.005600000000000 7.000000000000000
1.232870000000000 6.027960000000000 -0.826417000000000 200.000000000000000
1.046500000000000 6.066150000000000 -0.772196000000000 25.000000000000000
1.438340000000000 5.999870000000000 -0.905805000000000 101.000000000000000
1.635800000000000 5.954140000000000 -1.004960000000000 6.000000000000000
1.253660000000000 6.027720000000000 -0.826950000000000 200.000000000000000
1.065920000000000 6.058740000000000 -0.771698000000000 28.000000000000000
1.459160000000000 5.998910000000000 -0.906386000000000 101.000000000000000
1.653390000000000 5.936980000000000 -1.003030000000000 8.000000000000000
1.273870000000000 6.019430000000000 -0.826417000000000 200.000000000000000
1.088820000000000 6.058700000000000 -0.772196000000000 86.000000000000000
1.483040000000000 6.001200000000000 -0.907548000000000 28.000000000000000
1.666600000000000 5.904580000000000 -0.998533000000000 22.000000000000000
1.292370000000000 6.003320000000000 -0.824820000000000 101.000000000000000
1.109960000000000 6.054860000000000 -0.772196000000000 86.000000000000000
1.497240000000000 5.969120000000000 -0.903481000000000 34.000000000000000
1.315010000000000 6.006520000000000 -0.825885000000000 101.000000000000000
1.131090000000000 6.050950000000000 -0.772196000000000 86.000000000000000
1.520990000000000 5.975360000000000 -0.905224000000000 28.000000000000000
1.335110000000000 5.998020000000000 -0.825352000000000 100.000000000000000
1.153690000000000 6.054760000000000 -0.773192000000000 200.000000000000000
1.535900000000000 5.947030000000000 -0.901738000000000 27.000000000000000
1.354290000000000 5.985590000000000 -0.824287000000000 101.000000000000000
0.980127000000000 6.097330000000000 -0.741862000000000 63.000000000000000
1.171800000000000 6.035110000000000 -0.771200000000000 200.000000000000000
1.563670000000000 5.968430000000000 -0.905805000000000 26.000000000000000
1.377840000000000 5.992420000000000 -0.825885000000000 101.000000000000000
0.998828000000000 6.078190000000000 -0.739954000000000 27.000000000000000
1.579420000000000 5.943810000000000 -0.902900000000000 76.000000000000000
1.396950000000000 5.979850000000000 -0.824820000000000 101.000000000000000
1.022670000000000 6.090340000000000 -0.741862000000000 30.000000000000000
1.214680000000000 6.030670000000000 -0.771698000000000 40.000000000000000
1.600150000000000 5.938260000000000 -0.902900000000000 88.000000000000000
1.419640000000000 5.982650000000000 -0.825885000000000 101.000000000000000
1.044590000000000 6.090640000000000 -0.742339000000000 38.000000000000000
1.235470000000000 6.030500000000000 -0.772196000000000 36.000000000000000
1.625050000000000 5.952010000000000 -0.905805000000000 90.000000000000000
1.438550000000000 5.974060000000000 -0.825352000000000 101.000000000000000
1.062050000000000 6.071500000000000 -0.740431000000000 36.000000000000000
1.255460000000000 6.026370000000000 -0.772196000000000 33.000000000000000
1.644780000000000 5.946590000000000 -0.905805000000000 82.000000000000000
1.458450000000000 5.965150000000000 -0.824820000000000 101.000000000000000
1.085330000000000 6.079480000000000 -0.741862000000000 62.000000000000000
1.277540000000000 6.021730000000000 -0.772196000000000 86.000000000000000
1.667630000000000 5.944330000000000 -0.906386000000000 100.000000000000000
1.483080000000000 5.975410000000000 -0.826950000000000 63.000000000000000
1.103700000000000 6.060030000000000 -0.739954000000000 78.000000000000000
1.298550000000000 6.017230000000000 -0.772196000000000 86.000000000000000
1.502960000000000 5.966360000000000 -0.826417000000000 52.000000000000000
1.124840000000000 6.056140000000000 -0.739954000000000 78.000000000000000
1.317000000000000 6.001030000000000 -0.770702000000000 138.000000000000000
1.522800000000000 5.957230000000000 -0.825885000000000 59.000000000000000
1.147460000000000 6.059980000000000 -0.740908000000000 163.000000000000000
1.338620000000000 6.004380000000000 -0.771698000000000 89.000000000000000
0.963085000000000 6.111050000000000 -1.492670000000000 101.000000000000000
1.542550000000000 5.952150000000000 -0.825885000000000 55.000000000000000
1.169050000000000 6.063940000000000 -0.741862000000000 200.000000000000000
1.358690000000000 5.995800000000000 -0.771200000000000 86.000000000000000
0.980698000000000 6.084620000000000 -1.487040000000000 101.000000000000000
0.984784000000000 6.103190000000000 -0.720764000000000 101.000000000000000
1.563310000000000 5.946730000000000 -0.825885000000000 59.000000000000000
1.187150000000000 6.044230000000000 -0.739954000000000 70.000000000000000
1.384070000000000 6.010360000000000 -0.773689000000000 30.000000000000000
1.004460000000000 6.096500000000000 -1.490790000000000 101.000000000000000
1.008020000000000 6.111470000000000 -0.722154000000000 101.000000000000000
1.584060000000000 5.941240000000000 -0.825885000000000 66.000000000000000
1.211350000000000 6.055630000000000 -0.741862000000000 38.000000000000000
1.400520000000000 5.986170000000000 -0.771200000000000 23.000000000000000
1.027670000000000 6.104460000000000 -1.493600000000000 101.000000000000000
1.027370000000000 6.096160000000000 -0.720764000000000 101.000000000000000
1.605820000000000 5.939500000000000 -0.826417000000000 59.000000000000000
1.232480000000000 6.051370000000000 -0.741862000000000 33.000000000000000
1.425990000000000 6.000550000000000 -0.773689000000000 23.000000000000000
1.051610000000000 6.116170000000000 -1.497360000000000 101.000000000000000
1.047290000000000 6.084710000000000 -0.719838000000000 101.000000000000000
1.627600000000000 5.937680000000000 -0.826950000000000 68.000000000000000
1.250380000000000 6.031470000000000 -0.739954000000000 37.000000000000000
1.443200000000000 5.980100000000000 -0.771698000000000 23.000000000000000
1.070940000000000 6.100970000000000 -1.494540000000000 101.000000000000000
1.064400000000000 6.057540000000000 -0.717058000000000 101.000000000000000
1.644090000000000 5.920790000000000 -0.825352000000000 64.000000000000000
1.271190000000000 6.031180000000000 -0.740431000000000 42.000000000000000
1.463030000000000 5.975290000000000 -0.771698000000000 25.000000000000000
1.082940000000000 6.051450000000000 -1.483280000000000 101.000000000000000
1.084480000000000 6.053970000000000 -0.717058000000000 101.000000000000000
1.670120000000000 5.934090000000000 -0.828015000000000 87.000000000000000
1.289740000000000 6.015050000000000 -0.739000000000000 78.000000000000000
1.484830000000000 5.973990000000000 -0.772196000000000 63.000000000000000
1.106850000000000 6.062940000000000 -1.487040000000000 100.000000000000000
1.107750000000000 6.061880000000000 -0.718448000000000 101.000000000000000
1.313260000000000 6.022160000000000 -0.740431000000000 80.000000000000000
1.506650000000000 5.972620000000000 -0.772694000000000 76.000000000000000
1.128720000000000 6.062860000000000 -1.487970000000000 101.000000000000000
1.128180000000000 6.054070000000000 -0.717985000000000 101.000000000000000
1.335140000000000 6.021410000000000 -0.740908000000000 80.000000000000000
1.526500000000000 5.963480000000000 -0.772196000000000 81.000000000000000
1.153500000000000 6.077980000000000 -1.492670000000000 101.000000000000000
1.149300000000000 6.050090000000000 -0.717985000000000 113.000000000000000
1.359640000000000 6.032210000000000 -0.742816000000000 80.000000000000000
1.549310000000000 5.965800000000000 -0.773192000000000 81.000000000000000
1.172500000000000 6.062470000000000 -1.489850000000000 101.000000000000000
1.162110000000000 6.003140000000000 -0.712889000000000 101.000000000000000
1.380690000000000 6.027430000000000 -0.742816000000000 58.000000000000000
1.570120000000000 5.960360000000000 -0.773192000000000 20.000000000000000
1.195150000000000 6.065970000000000 -1.491730000000000 101.000000000000000
1.187670000000000 6.022430000000000 -0.715669000000000 101.000000000000000
1.397070000000000 6.007350000000000 -0.740908000000000 30.000000000000000
1.597060000000000 5.977850000000000 -0.776179000000000 13.000000000000000
1.220150000000000 6.080820000000000 -1.496420000000000 101.000000000000000
1.208680000000000 6.018250000000000 -0.715669000000000 101.000000000000000
1.414510000000000 5.982860000000000 -0.738523000000000 24.000000000000000
1.607540000000000 5.938040000000000 -0.771698000000000 14.000000000000000
1.237190000000000 6.061500000000000 -1.492670000000000 101.000000000000000
1.223860000000000 5.990850000000000 -0.712889000000000 101.000000000000000
1.438050000000000 5.993580000000000 -0.740431000000000 26.000000000000000
1.632470000000000 5.951810000000000 -0.774187000000000 12.000000000000000
1.257290000000000 6.057370000000000 -1.492670000000000 101.000000000000000
1.250990000000000 6.021770000000000 -0.717058000000000 101.000000000000000
1.459900000000000 5.992390000000000 -0.740908000000000 26.000000000000000
1.653210000000000 5.941960000000000 -0.773689000000000 12.000000000000000
1.273880000000000 6.021030000000000 -0.717521000000000 101.000000000000000
1.478900000000000 5.979540000000000 -0.739954000000000 77.000000000000000
1.669640000000000 5.920880000000000 -0.771698000000000 33.000000000000000
1.294060000000000 6.017800000000000 -1.485160000000000 101.000000000000000
1.294890000000000 6.016550000000000 -0.717521000000000 101.000000000000000
1.501700000000000 5.982050000000000 -0.740908000000000 80.000000000000000
1.315060000000000 6.013250000000000 -1.485160000000000 88.000000000000000
1.316730000000000 6.015870000000000 -0.717985000000000 101.000000000000000
1.524530000000000 5.984470000000000 -0.741862000000000 80.000000000000000
1.337730000000000 6.016210000000000 -1.487040000000000 100.000000000000000
1.337720000000000 6.011240000000000 -0.717985000000000 101.000000000000000
1.543420000000000 5.971420000000000 -0.740908000000000 80.000000000000000
1.356150000000000 6.000130000000000 -1.484220000000000 101.000000000000000
1.358700000000000 6.006530000000000 -0.717985000000000 101.000000000000000
1.568290000000000 5.981360000000000 -0.742816000000000 78.000000000000000
1.384920000000000 6.029460000000000 -1.492670000000000 101.000000000000000
1.383220000000000 6.017240000000000 -0.719838000000000 101.000000000000000
1.586100000000000 5.964340000000000 -0.741385000000000 28.000000000000000
1.405070000000000 6.020810000000000 -1.491730000000000 101.000000000000000
1.404210000000000 6.012380000000000 -0.719838000000000 101.000000000000000
1.606910000000000 5.958760000000000 -0.741385000000000 21.000000000000000
1.423390000000000 6.004520000000000 -1.488910000000000 101.000000000000000
1.426110000000000 6.011300000000000 -0.720301000000000 101.000000000000000
1.628740000000000 5.956950000000000 -0.741862000000000 25.000000000000000
1.447070000000000 6.010850000000000 -1.491730000000000 101.000000000000000
1.445220000000000 5.998560000000000 -0.719374000000000 101.000000000000000
1.647400000000000 5.943570000000000 -0.740908000000000 21.000000000000000
1.465280000000000 5.994430000000000 -1.488910000000000 88.000000000000000
1.467100000000000 5.997340000000000 -0.719838000000000 101.000000000000000
1.667070000000000 5.933960000000000 -0.740431000000000 70.000000000000000
1.482450000000000 5.974180000000000 -1.485160000000000 47.000000000000000
1.488020000000000 5.992180000000000 -0.719838000000000 101.000000000000000
1.508990000000000 5.991600000000000 -1.490790000000000 49.000000000000000
1.507960000000000 5.983100000000000 -0.719374000000000 101.000000000000000
1.529890000000000 5.986290000000000 -1.490790000000000 48.000000000000000
1.533760000000000 5.997050000000000 -0.721690000000000 101.000000000000000
1.548760000000000 5.977420000000000 -1.489850000000000 61.000000000000000
1.549650000000000 5.976540000000000 -0.719838000000000 101.000000000000000
1.575490000000000 5.998580000000000 -1.496420000000000 101.000000000000000
1.565420000000000 5.956000000000000 -0.717985000000000 101.000000000000000
1.595460000000000 5.985250000000000 -1.494540000000000 101.000000000000000
1.595430000000000 5.980940000000000 -0.721690000000000 101.000000000000000
1.613300000000000 5.968380000000000 -1.491730000000000 101.000000000000000
1.616300000000000 5.975330000000000 -0.721690000000000 101.000000000000000
1.631040000000000 5.951470000000000 -1.488910000000000 101.000000000000000
1.635040000000000 5.961990000000000 -0.720764000000000 101.000000000000000
1.655970000000000 5.960720000000000 -1.492670000000000 101.000000000000000
1.665420000000000 5.990700000000000 -0.724933000000000 101.000000000000000
1.677740000000000 5.958370000000000 -0.721690000000000 101.000000000000000