# This PCD file was generated using the MATLAB® pcwrite function
# from Computer Vision Toolbox®.
# .PCD v.7 - Point Cloud Data file format
VERSION .7
FIELDS x y z intensity
SIZE 8 8 8 8
TYPE F F F F
COUNT 1 1 1 1
WIDTH 415
HEIGHT 1
VIEWPOINT 0 0 0 1 0 0 0
POINTS 415
DATA ascii
-0.757539000000000 6.991450000000000 -0.819892000000000 40.000000000000000
-0.734786000000000 7.009850000000000 -0.821745000000000 51.000000000000000
-0.712715000000000 7.036090000000000 -0.824524000000000 55.000000000000000
-0.688537000000000 7.042490000000000 -0.824988000000000 35.000000000000000
-0.667305000000000 7.080450000000000 -0.829157000000000 16.000000000000000
-0.640791000000000 7.062950000000000 -0.826840000000000 12.000000000000000
-0.618749000000000 7.080870000000000 -0.828693000000000 12.000000000000000
-0.591040000000000 7.047360000000000 -0.824524000000000 11.000000000000000
-0.569300000000000 7.085020000000000 -0.828693000000000 52.000000000000000
-1.235480000000000 6.828230000000000 -0.790611000000000 66.000000000000000
-1.217890000000000 6.867720000000000 -0.794687000000000 25.000000000000000
-1.191090000000000 6.848620000000000 -1.444890000000000 101.000000000000000
-1.191190000000000 6.856270000000000 -0.792875000000000 21.000000000000000
-1.173750000000000 6.891340000000000 -1.453030000000000 10.000000000000000
-1.165910000000000 6.852550000000000 -0.791970000000000 21.000000000000000
-1.149600000000000 6.887470000000000 -1.451400000000000 11.000000000000000
-1.145140000000000 6.868140000000000 -0.793328000000000 21.000000000000000
-1.128710000000000 6.910770000000000 -1.455470000000000 11.000000000000000
-1.117320000000000 6.848560000000000 -0.790611000000000 77.000000000000000
-1.099050000000000 6.887790000000000 -1.449770000000000 12.000000000000000
-1.090340000000000 6.840840000000000 -0.789253000000000 81.000000000000000
-1.071370000000000 6.860440000000000 -1.443260000000000 40.000000000000000
-1.075610000000000 6.895460000000000 -0.795139000000000 63.000000000000000
-1.047420000000000 6.864140000000000 -1.443260000000000 40.000000000000000
-1.050330000000000 6.891320000000000 -0.794234000000000 43.000000000000000
-1.028650000000000 6.902610000000000 -1.450580000000000 36.000000000000000
-1.026270000000000 6.894940000000000 -0.794234000000000 21.000000000000000
-1.223070000000000 6.844110000000000 -0.778623000000000 46.000000000000000
-1.005110000000000 6.910040000000000 -1.451400000000000 30.000000000000000
-1.010770000000000 6.957480000000000 -0.801026000000000 13.000000000000000
-1.203180000000000 6.864170000000000 -1.272230000000000 98.000000000000000
-1.201230000000000 6.860090000000000 -0.779959000000000 18.000000000000000
-0.989236000000000 6.971670000000000 -1.463610000000000 13.000000000000000
-0.980901000000000 6.921610000000000 -0.796498000000000 10.000000000000000
-1.174550000000000 6.841180000000000 -1.267200000000000 45.000000000000000
-1.178620000000000 6.872070000000000 -0.780849000000000 15.000000000000000
-0.964357000000000 6.971200000000000 -1.462790000000000 13.000000000000000
-0.957822000000000 6.932870000000000 -0.797403000000000 10.000000000000000
-1.155230000000000 6.872400000000000 -1.272230000000000 42.000000000000000
-1.153300000000000 6.868310000000000 -0.779959000000000 14.000000000000000
-0.939494000000000 6.970640000000000 -1.461980000000000 14.000000000000000
-0.929905000000000 6.908600000000000 -0.794234000000000 27.000000000000000
-1.130510000000000 6.864550000000000 -1.270080000000000 35.000000000000000
-1.131170000000000 6.876010000000000 -0.780404000000000 37.000000000000000
-0.914843000000000 6.962070000000000 -1.459540000000000 15.000000000000000
-0.908541000000000 6.923470000000000 -0.795592000000000 33.000000000000000
-1.108370000000000 6.872150000000000 -1.270790000000000 33.000000000000000
-1.107730000000000 6.875800000000000 -0.779959000000000 65.000000000000000
-0.890039000000000 6.961330000000000 -1.458720000000000 13.000000000000000
-0.890408000000000 6.973900000000000 -0.801026000000000 31.000000000000000
-1.082560000000000 6.872270000000000 -1.270080000000000 6.000000000000000
-1.083140000000000 6.883740000000000 -0.780404000000000 47.000000000000000
-0.869115000000000 6.991600000000000 -1.464420000000000 12.000000000000000
-0.862633000000000 6.949360000000000 -0.797856000000000 38.000000000000000
-1.060960000000000 6.883600000000000 -1.271510000000000 6.000000000000000
-1.066350000000000 6.926590000000000 -0.784856000000000 26.000000000000000
-0.844045000000000 6.978900000000000 -1.461170000000000 11.000000000000000
-0.840059000000000 6.956130000000000 -0.798309000000000 11.000000000000000
-1.041650000000000 6.910430000000000 -1.275820000000000 6.000000000000000
-1.039820000000000 6.906500000000000 -0.782185000000000 36.000000000000000
-0.820135000000000 6.985690000000000 -1.461980000000000 10.000000000000000
-0.819012000000000 6.986650000000000 -0.801479000000000 8.000000000000000
-1.242670000000000 6.846130000000000 -0.765711000000000 29.000000000000000
-1.015170000000000 6.906420000000000 -1.274390000000000 8.000000000000000
-1.019120000000000 6.941730000000000 -0.785746000000000 8.000000000000000
-0.793974000000000 6.972940000000000 -1.458720000000000 24.000000000000000
-0.794619000000000 6.989460000000000 -0.801479000000000 7.000000000000000
-1.213460000000000 6.813730000000000 -1.126400000000000 22.000000000000000
-1.213190000000000 6.819110000000000 -0.762211000000000 36.000000000000000
-0.993291000000000 6.925500000000000 -1.277260000000000 35.000000000000000
-0.991504000000000 6.921630000000000 -0.783075000000000 8.000000000000000
-0.770917000000000 6.987350000000000 -1.461170000000000 25.000000000000000
-0.770216000000000 6.992200000000000 -0.801479000000000 6.000000000000000
-1.188990000000000 6.814030000000000 -1.125760000000000 15.000000000000000
-1.187340000000000 6.811550000000000 -0.760898000000000 33.000000000000000
-0.964750000000000 6.897750000000000 -1.271510000000000 32.000000000000000
-0.970087000000000 6.944740000000000 -0.785301000000000 7.000000000000000
-0.747354000000000 6.997790000000000 -1.462790000000000 26.000000000000000
-0.741169000000000 6.951370000000000 -0.796498000000000 22.000000000000000
-1.166530000000000 6.825920000000000 -1.127040000000000 17.000000000000000
-1.168900000000000 6.847010000000000 -0.764399000000000 41.000000000000000
-0.947725000000000 6.943800000000000 -1.279410000000000 29.000000000000000
-0.943831000000000 6.924280000000000 -0.782630000000000 17.000000000000000
-0.723741000000000 6.996330000000000 -1.461980000000000 20.000000000000000
-0.722604000000000 6.997280000000000 -0.801479000000000 20.000000000000000
-1.151060000000000 6.872590000000000 -1.134110000000000 20.000000000000000
-1.146850000000000 6.854770000000000 -0.764836000000000 38.000000000000000
-0.925036000000000 6.958760000000000 -1.281570000000000 23.000000000000000
-0.920701000000000 6.935420000000000 -0.783520000000000 32.000000000000000
-0.700872000000000 7.014400000000000 -1.465240000000000 8.000000000000000
-0.698964000000000 7.007670000000000 -0.802384000000000 23.000000000000000
-1.125790000000000 6.868770000000000 -1.132830000000000 18.000000000000000
-1.126130000000000 6.878350000000000 -0.767024000000000 48.000000000000000
-0.903264000000000 6.981460000000000 -1.285160000000000 5.000000000000000
-0.899033000000000 6.958300000000000 -0.785746000000000 25.000000000000000
-0.677511000000000 7.028500000000000 -1.467680000000000 6.000000000000000
-0.674879000000000 7.014020000000000 -0.802837000000000 23.000000000000000
-1.106810000000000 6.903840000000000 -1.137970000000000 3.000000000000000
-1.101480000000000 6.878310000000000 -0.766587000000000 54.000000000000000
-0.878889000000000 6.984570000000000 -1.285160000000000 5.000000000000000
-0.875234000000000 6.965340000000000 -0.786191000000000 28.000000000000000
-0.652610000000000 7.026920000000000 -1.466860000000000 6.000000000000000
-0.654427000000000 7.059860000000000 -0.807818000000000 5.000000000000000
-1.079030000000000 6.884260000000000 -1.134110000000000 3.000000000000000
-1.081150000000000 6.905680000000000 -0.769212000000000 58.000000000000000
-0.851160000000000 6.960260000000000 -1.280130000000000 6.000000000000000
-0.855252000000000 7.003870000000000 -0.790198000000000 21.000000000000000
-0.628078000000000 7.029160000000000 -1.466860000000000 11.000000000000000
-0.629779000000000 7.062100000000000 -0.807818000000000 5.000000000000000
-1.054400000000000 6.884090000000000 -1.133470000000000 2.000000000000000
-1.057640000000000 6.913340000000000 -0.769649000000000 36.000000000000000
-0.827323000000000 6.967090000000000 -1.280850000000000 6.000000000000000
-0.831735000000000 7.014700000000000 -0.791088000000000 5.000000000000000
-0.603538000000000 7.031310000000000 -1.466860000000000 17.000000000000000
-0.603767000000000 7.048420000000000 -0.806007000000000 5.000000000000000
-1.031530000000000 6.895530000000000 -1.134760000000000 3.000000000000000
-1.035860000000000 6.932720000000000 -0.771400000000000 27.000000000000000
-0.806018000000000 6.985430000000000 -1.283720000000000 22.000000000000000
-0.806194000000000 6.997680000000000 -0.788862000000000 4.000000000000000
-1.232630000000000 6.851380000000000 -1.022010000000000 101.000000000000000
-1.231100000000000 6.849700000000000 -0.752352000000000 17.000000000000000
-0.577964000000000 7.005950000000000 -1.461170000000000 16.000000000000000
-0.580716000000000 7.054340000000000 -0.806460000000000 6.000000000000000
-1.005800000000000 6.879380000000000 -1.131540000000000 10.000000000000000
-1.014580000000000 6.947920000000000 -0.772712000000000 15.000000000000000
-0.777693000000000 6.953010000000000 -1.277260000000000 29.000000000000000
-0.780880000000000 6.992550000000000 -0.787972000000000 5.000000000000000
-1.207340000000000 6.847850000000000 -1.020850000000000 17.000000000000000
-1.207180000000000 6.853950000000000 -0.752352000000000 17.000000000000000
-0.557514000000000 7.058680000000000 -1.471750000000000 24.000000000000000
-0.550781000000000 6.988970000000000 -0.798762000000000 23.000000000000000
-0.982339000000000 6.886760000000000 -1.132190000000000 10.000000000000000
-0.986399000000000 6.923870000000000 -0.769649000000000 13.000000000000000
-0.757655000000000 6.994800000000000 -1.284440000000000 24.000000000000000
-0.755184000000000 6.983370000000000 -0.786636000000000 11.000000000000000
-1.180060000000000 6.832520000000000 -1.017940000000000 13.000000000000000
-1.184600000000000 6.865960000000000 -0.753211000000000 25.000000000000000
-0.531102000000000 7.037150000000000 -1.466860000000000 37.000000000000000
-0.961013000000000 6.909700000000000 -1.135400000000000 11.000000000000000
-0.962224000000000 6.927270000000000 -0.769649000000000 13.000000000000000
-0.735285000000000 7.016970000000000 -1.288030000000000 19.000000000000000
-0.730390000000000 6.982010000000000 -0.786191000000000 19.000000000000000
-1.158840000000000 6.852210000000000 -1.020270000000000 12.000000000000000
-1.158640000000000 6.858290000000000 -0.751922000000000 39.000000000000000
-0.939008000000000 6.928660000000000 -1.137970000000000 12.000000000000000
-0.938571000000000 6.934530000000000 -0.770087000000000 27.000000000000000
-0.713165000000000 7.042990000000000 -1.292340000000000 5.000000000000000
-0.710411000000000 7.028030000000000 -0.791088000000000 18.000000000000000
-1.135560000000000 6.860110000000000 -1.020850000000000 12.000000000000000
-1.135340000000000 6.866220000000000 -0.752352000000000 48.000000000000000
-0.918950000000000 6.963210000000000 -1.143110000000000 2.000000000000000
-0.914359000000000 6.937760000000000 -0.770087000000000 32.000000000000000
-0.686662000000000 7.025850000000000 -1.288750000000000 5.000000000000000
-0.686260000000000 7.034420000000000 -0.791533000000000 19.000000000000000
-1.109710000000000 6.852320000000000 -1.019100000000000 34.000000000000000
-1.111370000000000 6.870140000000000 -0.752352000000000 53.000000000000000
-0.891825000000000 6.934890000000000 -1.137970000000000 1.000000000000000
-0.893880000000000 6.960470000000000 -0.772275000000000 28.000000000000000
-0.663360000000000 7.028090000000000 -1.288750000000000 5.000000000000000
-0.662557000000000 7.032700000000000 -0.791088000000000 10.000000000000000
-1.087600000000000 6.859870000000000 -1.019680000000000 39.000000000000000
-1.091690000000000 6.893430000000000 -0.754501000000000 100.000000000000000
-0.867612000000000 6.937960000000000 -1.137970000000000 1.000000000000000
-0.872041000000000 6.983280000000000 -0.774462000000000 25.000000000000000
-0.639892000000000 7.042120000000000 -1.290910000000000 7.000000000000000
-0.640517000000000 7.062680000000000 -0.794205000000000 3.000000000000000
-1.066680000000000 6.883180000000000 -1.022590000000000 37.000000000000000
-1.067620000000000 6.897200000000000 -0.754501000000000 101.000000000000000
-0.844341000000000 6.948790000000000 -1.139250000000000 2.000000000000000
-0.849575000000000 7.002070000000000 -0.776213000000000 6.000000000000000
-0.611882000000000 7.005110000000000 -1.283720000000000 20.000000000000000
-0.615170000000000 7.056950000000000 -0.793314000000000 3.000000000000000
-1.044420000000000 6.898600000000000 -1.024330000000000 30.000000000000000
-1.043540000000000 6.900880000000000 -0.754501000000000 100.000000000000000
-0.820081000000000 6.951690000000000 -1.139250000000000 6.000000000000000
-0.825593000000000 7.008940000000000 -0.776650000000000 5.000000000000000
-0.587426000000000 7.007200000000000 -1.283720000000000 21.000000000000000
-0.591527000000000 7.070940000000000 -0.794650000000000 4.000000000000000
-1.020910000000000 6.906110000000000 -1.024910000000000 12.000000000000000
-1.021770000000000 6.920220000000000 -0.756221000000000 36.000000000000000
-0.796258000000000 6.958440000000000 -1.139900000000000 6.000000000000000
-0.797512000000000 6.980170000000000 -0.773150000000000 4.000000000000000
-1.223620000000000 6.841020000000000 -0.933447000000000 32.000000000000000
-0.565483000000000 7.040590000000000 -1.289470000000000 26.000000000000000
-0.561442000000000 7.005600000000000 -0.787082000000000 20.000000000000000
-0.997932000000000 6.917470000000000 -1.026080000000000 6.000000000000000
-0.995902000000000 6.911930000000000 -0.754931000000000 43.000000000000000
-0.773270000000000 6.972940000000000 -1.141820000000000 6.000000000000000
-0.776642000000000 7.014530000000000 -0.776650000000000 5.000000000000000
-1.196310000000000 6.825730000000000 -0.930784000000000 40.000000000000000
-0.539095000000000 7.018980000000000 -1.285160000000000 42.000000000000000
-0.971574000000000 6.905240000000000 -1.023750000000000 6.000000000000000
-0.971215000000000 6.911430000000000 -0.754501000000000 32.000000000000000
-0.750987000000000 6.983320000000000 -1.143110000000000 5.000000000000000
-0.746586000000000 6.953810000000000 -0.769649000000000 14.000000000000000
-1.175020000000000 6.837470000000000 -0.931849000000000 34.000000000000000
-0.951362000000000 6.928020000000000 -1.026660000000000 6.000000000000000
-0.950452000000000 6.930370000000000 -0.756221000000000 30.000000000000000
-0.728239000000000 7.001610000000000 -1.145680000000000 3.000000000000000
-0.726414000000000 6.995930000000000 -0.774025000000000 16.000000000000000
-1.155090000000000 6.864990000000000 -0.935044000000000 39.000000000000000
-0.925599000000000 6.919530000000000 -1.024910000000000 24.000000000000000
-0.925202000000000 6.925760000000000 -0.755361000000000 41.000000000000000
-0.704189000000000 7.008040000000000 -1.146320000000000 4.000000000000000
-0.704767000000000 7.026110000000000 -0.777088000000000 19.000000000000000
-1.131120000000000 6.868980000000000 -0.935044000000000 31.000000000000000
-1.120230000000000 6.870150000000000 -0.738989000000000 5.000000000000000
-0.899395000000000 6.907030000000000 -1.022590000000000 25.000000000000000
-0.902046000000000 6.936840000000000 -0.756221000000000 43.000000000000000
-0.680485000000000 7.018310000000000 -1.147610000000000 6.000000000000000
-0.679088000000000 7.016660000000000 -0.775775000000000 19.000000000000000
-1.110920000000000 6.896370000000000 -0.938239000000000 9.000000000000000
-1.097440000000000 6.873830000000000 -0.738989000000000 27.000000000000000
-0.882462000000000 6.957080000000000 -1.029560000000000 24.000000000000000
-0.880537000000000 6.951630000000000 -0.757511000000000 41.000000000000000
-0.656839000000000 7.016600000000000 -1.146960000000000 5.000000000000000
-0.660255000000000 7.066380000000000 -0.781026000000000 4.000000000000000
-1.085570000000000 6.884350000000000 -0.936109000000000 9.000000000000000
-1.074050000000000 6.881550000000000 -0.739411000000000 37.000000000000000
-0.857203000000000 6.952270000000000 -1.028400000000000 25.000000000000000
-0.856752000000000 6.958610000000000 -0.757941000000000 30.000000000000000
-0.631634000000000 7.010980000000000 -1.145680000000000 3.000000000000000
-0.633092000000000 7.040920000000000 -0.777963000000000 3.000000000000000
-1.066970000000000 6.923360000000000 -0.940902000000000 7.000000000000000
-1.050630000000000 6.889190000000000 -0.739834000000000 43.000000000000000
-0.839047000000000 7.006300000000000 -1.035950000000000 7.000000000000000
-0.832457000000000 6.961560000000000 -0.757941000000000 18.000000000000000
-0.606817000000000 7.009210000000000 -1.145040000000000 3.000000000000000
-0.610565000000000 7.066850000000000 -0.780588000000000 3.000000000000000
-1.039250000000000 6.903520000000000 -0.937707000000000 7.000000000000000
-1.247350000000000 6.848780000000000 -0.873263000000000 11.000000000000000
-1.033020000000000 6.936090000000000 -0.744479000000000 11.000000000000000
-0.811845000000000 6.985600000000000 -1.032470000000000 4.000000000000000
-0.808610000000000 6.968370000000000 -0.758370000000000 13.000000000000000
-0.585288000000000 7.046700000000000 -1.150820000000000 1.000000000000000
-0.585564000000000 7.064980000000000 -0.780151000000000 3.000000000000000
-1.013420000000000 6.895340000000000 -0.936109000000000 25.000000000000000
-1.222740000000000 6.849180000000000 -0.872765000000000 16.000000000000000
-1.004790000000000 6.912100000000000 -0.741523000000000 7.000000000000000
-0.787012000000000 6.984460000000000 -1.031890000000000 4.000000000000000
-0.786059000000000 6.986960000000000 -0.760090000000000 11.000000000000000
-0.559434000000000 7.032960000000000 -1.148250000000000 1.000000000000000
-0.557125000000000 7.019420000000000 -0.774900000000000 18.000000000000000
-0.993284000000000 6.926300000000000 -0.939837000000000 25.000000000000000
-1.195400000000000 6.833860000000000 -0.870276000000000 11.000000000000000
-0.984010000000000 6.939190000000000 -0.744056000000000 9.000000000000000
-0.763486000000000 6.995030000000000 -1.033050000000000 4.000000000000000
-0.762096000000000 6.993610000000000 -0.760520000000000 14.000000000000000
-0.535480000000000 7.042740000000000 -1.149530000000000 5.000000000000000
-0.969649000000000 6.933660000000000 -0.940369000000000 25.000000000000000
-1.174890000000000 6.857550000000000 -0.872765000000000 13.000000000000000
-0.955969000000000 6.915000000000000 -0.741100000000000 17.000000000000000
-0.736986000000000 6.977970000000000 -1.030140000000000 20.000000000000000
-0.739347000000000 7.012050000000000 -0.762240000000000 19.000000000000000
-0.947047000000000 6.948780000000000 -0.941967000000000 24.000000000000000
-1.152920000000000 6.873360000000000 -0.874259000000000 17.000000000000000
-0.936073000000000 6.949840000000000 -0.744479000000000 24.000000000000000
-0.711418000000000 6.968690000000000 -1.028400000000000 20.000000000000000
-0.716075000000000 7.026460000000000 -0.763529000000000 20.000000000000000
-0.928001000000000 6.991350000000000 -0.947291000000000 6.000000000000000
-1.129560000000000 6.881260000000000 -0.874757000000000 13.000000000000000
-0.913359000000000 6.964890000000000 -0.745746000000000 23.000000000000000
-0.690582000000000 7.006580000000000 -1.033630000000000 19.000000000000000
-0.689208000000000 7.005170000000000 -0.760950000000000 20.000000000000000
-0.895465000000000 6.931630000000000 -0.938772000000000 4.000000000000000
-1.106160000000000 6.889070000000000 -0.875255000000000 11.000000000000000
-0.890552000000000 6.979880000000000 -0.747012000000000 25.000000000000000
-0.667243000000000 7.020770000000000 -1.035370000000000 22.000000000000000
-0.665878000000000 7.019410000000000 -0.762240000000000 18.000000000000000
-0.873240000000000 6.950450000000000 -0.940902000000000 4.000000000000000
-1.082110000000000 6.892890000000000 -0.875255000000000 11.000000000000000
-0.866672000000000 6.986890000000000 -0.747435000000000 25.000000000000000
-0.645618000000000 7.054580000000000 -1.040020000000000 4.000000000000000
-0.644627000000000 7.057330000000000 -0.766109000000000 4.000000000000000
-0.849454000000000 6.957390000000000 -0.941434000000000 4.000000000000000
-1.056840000000000 6.888780000000000 -0.874259000000000 9.000000000000000
-0.839899000000000 6.970130000000000 -0.745323000000000 31.000000000000000
-0.619601000000000 7.041020000000000 -1.037700000000000 5.000000000000000
-0.617901000000000 7.035770000000000 -0.763529000000000 3.000000000000000
-0.823762000000000 6.948500000000000 -0.939837000000000 19.000000000000000
-1.252700000000000 6.840240000000000 -0.835370000000000 2.000000000000000
-1.035140000000000 6.908130000000000 -0.876251000000000 15.000000000000000
-0.818336000000000 6.996720000000000 -0.747857000000000 31.000000000000000
-0.595686000000000 7.051030000000000 -1.038860000000000 6.000000000000000
-0.596345000000000 7.073550000000000 -0.767399000000000 3.000000000000000
-0.801768000000000 6.971030000000000 -0.942499000000000 17.000000000000000
-1.234430000000000 6.875840000000000 -0.839187000000000 43.000000000000000
-1.011590000000000 6.915630000000000 -0.876748000000000 15.000000000000000
-0.795701000000000 7.015340000000000 -0.749546000000000 28.000000000000000
-0.571069000000000 7.053070000000000 -1.038860000000000 5.000000000000000
-0.568447000000000 7.035950000000000 -0.763099000000000 18.000000000000000
-0.778308000000000 6.981670000000000 -0.943564000000000 13.000000000000000
-1.206300000000000 6.856640000000000 -0.836324000000000 17.000000000000000
-0.987447000000000 6.919120000000000 -0.876748000000000 17.000000000000000
-0.769904000000000 7.006220000000000 -0.748279000000000 23.000000000000000
-0.540945000000000 6.983990000000000 -1.028400000000000 21.000000000000000
-0.756485000000000 7.007990000000000 -0.946759000000000 11.000000000000000
-1.183700000000000 6.868640000000000 -0.837279000000000 15.000000000000000
-0.967236000000000 6.942010000000000 -0.879238000000000 14.000000000000000
-0.745824000000000 7.000820000000000 -0.747435000000000 44.000000000000000
-0.732005000000000 6.998630000000000 -0.945162000000000 7.000000000000000
-1.160920000000000 6.872530000000000 -0.837279000000000 12.000000000000000
-0.944065000000000 6.953210000000000 -0.880233000000000 6.000000000000000
-0.724235000000000 7.031080000000000 -0.750391000000000 52.000000000000000
-0.930845000000000 6.955980000000000 -0.731429000000000 21.000000000000000
-0.709165000000000 7.016920000000000 -0.947291000000000 7.000000000000000
-1.136280000000000 6.872620000000000 -0.836801000000000 21.000000000000000
-0.920309000000000 6.960400000000000 -0.880731000000000 4.000000000000000
-0.700081000000000 7.037520000000000 -0.750813000000000 13.000000000000000
-0.908614000000000 6.974970000000000 -0.733087000000000 25.000000000000000
-0.686591000000000 7.039080000000000 -0.949954000000000 6.000000000000000
-1.114180000000000 6.888310000000000 -0.838233000000000 30.000000000000000
-0.895500000000000 6.959630000000000 -0.880233000000000 3.000000000000000
-0.673612000000000 7.020130000000000 -0.748702000000000 21.000000000000000
-0.884261000000000 6.978100000000000 -0.733087000000000 28.000000000000000
-0.661274000000000 7.033540000000000 -0.948889000000000 8.000000000000000
-1.091370000000000 6.900000000000000 -0.839187000000000 28.000000000000000
-0.871694000000000 6.966650000000000 -0.880731000000000 3.000000000000000
-0.651666000000000 7.050160000000000 -0.751657000000000 8.000000000000000
-0.860870000000000 6.989040000000000 -0.733917000000000 23.000000000000000
-0.637433000000000 7.043700000000000 -0.949954000000000 9.000000000000000
-1.068490000000000 6.911610000000000 -0.840141000000000 30.000000000000000
-0.843538000000000 6.938130000000000 -0.876748000000000 9.000000000000000
-0.626347000000000 7.044470000000000 -0.750813000000000 15.000000000000000
-0.837887000000000 7.003850000000000 -0.735161000000000 27.000000000000000
-0.613872000000000 7.057730000000000 -0.951551000000000 7.000000000000000
-1.043170000000000 6.907450000000000 -0.839187000000000 27.000000000000000
-0.822571000000000 6.968630000000000 -0.880233000000000 10.000000000000000
-1.248680000000000 6.847940000000000 -0.811554000000000 100.000000000000000
-0.602431000000000 7.054540000000000 -0.751657000000000 10.000000000000000
-0.813433000000000 7.006730000000000 -0.735161000000000 35.000000000000000
-0.589233000000000 7.059830000000000 -0.951551000000000 8.000000000000000
-1.019640000000000 6.914980000000000 -0.839664000000000 8.000000000000000
-0.799144000000000 6.979340000000000 -0.881229000000000 11.000000000000000
-1.228960000000000 6.875720000000000 -0.814334000000000 52.000000000000000
-0.579100000000000 7.072450000000000 -0.753347000000000 12.000000000000000
-0.787635000000000 6.997670000000000 -0.733917000000000 32.000000000000000
-0.564270000000000 7.057900000000000 -0.951019000000000 10.000000000000000
-0.997188000000000 6.930290000000000 -0.841095000000000 8.000000000000000
-0.776528000000000 6.997870000000000 -0.883221000000000 13.000000000000000
-1.195220000000000 6.817400000000000 -1.669980000000000 101.000000000000000
-1.204270000000000 6.876060000000000 -0.813870000000000 34.000000000000000
-0.765722000000000 7.012110000000000 -0.735161000000000 59.000000000000000
-0.540256000000000 7.051820000000000 -0.949954000000000 13.000000000000000
-0.975306000000000 6.941420000000000 -0.842049000000000 6.000000000000000
-0.751195000000000 6.980670000000000 -0.880731000000000 3.000000000000000
-1.178540000000000 6.855820000000000 -1.678430000000000 100.000000000000000
-1.176080000000000 6.848680000000000 -0.810165000000000 28.000000000000000
-0.742076000000000 7.022650000000000 -0.735990000000000 95.000000000000000
-0.951609000000000 6.948720000000000 -0.842526000000000 8.000000000000000
-0.728877000000000 7.002990000000000 -0.883221000000000 2.000000000000000
-1.153310000000000 6.852220000000000 -1.676550000000000 89.000000000000000
-1.157440000000000 6.884090000000000 -0.813870000000000 28.000000000000000
-0.717962000000000 7.029160000000000 -0.736404000000000 100.000000000000000
-0.924197000000000 6.928380000000000 -0.839664000000000 20.000000000000000
-0.706413000000000 7.025240000000000 -0.885710000000000 1.000000000000000
-1.131910000000000 6.871550000000000 -1.680300000000000 100.000000000000000
-1.134690000000000 6.895930000000000 -0.814797000000000 84.000000000000000
-0.696545000000000 7.063290000000000 -0.739722000000000 34.000000000000000
-0.903075000000000 6.955190000000000 -0.842526000000000 22.000000000000000
-0.679970000000000 7.007910000000000 -0.883221000000000 2.000000000000000
-1.106680000000000 6.867780000000000 -1.678430000000000 79.000000000000000
-1.107460000000000 6.880240000000000 -0.812481000000000 80.000000000000000
-0.670756000000000 7.053800000000000 -0.738478000000000 36.000000000000000
-0.879786000000000 6.966180000000000 -0.843481000000000 21.000000000000000
-0.656612000000000 7.022090000000000 -0.884714000000000 7.000000000000000
-1.080890000000000 6.860080000000000 -1.675610000000000 60.000000000000000
-1.088370000000000 6.915460000000000 -0.816186000000000 68.000000000000000
-0.646855000000000 7.064020000000000 -0.739307000000000 34.000000000000000
-0.853529000000000 6.953440000000000 -0.841572000000000 13.000000000000000
-0.628895000000000 6.988770000000000 -0.880233000000000 7.000000000000000
-1.062260000000000 6.898400000000000 -1.684060000000000 59.000000000000000
-1.063020000000000 6.911360000000000 -0.815260000000000 58.000000000000000
-0.622193000000000 7.066240000000000 -0.739307000000000 36.000000000000000
-0.829722000000000 6.960320000000000 -0.842049000000000 6.000000000000000
-0.606547000000000 7.014640000000000 -0.883221000000000 10.000000000000000
-1.037020000000000 6.894380000000000 -1.682180000000000 90.000000000000000
-1.041250000000000 6.930750000000000 -0.817113000000000 21.000000000000000
-0.597188000000000 7.064400000000000 -0.738892000000000 28.000000000000000
-0.807246000000000 6.978960000000000 -0.843958000000000 8.000000000000000
-0.585667000000000 7.060230000000000 -0.888697000000000 10.000000000000000
-1.012940000000000 6.897960000000000 -1.682180000000000 73.000000000000000
-1.015900000000000 6.926480000000000 -0.816186000000000 18.000000000000000
-0.572846000000000 7.070410000000000 -0.739307000000000 56.000000000000000
-0.784650000000000 6.997520000000000 -0.845866000000000 6.000000000000000
-0.561019000000000 7.062230000000000 -0.888697000000000 13.000000000000000
-0.991616000000000 6.920700000000000 -1.686870000000000 47.000000000000000
-0.995090000000000 6.953580000000000 -0.818966000000000 19.000000000000000
-0.761871000000000 7.004030000000000 -0.846343000000000 9.000000000000000
-0.966915000000000 6.920260000000000 -1.685930000000000 34.000000000000000
-0.968066000000000 6.937340000000000 -0.816650000000000 16.000000000000000
-0.748576000000000 6.995360000000000 -0.719582000000000 8.000000000000000
-0.738270000000000 7.026530000000000 -0.848729000000000 11.000000000000000
-0.941179000000000 6.912040000000000 -1.683120000000000 35.000000000000000
-0.944379000000000 6.944610000000000 -0.817113000000000 51.000000000000000
-0.723743000000000 6.993970000000000 -0.719175000000000 14.000000000000000
-0.713337000000000 7.025110000000000 -0.848251000000000 11.000000000000000
-0.922740000000000 6.967560000000000 -0.819429000000000 57.000000000000000
-0.700117000000000 7.004370000000000 -0.719989000000000 7.000000000000000
-0.688423000000000 7.023600000000000 -0.847774000000000 9.000000000000000
-0.900953000000000 6.990440000000000 -0.821745000000000 51.000000000000000
-0.666143000000000 7.049690000000000 -0.850637000000000 10.000000000000000
-0.872099000000000 6.958060000000000 -0.817576000000000 53.000000000000000
-0.652305000000000 7.020980000000000 -0.721210000000000 4.000000000000000
-0.640812000000000 7.044060000000000 -0.849683000000000 14.000000000000000
-0.852609000000000 7.000500000000000 -0.822208000000000 16.000000000000000
-0.628856000000000 7.035100000000000 -0.722431000000000 7.000000000000000
-0.618143000000000 7.054060000000000 -0.850637000000000 13.000000000000000
-0.832661000000000 7.030910000000000 -0.825451000000000 17.000000000000000
-0.603818000000000 7.017320000000000 -0.720396000000000 14.000000000000000
-0.594181000000000 7.064090000000000 -0.851591000000000 13.000000000000000
-0.803578000000000 6.994300000000000 -0.820819000000000 14.000000000000000
-0.578992000000000 7.015420000000000 -0.719989000000000 18.000000000000000
-0.569519000000000 7.066120000000000 -0.851591000000000 22.000000000000000
-0.780478000000000 7.008910000000000 -0.822208000000000 13.000000000000000