# This PCD file was generated using the MATLAB® pcwrite function
# from Computer Vision Toolbox®.
# .PCD v.7 - Point Cloud Data file format
VERSION .7
FIELDS x y z intensity
SIZE 8 8 8 8
TYPE F F F F
COUNT 1 1 1 1
WIDTH 306
HEIGHT 1
VIEWPOINT 0 0 0 1 0 0 0
POINTS 306
DATA ascii
0.280120000000000 5.603190000000000 -0.913073000000000 27.000000000000000
-0.074564800000000 5.688420000000000 -0.764116000000000 4.000000000000000
-0.251359000000000 5.729540000000000 -0.719422000000000 2.000000000000000
0.115828000000000 5.618570000000000 -0.825044000000000 29.000000000000000
-0.054670000000000 5.684690000000000 -0.763584000000000 4.000000000000000
-0.232197000000000 5.726380000000000 -0.718924000000000 2.000000000000000
0.135406000000000 5.657720000000000 -0.830854000000000 35.000000000000000
0.317805000000000 5.593270000000000 -0.911788000000000 7.000000000000000
-0.035843500000000 5.688800000000000 -0.764116000000000 5.000000000000000
-0.212207000000000 5.727150000000000 -0.718924000000000 3.000000000000000
0.154395000000000 5.629520000000000 -0.826787000000000 35.000000000000000
0.337564000000000 5.596060000000000 -0.912431000000000 9.000000000000000
-0.015996800000000 5.692850000000000 -0.764649000000000 5.000000000000000
-0.191416000000000 5.704060000000000 -0.715936000000000 27.000000000000000
0.174045000000000 5.628940000000000 -0.826787000000000 36.000000000000000
0.357348000000000 5.598790000000000 -0.913073000000000 7.000000000000000
0.003823750000000 5.617550000000000 -0.754532000000000 20.000000000000000
-0.169834000000000 5.649150000000000 -0.708966000000000 23.000000000000000
0.193965000000000 5.636210000000000 -0.827949000000000 15.000000000000000
0.376359000000000 5.589630000000000 -0.911788000000000 10.000000000000000
0.023515300000000 5.637330000000000 -0.757194000000000 23.000000000000000
-0.151168000000000 5.689390000000000 -0.713945000000000 20.000000000000000
0.213937000000000 5.643410000000000 -0.829111000000000 10.000000000000000
0.395589000000000 5.584340000000000 -0.911146000000000 66.000000000000000
0.043405700000000 5.664960000000000 -0.760922000000000 28.000000000000000
-0.317485000000000 5.718020000000000 -0.687952000000000 6.000000000000000
-0.131582000000000 5.701780000000000 -0.715439000000000 19.000000000000000
0.232980000000000 5.626810000000000 -0.826787000000000 10.000000000000000
0.063003000000000 5.648920000000000 -0.758792000000000 31.000000000000000
-0.299174000000000 5.750820000000000 -0.691769000000000 22.000000000000000
-0.111601000000000 5.698240000000000 -0.714941000000000 22.000000000000000
0.252443000000000 5.622010000000000 -0.826206000000000 10.000000000000000
0.082895200000000 5.660550000000000 -0.760389000000000 29.000000000000000
-0.277943000000000 5.728030000000000 -0.688906000000000 25.000000000000000
-0.093091300000000 5.722390000000000 -0.717928000000000 5.000000000000000
0.270894000000000 5.617190000000000 -0.825625000000000 11.000000000000000
0.101523000000000 5.652320000000000 -0.759324000000000 6.000000000000000
-0.257870000000000 5.705120000000000 -0.686044000000000 23.000000000000000
-0.073549300000000 5.679010000000000 -0.712451000000000 3.000000000000000
0.287482000000000 5.576740000000000 -0.819815000000000 35.000000000000000
0.121083000000000 5.644010000000000 -0.758259000000000 7.000000000000000
-0.237954000000000 5.705980000000000 -0.686044000000000 26.000000000000000
-0.052844700000000 5.691150000000000 -0.713945000000000 3.000000000000000
0.308138000000000 5.579600000000000 -0.820396000000000 46.000000000000000
0.140882000000000 5.647510000000000 -0.758792000000000 8.000000000000000
-0.219248000000000 5.738530000000000 -0.689860000000000 25.000000000000000
-0.032840600000000 5.667490000000000 -0.710958000000000 4.000000000000000
0.329237000000000 5.606140000000000 -0.824463000000000 56.000000000000000
0.160708000000000 5.650950000000000 -0.759324000000000 8.000000000000000
-0.199354000000000 5.743230000000000 -0.690337000000000 31.000000000000000
-0.013093700000000 5.683440000000000 -0.712949000000000 6.000000000000000
0.349541000000000 5.616810000000000 -0.826206000000000 67.000000000000000
0.180306000000000 5.646390000000000 -0.758792000000000 8.000000000000000
-0.178933000000000 5.731980000000000 -0.688906000000000 33.000000000000000
0.006684030000000 5.631860000000000 -0.706477000000000 22.000000000000000
0.369146000000000 5.615560000000000 -0.826206000000000 73.000000000000000
0.199312000000000 5.625920000000000 -0.756129000000000 32.000000000000000
-0.158483000000000 5.716690000000000 -0.686998000000000 55.000000000000000
0.026324300000000 5.627830000000000 -0.705979000000000 26.000000000000000
0.387652000000000 5.598440000000000 -0.823882000000000 65.000000000000000
0.219720000000000 5.644990000000000 -0.758792000000000 41.000000000000000
-0.138720000000000 5.725150000000000 -0.687952000000000 51.000000000000000
0.046195800000000 5.655490000000000 -0.709464000000000 31.000000000000000
0.239088000000000 5.636270000000000 -0.757727000000000 47.000000000000000
-0.118570000000000 5.717650000000000 -0.686998000000000 58.000000000000000
0.065890600000000 5.651320000000000 -0.708966000000000 33.000000000000000
0.258397000000000 5.627480000000000 -0.756662000000000 45.000000000000000
-0.098610700000000 5.718030000000000 -0.686998000000000 23.000000000000000
0.085617000000000 5.651060000000000 -0.708966000000000 34.000000000000000
-0.271596000000000 5.666700000000000 -1.368820000000000 12.000000000000000
0.278039000000000 5.626550000000000 -0.756662000000000 48.000000000000000
-0.078650400000000 5.718340000000000 -0.686998000000000 24.000000000000000
0.106082000000000 5.690410000000000 -0.713945000000000 9.000000000000000
-0.254403000000000 5.725880000000000 -1.382900000000000 13.000000000000000
0.297887000000000 5.629500000000000 -0.757194000000000 20.000000000000000
-0.058444700000000 5.694760000000000 -0.684135000000000 20.000000000000000
0.125242000000000 5.658260000000000 -0.709962000000000 9.000000000000000
-0.232983000000000 5.691770000000000 -1.374450000000000 13.000000000000000
0.316866000000000 5.616550000000000 -0.755597000000000 15.000000000000000
-0.038592800000000 5.698900000000000 -0.684612000000000 20.000000000000000
0.144789000000000 5.649850000000000 -0.708966000000000 11.000000000000000
-0.212968000000000 5.688660000000000 -1.373520000000000 14.000000000000000
0.335995000000000 5.607500000000000 -0.754532000000000 16.000000000000000
-0.018738800000000 5.710910000000000 -0.686044000000000 24.000000000000000
0.164279000000000 5.641380000000000 -0.707971000000000 9.000000000000000
-0.193901000000000 5.712680000000000 -1.379140000000000 100.000000000000000
0.354814000000000 5.594420000000000 -0.752934000000000 15.000000000000000
0.001192770000000 5.695060000000000 -0.684135000000000 24.000000000000000
0.184099000000000 5.644740000000000 -0.708468000000000 10.000000000000000
-0.172421000000000 5.662800000000000 -1.366950000000000 96.000000000000000
0.373810000000000 5.585240000000000 -0.751869000000000 16.000000000000000
0.019990800000000 5.670220000000000 -1.630420000000000 21.000000000000000
0.021101600000000 5.702960000000000 -0.685089000000000 23.000000000000000
0.202656000000000 5.612330000000000 -0.704485000000000 29.000000000000000
-0.152757000000000 5.667250000000000 -1.367890000000000 90.000000000000000
0.392469000000000 5.572030000000000 -0.750272000000000 51.000000000000000
0.039675500000000 5.654730000000000 -1.626000000000000 22.000000000000000
0.040837200000000 5.679020000000000 -0.682227000000000 22.000000000000000
0.223031000000000 5.631420000000000 -0.706975000000000 38.000000000000000
-0.133430000000000 5.687190000000000 -1.372580000000000 92.000000000000000
0.059212000000000 5.635340000000000 -1.620470000000000 30.000000000000000
0.060830100000000 5.694730000000000 -0.684135000000000 23.000000000000000
0.242174000000000 5.618710000000000 -0.705481000000000 43.000000000000000
-0.113344000000000 5.675960000000000 -1.369760000000000 100.000000000000000
-0.113464000000000 5.732040000000000 -0.668421000000000 33.000000000000000
0.078721300000000 5.623570000000000 -1.617150000000000 34.000000000000000
0.080539200000000 5.682570000000000 -0.682704000000000 24.000000000000000
0.261970000000000 5.621790000000000 -0.705979000000000 52.000000000000000
0.098149000000000 5.611730000000000 -1.613840000000000 31.000000000000000
0.100234000000000 5.674310000000000 -0.681750000000000 27.000000000000000
0.281592000000000 5.620840000000000 -0.705979000000000 61.000000000000000
-0.073615400000000 5.668840000000000 -1.367890000000000 14.000000000000000
0.116838000000000 5.615220000000000 -1.614940000000000 39.000000000000000
0.118967000000000 5.669980000000000 -0.681273000000000 28.000000000000000
0.299595000000000 5.607990000000000 -0.704485000000000 22.000000000000000
-0.054891600000000 5.676820000000000 -1.369760000000000 15.000000000000000
0.136251000000000 5.607090000000000 -1.612730000000000 39.000000000000000
0.138564000000000 5.661590000000000 -0.680319000000000 32.000000000000000
0.320297000000000 5.626720000000000 -0.706975000000000 23.000000000000000
-0.034907300000000 5.649760000000000 -1.363190000000000 15.000000000000000
0.156036000000000 5.614260000000000 -1.614940000000000 43.000000000000000
0.158326000000000 5.661070000000000 -0.680319000000000 25.000000000000000
0.338260000000000 5.597840000000000 -0.703490000000000 28.000000000000000
-0.015238000000000 5.669290000000000 -1.367890000000000 17.000000000000000
0.175031000000000 5.594470000000000 -1.609420000000000 42.000000000000000
0.177961000000000 5.656510000000000 -0.679842000000000 29.000000000000000
0.357798000000000 5.596620000000000 -0.703490000000000 25.000000000000000
0.004545370000000 5.661530000000000 -1.366010000000000 101.000000000000000
0.194692000000000 5.597670000000000 -1.610520000000000 82.000000000000000
0.197427000000000 5.647920000000000 -0.678887000000000 62.000000000000000
0.377064000000000 5.591380000000000 -0.702992000000000 34.000000000000000
0.024241000000000 5.645930000000000 -1.362260000000000 99.000000000000000
0.213937000000000 5.589270000000000 -1.608310000000000 77.000000000000000
0.216988000000000 5.643230000000000 -0.678410000000000 64.000000000000000
0.396580000000000 5.590030000000000 -0.702992000000000 52.000000000000000
0.043858000000000 5.634150000000000 -1.359440000000000 101.000000000000000
0.232964000000000 5.576970000000000 -1.604990000000000 97.000000000000000
0.236519000000000 5.638470000000000 -0.677933000000000 64.000000000000000
0.063524600000000 5.633960000000000 -1.359440000000000 101.000000000000000
0.252430000000000 5.576120000000000 -1.604990000000000 75.000000000000000
0.256740000000000 5.649510000000000 -0.679365000000000 36.000000000000000
0.083133000000000 5.629820000000000 -1.358500000000000 101.000000000000000
0.273016000000000 5.598250000000000 -1.611630000000000 80.000000000000000
0.276459000000000 5.648580000000000 -0.679365000000000 36.000000000000000
0.291553000000000 5.578060000000000 -1.606100000000000 95.000000000000000
0.295759000000000 5.639650000000000 -0.678410000000000 40.000000000000000
0.122096000000000 5.613550000000000 -1.354750000000000 15.000000000000000
0.310166000000000 5.561660000000000 -1.601680000000000 96.000000000000000
0.315221000000000 5.634620000000000 -0.677933000000000 43.000000000000000
0.141886000000000 5.620860000000000 -1.356630000000000 16.000000000000000
0.331398000000000 5.591240000000000 -1.610520000000000 101.000000000000000
0.335123000000000 5.637450000000000 -0.678410000000000 51.000000000000000
0.161729000000000 5.628110000000000 -1.358500000000000 18.000000000000000
0.349468000000000 5.567030000000000 -1.603890000000000 100.000000000000000
0.354550000000000 5.632280000000000 -0.677933000000000 57.000000000000000
0.180873000000000 5.611960000000000 -1.354750000000000 30.000000000000000
0.368898000000000 5.565780000000000 -1.603890000000000 77.000000000000000
0.374208000000000 5.631010000000000 -0.677933000000000 63.000000000000000
0.201156000000000 5.630730000000000 -1.359440000000000 101.000000000000000
0.388591000000000 5.568290000000000 -1.604990000000000 101.000000000000000
0.393031000000000 5.617780000000000 -0.676502000000000 59.000000000000000
0.220504000000000 5.622220000000000 -1.357570000000000 101.000000000000000
0.240460000000000 5.629180000000000 -1.359440000000000 101.000000000000000
0.259749000000000 5.620540000000000 -1.357570000000000 101.000000000000000
0.279367000000000 5.619600000000000 -1.357570000000000 101.000000000000000
0.296147000000000 5.583700000000000 -1.349120000000000 25.000000000000000
0.315417000000000 5.578750000000000 -1.348180000000000 26.000000000000000
0.335121000000000 5.581490000000000 -1.349120000000000 32.000000000000000
0.354602000000000 5.580290000000000 -1.349120000000000 28.000000000000000
0.374339000000000 5.582900000000000 -1.350060000000000 58.000000000000000
0.393004000000000 5.569920000000000 -1.347250000000000 101.000000000000000
-0.304148000000000 5.678320000000000 -1.181960000000000 100.000000000000000
-0.285108000000000 5.694990000000000 -1.185210000000000 56.000000000000000
-0.264498000000000 5.680310000000000 -1.181960000000000 27.000000000000000
-0.245006000000000 5.689020000000000 -1.183590000000000 15.000000000000000
-0.224991000000000 5.685930000000000 -1.182770000000000 12.000000000000000
-0.205283000000000 5.690590000000000 -1.183590000000000 12.000000000000000
-0.185418000000000 5.691270000000000 -1.183590000000000 87.000000000000000
-0.165742000000000 5.664460000000000 -1.177890000000000 78.000000000000000
-0.145666000000000 5.653250000000000 -1.175450000000000 75.000000000000000
-0.126368000000000 5.673310000000000 -1.179520000000000 100.000000000000000
-0.292845000000000 5.698180000000000 -1.041630000000000 40.000000000000000
-0.106637000000000 5.677630000000000 -1.180330000000000 101.000000000000000
-0.271824000000000 5.675580000000000 -1.037320000000000 37.000000000000000
-0.252883000000000 5.696150000000000 -1.040920000000000 45.000000000000000
-0.067043500000000 5.682150000000000 -1.181140000000000 13.000000000000000
-0.233159000000000 5.700930000000000 -1.041630000000000 45.000000000000000
-0.047143600000000 5.674520000000000 -1.179520000000000 14.000000000000000
-0.213405000000000 5.705640000000000 -1.042350000000000 43.000000000000000
-0.027335600000000 5.674650000000000 -1.179520000000000 12.000000000000000
-0.193754000000000 5.714220000000000 -1.043790000000000 22.000000000000000
-0.007506440000000 5.659040000000000 -1.176260000000000 16.000000000000000
0.012196500000000 5.635540000000000 -1.171380000000000 100.000000000000000
-0.153221000000000 5.691830000000000 -1.039480000000000 4.000000000000000
0.031690900000000 5.604130000000000 -1.164860000000000 91.000000000000000
-0.133352000000000 5.692330000000000 -1.039480000000000 5.000000000000000
0.051324400000000 5.611820000000000 -1.166490000000000 98.000000000000000
-0.307389000000000 5.716420000000000 -0.931707000000000 35.000000000000000
-0.113952000000000 5.716370000000000 -1.043790000000000 5.000000000000000
0.071556300000000 5.662510000000000 -1.177070000000000 101.000000000000000
-0.286838000000000 5.705630000000000 -0.929780000000000 2.000000000000000
-0.094210500000000 5.669500000000000 -1.035170000000000 33.000000000000000
0.089958700000000 5.638750000000000 -1.172190000000000 101.000000000000000
-0.267361000000000 5.694720000000000 -0.927852000000000 1.000000000000000
-0.074213100000000 5.654060000000000 -1.032300000000000 39.000000000000000
0.109641000000000 5.638400000000000 -1.172190000000000 17.000000000000000
-0.247824000000000 5.703500000000000 -0.929137000000000 1.000000000000000
-0.054210900000000 5.626740000000000 -1.027270000000000 35.000000000000000
0.128249000000000 5.634090000000000 -1.171380000000000 18.000000000000000
-0.228750000000000 5.700350000000000 -0.928495000000000 1.000000000000000
-0.035700800000000 5.650500000000000 -1.031580000000000 48.000000000000000
0.147915000000000 5.633610000000000 -1.171380000000000 22.000000000000000
-0.208706000000000 5.697170000000000 -0.927852000000000 2.000000000000000
-0.016043500000000 5.674200000000000 -1.035890000000000 51.000000000000000
0.167928000000000 5.644800000000000 -1.173820000000000 21.000000000000000
-0.188818000000000 5.697860000000000 -0.927852000000000 12.000000000000000
0.003773720000000 5.689960000000000 -1.038760000000000 10.000000000000000
0.186981000000000 5.624610000000000 -1.169750000000000 17.000000000000000
-0.169279000000000 5.710320000000000 -0.929780000000000 12.000000000000000
0.023570000000000 5.674170000000000 -1.035890000000000 6.000000000000000
0.205750000000000 5.600440000000000 -1.164860000000000 101.000000000000000
-0.148829000000000 5.691150000000000 -0.926567000000000 14.000000000000000
0.043286100000000 5.662250000000000 -1.033730000000000 7.000000000000000
-0.318670000000000 5.737560000000000 -0.843636000000000 1.000000000000000
0.224039000000000 5.568380000000000 -1.158350000000000 100.000000000000000
-0.128336000000000 5.664000000000000 -0.922069000000000 15.000000000000000
0.062963200000000 5.654190000000000 -1.032300000000000 8.000000000000000
-0.298434000000000 5.734680000000000 -0.843055000000000 38.000000000000000
0.244672000000000 5.594960000000000 -1.164050000000000 101.000000000000000
-0.108716000000000 5.672310000000000 -0.923354000000000 16.000000000000000
0.083453500000000 5.638190000000000 -1.029420000000000 8.000000000000000
-0.275693000000000 5.700160000000000 -0.837826000000000 25.000000000000000
0.266475000000000 5.621400000000000 -1.169750000000000 101.000000000000000
0.102918000000000 5.626060000000000 -1.027270000000000 42.000000000000000
-0.254375000000000 5.669460000000000 -0.833178000000000 20.000000000000000
0.285499000000000 5.608710000000000 -1.167300000000000 101.000000000000000
-0.067981000000000 5.661100000000000 -0.921426000000000 2.000000000000000
0.122127000000000 5.605990000000000 -1.023670000000000 49.000000000000000
-0.235401000000000 5.690090000000000 -0.836083000000000 23.000000000000000
0.305713000000000 5.619410000000000 -1.169750000000000 35.000000000000000
-0.048286900000000 5.669200000000000 -0.922712000000000 2.000000000000000
0.140421000000000 5.593760000000000 -1.021520000000000 55.000000000000000
-0.217434000000000 5.714560000000000 -0.839569000000000 27.000000000000000
0.323895000000000 5.610540000000000 -1.168120000000000 37.000000000000000
-0.029384200000000 5.649590000000000 -0.919499000000000 2.000000000000000
0.160396000000000 5.608970000000000 -1.024390000000000 64.000000000000000
-0.197075000000000 5.703420000000000 -0.837826000000000 20.000000000000000
0.343717000000000 5.613290000000000 -1.168930000000000 40.000000000000000
-0.009676810000000 5.657550000000000 -0.920784000000000 3.000000000000000
0.181236000000000 5.647700000000000 -1.031580000000000 68.000000000000000
-0.176919000000000 5.696160000000000 -0.836664000000000 3.000000000000000
0.363309000000000 5.612050000000000 -1.168930000000000 43.000000000000000
0.010078800000000 5.661500000000000 -0.921426000000000 16.000000000000000
0.198990000000000 5.591980000000000 -1.021520000000000 8.000000000000000
-0.157144000000000 5.700700000000000 -0.837245000000000 4.000000000000000
0.381296000000000 5.587310000000000 -1.164050000000000 42.000000000000000
0.029861900000000 5.665380000000000 -0.922069000000000 16.000000000000000
0.220813000000000 5.650230000000000 -1.032300000000000 11.000000000000000
-0.137339000000000 5.705170000000000 -0.837826000000000 3.000000000000000
0.397995000000000 5.546880000000000 -1.155910000000000 101.000000000000000
0.049464600000000 5.645500000000000 -0.918856000000000 18.000000000000000
-0.311537000000000 5.731990000000000 -0.771039000000000 22.000000000000000
0.238693000000000 5.606180000000000 -1.024390000000000 13.000000000000000
-0.117016000000000 5.685830000000000 -0.834921000000000 4.000000000000000
0.069315900000000 5.657140000000000 -0.920784000000000 17.000000000000000
-0.290923000000000 5.721160000000000 -0.769441000000000 6.000000000000000
0.258804000000000 5.617110000000000 -1.026550000000000 13.000000000000000
-0.096357000000000 5.638720000000000 -0.827949000000000 15.000000000000000
0.088627500000000 5.629230000000000 -0.916286000000000 18.000000000000000
-0.271326000000000 5.730070000000000 -0.770506000000000 2.000000000000000
0.279579000000000 5.639750000000000 -1.030860000000000 13.000000000000000
-0.076727400000000 5.642980000000000 -0.828530000000000 23.000000000000000
-0.250975000000000 5.723060000000000 -0.769441000000000 2.000000000000000
0.295927000000000 5.575870000000000 -1.019360000000000 77.000000000000000
-0.057269200000000 5.666960000000000 -0.832016000000000 29.000000000000000
0.128194000000000 5.640310000000000 -0.918214000000000 4.000000000000000
-0.230517000000000 5.712010000000000 -0.767844000000000 3.000000000000000
0.315611000000000 5.578730000000000 -1.020080000000000 72.000000000000000
-0.037461300000000 5.663170000000000 -0.831435000000000 31.000000000000000
0.147571000000000 5.627990000000000 -0.916286000000000 4.000000000000000
-0.210577000000000 5.712780000000000 -0.767844000000000 3.000000000000000
0.336970000000000 5.609020000000000 -1.025830000000000 90.000000000000000
-0.017705300000000 5.667220000000000 -0.832016000000000 28.000000000000000
0.166981000000000 5.619550000000000 -0.915001000000000 4.000000000000000
-0.189180000000000 5.669900000000000 -0.761987000000000 17.000000000000000
0.356048000000000 5.599950000000000 -1.024390000000000 100.000000000000000
0.002081510000000 5.679120000000000 -0.833759000000000 9.000000000000000
0.186595000000000 5.618930000000000 -0.915001000000000 6.000000000000000
-0.168913000000000 5.654680000000000 -0.759857000000000 16.000000000000000
0.375593000000000 5.598680000000000 -1.024390000000000 101.000000000000000
0.021874800000000 5.671170000000000 -0.832597000000000 5.000000000000000
0.206787000000000 5.634030000000000 -0.917571000000000 21.000000000000000
-0.150428000000000 5.702790000000000 -0.766246000000000 22.000000000000000
0.393604000000000 5.589550000000000 -1.022960000000000 101.000000000000000
0.040737700000000 5.678980000000000 -0.833759000000000 6.000000000000000
0.224522000000000 5.609640000000000 -0.913716000000000 22.000000000000000
-0.131334000000000 5.695330000000000 -0.765181000000000 23.000000000000000
-0.310416000000000 5.746520000000000 -0.721911000000000 18.000000000000000
0.059611200000000 5.682770000000000 -0.834340000000000 6.000000000000000
0.243587000000000 5.596990000000000 -0.911788000000000 21.000000000000000
-0.111297000000000 5.687820000000000 -0.764116000000000 26.000000000000000
-0.288154000000000 5.723840000000000 -0.718924000000000 2.000000000000000
0.080047100000000 5.654810000000000 -0.830273000000000 7.000000000000000
0.263493000000000 5.603990000000000 -0.913073000000000 25.000000000000000
-0.267430000000000 5.708950000000000 -0.716932000000000 2.000000000000000
0.098947600000000 5.607010000000000 -0.823301000000000 26.000000000000000