# This PCD file was generated using the MATLAB® pcwrite function
# from Computer Vision Toolbox®.
# .PCD v.7 - Point Cloud Data file format
VERSION .7
FIELDS x y z intensity
SIZE 8 8 8 8
TYPE F F F F
COUNT 1 1 1 1
WIDTH 511
HEIGHT 1
VIEWPOINT 0 0 0 1 0 0 0
POINTS 511
DATA ascii
0.148475000000000 8.944500000000000 -0.828296000000000 22.000000000000000
-0.414337000000000 8.878200000000000 -0.926311000000000 49.000000000000000
-0.413399000000000 8.891430000000000 -0.789699000000000 28.000000000000000
-0.127924000000000 8.926909999999999 -1.199160000000000 10.000000000000000
-0.401574000000000 8.905090000000000 -1.118220000000000 33.000000000000000
-0.114485000000000 8.972840000000000 -0.952662000000000 7.000000000000000
-0.112789000000000 8.962529999999999 -0.812564000000000 7.000000000000000
0.173958000000000 8.970140000000001 -1.317170000000000 7.000000000000000
0.175989000000000 8.993869999999999 -0.972468000000000 13.000000000000000
0.179856000000000 8.951890000000001 -0.829034000000000 18.000000000000000
-0.384545000000000 8.907410000000000 -0.929213000000000 38.000000000000000
-0.383900000000000 8.928649999999999 -0.792880000000000 21.000000000000000
-0.096762300000000 8.927300000000001 -1.199160000000000 17.000000000000000
-0.369003000000000 8.870749999999999 -1.113730000000000 25.000000000000000
-0.082905100000000 8.945340000000000 -0.949706000000000 8.000000000000000
-0.081466900000000 8.958890000000000 -0.812203000000000 7.000000000000000
0.205088000000000 8.961570000000000 -1.316000000000000 20.000000000000000
0.207199000000000 8.985250000000001 -0.971608000000000 11.000000000000000
0.209448000000000 8.947270000000000 -0.828665000000000 12.000000000000000
-0.355005000000000 8.908640000000000 -0.929213000000000 42.000000000000000
-0.353500000000000 8.909970000000000 -0.791113000000000 28.000000000000000
-0.067157800000000 8.927569999999999 -1.199160000000000 18.000000000000000
-0.339129000000000 8.860020000000000 -1.112240000000000 21.000000000000000
-0.053169800000000 8.933640000000000 -0.948440000000000 7.000000000000000
-0.051757700000000 8.959110000000001 -0.812203000000000 6.000000000000000
0.234804000000000 8.960839999999999 -1.316000000000000 26.000000000000000
0.237203000000000 8.992459999999999 -0.972468000000000 9.000000000000000
0.241749000000000 8.986300000000000 -0.832353000000000 14.000000000000000
-0.324773000000000 8.933680000000001 -0.931701000000000 25.000000000000000
-0.322828000000000 8.923090000000000 -0.792173000000000 30.000000000000000
-0.036074200000000 8.947580000000000 -1.201820000000000 19.000000000000000
-0.309717000000000 8.904780000000001 -1.117720000000000 23.000000000000000
-0.022073400000000 8.969569999999999 -0.952240000000000 18.000000000000000
-0.020466100000000 8.951269999999999 -0.811481000000000 4.000000000000000
0.266669000000000 8.979740000000000 -1.318910000000000 20.000000000000000
0.268117000000000 8.975680000000001 -0.970749000000000 38.000000000000000
-0.293325000000000 8.926800000000000 -0.930872000000000 17.000000000000000
-0.291158000000000 8.908230000000000 -0.790759000000000 72.000000000000000
-0.004845430000000 8.955579999999999 -1.202880000000000 16.000000000000000
-0.278756000000000 8.909780000000000 -1.118220000000000 9.000000000000000
0.009240480000000 8.973570000000000 -0.952662000000000 17.000000000000000
0.010784600000000 8.955270000000001 -0.811842000000000 4.000000000000000
0.297488000000000 8.962930000000000 -1.316580000000000 54.000000000000000
-0.262980000000000 8.955610000000000 -0.933774000000000 13.000000000000000
-0.260991000000000 8.941060000000000 -0.793587000000000 88.000000000000000
0.026473900000000 8.975360000000000 -1.205550000000000 6.000000000000000
-0.247763000000000 8.914660000000000 -1.118710000000000 9.000000000000000
0.040582000000000 8.977460000000001 -0.953085000000000 15.000000000000000
0.042156500000000 8.979080000000000 -0.814009000000000 4.000000000000000
-0.231512000000000 8.948520000000000 -0.932945000000000 19.000000000000000
-0.229677000000000 8.937930000000000 -0.793234000000000 34.000000000000000
0.057803500000000 8.975210000000001 -1.205550000000000 5.000000000000000
-0.216837000000000 8.923410000000001 -1.119710000000000 8.000000000000000
0.072142000000000 9.005110000000000 -0.956041000000000 9.000000000000000
0.073401300000000 8.966930000000000 -0.812926000000000 5.000000000000000
-0.200096000000000 8.941319999999999 -0.932116000000000 25.000000000000000
-0.198300000000000 8.930709999999999 -0.792527000000000 21.000000000000000
0.089171900000000 8.978920000000000 -1.206080000000000 6.000000000000000
-0.185604000000000 8.920150000000000 -1.119210000000000 24.000000000000000
0.103163000000000 8.968999999999999 -0.952240000000000 5.000000000000000
0.104887000000000 8.982550000000000 -0.814370000000000 5.000000000000000
-0.169034000000000 8.949920000000001 -0.932945000000000 26.000000000000000
-0.167348000000000 8.943300000000001 -0.793587000000000 21.000000000000000
0.120301000000000 8.962700000000000 -1.203950000000000 16.000000000000000
-0.154466000000000 8.920740000000000 -1.119210000000000 21.000000000000000
0.134769000000000 8.988470000000000 -0.954352000000000 4.000000000000000
0.136242000000000 8.982130000000000 -0.814370000000000 5.000000000000000
-0.428322000000000 8.891249999999999 -0.910466000000000 68.000000000000000
-0.137731000000000 8.946479999999999 -0.932530000000000 26.000000000000000
-0.136311000000000 8.955780000000001 -0.794648000000000 19.000000000000000
0.151921000000000 8.982040000000000 -1.206610000000000 17.000000000000000
-0.412464000000000 8.918279999999999 -1.072480000000000 68.000000000000000
-0.124994000000000 8.929140000000000 -1.120210000000000 21.000000000000000
0.164793000000000 8.999910000000000 -0.955618000000000 10.000000000000000
0.166616000000000 9.013489999999999 -0.817259000000000 3.000000000000000
-0.398122000000000 8.876720000000001 -0.908838000000000 20.000000000000000
-0.108159000000000 8.954840000000001 -0.933360000000000 11.000000000000000
-0.106470000000000 8.944229999999999 -0.793587000000000 27.000000000000000
0.182026000000000 8.997339999999999 -1.208740000000000 15.000000000000000
-0.382376000000000 8.907700000000000 -1.071050000000000 15.000000000000000
-0.095637700000000 8.953320000000000 -1.123190000000000 6.000000000000000
0.194207000000000 8.979430000000001 -0.953507000000000 19.000000000000000
0.195289000000000 8.957129999999999 -0.812203000000000 3.000000000000000
-0.369839000000000 8.905820000000000 -0.911687000000000 18.000000000000000
-0.077002500000000 8.967100000000000 -0.934603000000000 9.000000000000000
-0.075348200000000 8.956500000000000 -0.794648000000000 27.000000000000000
0.213996000000000 9.020429999999999 -1.211940000000000 4.000000000000000
-0.351124000000000 8.905010000000001 -1.070570000000000 13.000000000000000
-0.062793700000000 8.949640000000000 -1.122700000000000 5.000000000000000
0.227519000000000 8.994560000000000 -0.955196000000000 14.000000000000000
0.229740000000000 9.020070000000000 -0.817982000000000 3.000000000000000
-0.336894000000000 8.899160000000000 -0.910873000000000 19.000000000000000
-0.045701100000000 8.967309999999999 -0.934603000000000 9.000000000000000
-0.044123000000000 8.964680000000000 -0.795355000000000 18.000000000000000
0.244080000000000 8.968109999999999 -1.205010000000000 4.000000000000000
-0.320180000000000 8.910150000000000 -1.071050000000000 14.000000000000000
-0.031511300000000 8.937900000000001 -1.121200000000000 5.000000000000000
0.259945000000000 9.029500000000001 -0.958997000000000 21.000000000000000
0.260648000000000 8.999309999999999 -0.816176000000000 6.000000000000000
-0.305555000000000 8.892329999999999 -0.910059000000000 16.000000000000000
-0.014392600000000 8.963440000000000 -0.934189000000000 20.000000000000000
-0.012818700000000 8.956810000000001 -0.794648000000000 10.000000000000000
0.276478000000000 9.002870000000000 -1.209810000000000 5.000000000000000
-0.289205000000000 8.915179999999999 -1.071530000000000 32.000000000000000
-0.000311993000000 8.937950000000001 -1.121200000000000 14.000000000000000
-0.275249000000000 8.917210000000001 -0.912501000000000 15.000000000000000
-0.274213000000000 8.934200000000001 -0.775721000000000 14.000000000000000
0.016895700000000 8.963430000000001 -0.934189000000000 18.000000000000000
0.018479300000000 8.972740000000000 -0.796062000000000 8.000000000000000
-0.258428000000000 8.928050000000001 -1.072960000000000 28.000000000000000
0.029392400000000 8.957750000000001 -1.123690000000000 14.000000000000000
-0.245239000000000 8.902160000000000 -0.910873000000000 11.000000000000000
0.046847000000000 9.007090000000000 -0.938750000000000 22.000000000000000
0.048276700000000 8.980589999999999 -0.796769000000000 8.000000000000000
-0.228718000000000 8.924880000000000 -1.072480000000000 30.000000000000000
0.060660600000000 8.957590000000000 -1.123690000000000 13.000000000000000
-0.214737000000000 8.926830000000001 -0.913315000000000 22.000000000000000
0.078494800000000 9.030740000000000 -0.941238000000000 8.000000000000000
0.079659800000000 8.984360000000001 -0.797122000000000 12.000000000000000
-0.197739000000000 8.933570000000000 -1.073430000000000 13.000000000000000
0.092172500000000 8.981140000000000 -1.126680000000000 5.000000000000000
-0.183330000000000 8.915590000000000 -0.912094000000000 23.000000000000000
0.109533000000000 8.990629999999999 -0.937091000000000 7.000000000000000
0.111168000000000 8.995979999999999 -0.798183000000000 11.000000000000000
-0.166776000000000 8.946120000000001 -1.074870000000000 11.000000000000000
0.123249000000000 8.960920000000000 -1.124190000000000 3.000000000000000
-0.439067000000000 8.932639999999999 -1.042700000000000 34.000000000000000
-0.152208000000000 8.916180000000001 -0.912094000000000 16.000000000000000
-0.151005000000000 8.937130000000000 -0.775721000000000 11.000000000000000
0.141165000000000 9.006110000000000 -0.938750000000000 7.000000000000000
0.142885000000000 9.015450000000000 -0.799950000000000 13.000000000000000
-0.421338000000000 8.921210000000000 -0.896171000000000 17.000000000000000
-0.135307000000000 8.930759999999999 -1.072960000000000 11.000000000000000
0.154733000000000 8.972340000000001 -1.125680000000000 4.000000000000000
-0.407521000000000 8.926180000000000 -1.041770000000000 11.000000000000000
-0.121246000000000 8.928590000000000 -0.913315000000000 9.000000000000000
-0.119808000000000 8.937600000000000 -0.775721000000000 10.000000000000000
0.172372000000000 8.993630000000000 -0.937506000000000 20.000000000000000
0.174585000000000 9.026850000000000 -0.801011000000000 6.000000000000000
-0.389325000000000 8.902740000000000 -0.894174000000000 12.000000000000000
-0.104224000000000 8.939120000000001 -1.073910000000000 28.000000000000000
0.186627000000000 8.999520000000000 -1.129170000000000 12.000000000000000
-0.377030000000000 8.943420000000000 -1.043630000000000 9.000000000000000
-0.090198900000000 8.940899999999999 -0.914536000000000 7.000000000000000
-0.088688100000000 8.945930000000001 -0.776413000000000 11.000000000000000
0.203675000000000 8.988989999999999 -0.937091000000000 23.000000000000000
0.206003000000000 9.022200000000000 -0.800657000000000 6.000000000000000
-0.358086000000000 8.900069999999999 -0.893774000000000 11.000000000000000
-0.073052600000000 8.943400000000000 -1.074390000000000 25.000000000000000
0.217656000000000 8.982939999999999 -1.127180000000000 16.000000000000000
-0.344735000000000 8.916890000000000 -1.040380000000000 8.000000000000000
-0.058962500000000 8.937180000000000 -0.914129000000000 7.000000000000000
-0.057486100000000 8.950170000000000 -0.776759000000000 12.000000000000000
0.236091000000000 9.028000000000000 -0.941238000000000 21.000000000000000
0.237600000000000 9.025410000000001 -0.801011000000000 6.000000000000000
-0.327163000000000 8.905239999999999 -0.894174000000000 14.000000000000000
-0.041871000000000 8.951540000000000 -1.075340000000000 21.000000000000000
0.248791000000000 8.974190000000000 -1.126180000000000 15.000000000000000
-0.313746000000000 8.922010000000000 -1.040850000000000 10.000000000000000
-0.027827400000000 8.957220000000000 -0.916164000000000 14.000000000000000
-0.026290500000000 8.966260000000000 -0.778142000000000 12.000000000000000
0.266189000000000 8.979400000000000 -0.936262000000000 50.000000000000000
-0.295944000000000 8.902350000000000 -0.893774000000000 15.000000000000000
-0.010614600000000 8.943690000000000 -1.074390000000000 11.000000000000000
0.280610000000000 8.989140000000001 -1.128170000000000 21.000000000000000
-0.283230000000000 8.942909999999999 -1.043160000000000 11.000000000000000
0.003439340000000 8.957269999999999 -0.916164000000000 13.000000000000000
0.005009950000000 8.970280000000001 -0.778488000000000 11.000000000000000
-0.265222000000000 8.915270000000000 -0.894972000000000 14.000000000000000
0.020641400000000 8.959560000000000 -1.076300000000000 11.000000000000000
-0.252011000000000 8.943840000000000 -1.043160000000000 10.000000000000000
0.034752300000000 8.969139999999999 -0.917385000000000 11.000000000000000
0.036322000000000 8.970210000000000 -0.778488000000000 10.000000000000000
-0.234100000000000 8.916140000000000 -0.894972000000000 13.000000000000000
0.051985000000000 8.971349999999999 -1.077730000000000 13.000000000000000
-0.220986000000000 8.952610000000000 -1.044090000000000 8.000000000000000
0.066060200000000 8.968959999999999 -0.917385000000000 7.000000000000000
0.067573600000000 8.962059999999999 -0.777796000000000 12.000000000000000
-0.203881000000000 8.956690000000000 -0.898966000000000 11.000000000000000
0.083300500000000 8.971109999999999 -1.077730000000000 11.000000000000000
-0.189145000000000 8.925530000000000 -1.040850000000000 7.000000000000000
0.097453700000000 8.976640000000000 -0.918199000000000 6.000000000000000
0.099076400000000 8.981690000000000 -0.779526000000000 10.000000000000000
-0.172232000000000 8.937450000000000 -0.896969000000000 10.000000000000000
0.114615000000000 8.970770000000000 -1.077730000000000 8.000000000000000
-0.158058000000000 8.930099999999999 -1.041310000000000 6.000000000000000
0.128559000000000 8.960330000000001 -0.916571000000000 5.000000000000000
0.130312000000000 8.973319999999999 -0.778834000000000 10.000000000000000
-0.140782000000000 8.922079999999999 -0.895372000000000 11.000000000000000
0.146187000000000 8.986200000000000 -1.079640000000000 7.000000000000000
-0.128673000000000 8.946470000000000 -1.043160000000000 7.000000000000000
0.158553000000000 8.975759999999999 -0.918199000000000 7.000000000000000
0.159926000000000 8.964869999999999 -0.778142000000000 8.000000000000000
-0.111492000000000 8.946380000000000 -0.897768000000000 9.000000000000000
0.175985000000000 8.985659999999999 -1.079640000000000 11.000000000000000
-0.098960400000000 8.942869999999999 -1.042700000000000 9.000000000000000
0.188400000000000 8.979170000000000 -0.918607000000000 15.000000000000000
0.190412000000000 9.000150000000000 -0.781255000000000 7.000000000000000
-0.078701500000000 8.946719999999999 -0.897768000000000 8.000000000000000
0.209010000000000 8.988930000000000 -1.080110000000000 20.000000000000000
-0.064707700000000 8.955109999999999 -1.044090000000000 8.000000000000000
0.223271000000000 8.994289999999999 -0.920235000000000 16.000000000000000
0.225566000000000 9.023250000000001 -0.783330000000000 3.000000000000000
-0.047492300000000 8.950920000000000 -0.898167000000000 8.000000000000000
0.240599000000000 8.996079999999999 -1.081070000000000 25.000000000000000
-0.035042200000000 8.963220000000000 -1.045020000000000 8.000000000000000
0.252760000000000 8.981570000000000 -0.919014000000000 16.000000000000000
0.254472000000000 8.986610000000001 -0.780217000000000 12.000000000000000
-0.017880900000000 8.986850000000000 -0.901762000000000 11.000000000000000
0.270071000000000 8.983330000000000 -1.079640000000000 31.000000000000000
-0.005316560000000 8.959310000000000 -1.044550000000000 6.000000000000000
0.013453300000000 8.962980000000000 -0.899365000000000 10.000000000000000
0.015032300000000 8.971750000000000 -0.761265000000000 15.000000000000000
0.027557600000000 8.971190000000000 -1.045940000000000 6.000000000000000
0.044859100000000 8.986760000000000 -0.901762000000000 10.000000000000000
0.046390700000000 8.979609999999999 -0.761941000000000 17.000000000000000
0.058977000000000 8.986929999999999 -1.047790000000000 4.000000000000000
0.076262200000000 8.990530000000000 -0.902161000000000 6.000000000000000
0.077666100000000 8.971430000000000 -0.761265000000000 80.000000000000000
0.090426800000000 8.994619999999999 -1.048720000000000 9.000000000000000
0.107454000000000 8.974290000000000 -0.900564000000000 6.000000000000000
0.108933000000000 8.967110000000000 -0.760927000000000 52.000000000000000
0.121823000000000 8.994249999999999 -1.048720000000000 8.000000000000000
0.139518000000000 9.021610000000001 -0.905356000000000 6.000000000000000
0.140670000000000 8.994570000000000 -0.763294000000000 28.000000000000000
0.153015000000000 8.981850000000000 -1.047330000000000 8.000000000000000
0.170782000000000 9.009130000000001 -0.904158000000000 10.000000000000000
0.172219000000000 9.002000000000001 -0.763970000000000 19.000000000000000
0.184367000000000 8.981260000000001 -1.047330000000000 5.000000000000000
0.200391000000000 8.996580000000000 -0.902960000000000 11.000000000000000
0.202069000000000 9.001379999999999 -0.763970000000000 18.000000000000000
0.214717000000000 9.004429999999999 -1.050110000000000 4.000000000000000
0.232101000000000 9.007759999999999 -0.904158000000000 11.000000000000000
0.233695000000000 9.008590000000000 -0.764647000000000 15.000000000000000
0.246364000000000 9.011570000000001 -1.051040000000000 3.000000000000000
0.278554000000000 9.034480000000000 -1.053820000000000 9.000000000000000
-0.441915000000000 8.858150000000000 -0.872755000000000 10.000000000000000
-0.424405000000000 8.848509999999999 -1.009320000000000 78.000000000000000
-0.410807000000000 8.855660000000000 -0.872363000000000 5.000000000000000
-0.396301000000000 8.877670000000000 -1.012490000000000 11.000000000000000
-0.381609000000000 8.860950000000001 -0.872755000000000 5.000000000000000
-0.365310000000000 8.878990000000000 -1.012490000000000 10.000000000000000
-0.350047000000000 8.846320000000000 -0.871188000000000 5.000000000000000
-0.334314000000000 8.880220000000000 -1.012490000000000 7.000000000000000
-0.320600000000000 8.887269999999999 -0.875105000000000 8.000000000000000
-0.303314000000000 8.881330000000000 -1.012490000000000 11.000000000000000
-0.289576000000000 8.888330000000000 -0.875105000000000 12.000000000000000
-0.272554000000000 8.890280000000001 -1.013400000000000 11.000000000000000
-0.258664000000000 8.893269999999999 -0.875497000000000 11.000000000000000
-0.241628000000000 8.895149999999999 -1.013850000000000 9.000000000000000
-0.227416000000000 8.886160000000000 -0.874713000000000 10.000000000000000
-0.211141000000000 8.919779999999999 -1.016560000000000 4.000000000000000
-0.197858000000000 8.882880000000000 -0.874322000000000 4.000000000000000
-0.181561000000000 8.920430000000000 -1.016560000000000 3.000000000000000
-0.167298000000000 8.907400000000001 -0.876672000000000 4.000000000000000
-0.442479000000000 8.913230000000000 -0.999433000000000 6.000000000000000
-0.150622000000000 8.932930000000001 -1.017920000000000 3.000000000000000
-0.420708000000000 8.848879999999999 -0.854573000000000 50.000000000000000
-0.136387000000000 8.919870000000000 -0.877847000000000 4.000000000000000
-0.408713000000000 8.890969999999999 -0.996762000000000 21.000000000000000
-0.119227000000000 8.917500000000000 -1.016110000000000 6.000000000000000
-0.391744000000000 8.894050000000000 -0.858798000000000 22.000000000000000
-0.105062000000000 8.904370000000000 -0.876280000000000 5.000000000000000
-0.377844000000000 8.896310000000000 -0.997208000000000 16.000000000000000
-0.088137800000000 8.921840000000000 -1.016560000000000 8.000000000000000
-0.360535000000000 8.891389999999999 -0.858414000000000 21.000000000000000
-0.074045900000000 8.912640000000000 -0.877064000000000 4.000000000000000
-0.347282000000000 8.870480000000001 -1.620640000000000 2.000000000000000
-0.347252000000000 8.909500000000000 -0.998543000000000 10.000000000000000
-0.057045000000000 8.930040000000000 -1.017470000000000 9.000000000000000
-0.329938000000000 8.904529999999999 -0.859566000000000 21.000000000000000
-0.043049500000000 8.936730000000001 -0.879414000000000 4.000000000000000
-0.317297000000000 8.899170000000000 -1.625670000000000 2.000000000000000
-0.316150000000000 8.910650000000000 -0.998543000000000 8.000000000000000
-0.025930600000000 8.950060000000001 -1.019730000000000 6.000000000000000
-0.298720000000000 8.901640000000000 -0.859182000000000 37.000000000000000
-0.011849000000000 8.932850000000000 -0.879022000000000 4.000000000000000
-0.285726000000000 8.884490000000000 -1.622790000000000 2.000000000000000
-0.285425000000000 8.923620000000000 -0.999879000000000 8.000000000000000
0.005332320000000 8.985860000000001 -1.023810000000000 3.000000000000000
-0.267526000000000 8.898650000000000 -0.858798000000000 26.000000000000000
0.019306700000000 8.920890000000000 -0.877847000000000 4.000000000000000
-0.254486000000000 8.877570000000000 -1.621360000000000 8.000000000000000
-0.253821000000000 8.908670000000001 -0.998098000000000 7.000000000000000
0.036552700000000 8.950020000000000 -1.019730000000000 2.000000000000000
-0.236991000000000 8.919430000000000 -0.860719000000000 30.000000000000000
0.050513800000000 8.932710000000000 -0.879022000000000 4.000000000000000
-0.223694000000000 8.886270000000000 -1.622790000000000 7.000000000000000
-0.222921000000000 8.917450000000001 -0.998988000000000 8.000000000000000
0.067763800000000 8.945860000000000 -1.019280000000000 3.000000000000000
-0.206038000000000 8.928170000000000 -0.861487000000000 17.000000000000000
0.081585300000000 8.920540000000001 -0.877847000000000 3.000000000000000
-0.192929000000000 8.898800000000000 -1.624950000000000 6.000000000000000
-0.192049000000000 8.930099999999999 -1.000320000000000 2.000000000000000
0.099078200000000 8.953519999999999 -1.020190000000000 6.000000000000000
-0.175106000000000 8.940770000000001 -0.862639000000000 13.000000000000000
0.112774000000000 8.924180000000000 -0.878239000000000 3.000000000000000
-0.448280000000000 8.916940000000000 -0.843963000000000 14.000000000000000
-0.161937000000000 8.903350000000000 -1.625670000000000 3.000000000000000
-0.161234000000000 8.950580000000000 -1.002550000000000 4.000000000000000
0.130389000000000 8.957100000000001 -1.020640000000000 6.000000000000000
-0.428755000000000 8.868040000000001 -0.977048000000000 29.000000000000000
-0.143768000000000 8.933370000000000 -0.861871000000000 11.000000000000000
0.144373000000000 8.951589999999999 -0.880981000000000 3.000000000000000
-0.418148000000000 8.906440000000000 -0.842834000000000 23.000000000000000
-0.132587000000000 8.915640000000000 -1.627820000000000 1.000000000000000
-0.131435000000000 8.943120000000000 -1.001660000000000 3.000000000000000
0.160375000000000 8.972510000000000 -1.022450000000000 6.000000000000000
-0.397736000000000 8.833670000000000 -0.973110000000000 54.000000000000000
-0.114194000000000 8.937780000000000 -0.862255000000000 21.000000000000000
0.174135000000000 8.955050000000000 -0.881373000000000 5.000000000000000
-0.386190000000000 8.923830000000001 -0.844340000000000 18.000000000000000
-0.099864800000000 8.912140000000001 -1.627100000000000 2.000000000000000
-0.098480200000000 8.927640000000000 -0.999879000000000 8.000000000000000
0.193346000000000 8.975830000000000 -1.022900000000000 1.000000000000000
-0.368087000000000 8.863640000000000 -1.443830000000000 9.000000000000000
-0.367327000000000 8.882740000000000 -0.978360000000000 55.000000000000000
-0.081470500000000 8.942119999999999 -0.862639000000000 22.000000000000000
0.208425000000000 8.950329999999999 -0.880981000000000 5.000000000000000
0.210935000000000 8.990660000000000 -0.745692000000000 3.000000000000000
-0.353322000000000 8.921210000000000 -0.843963000000000 17.000000000000000
-0.067347800000000 8.932119999999999 -1.630700000000000 4.000000000000000
-0.065845900000000 8.939870000000001 -1.001210000000000 8.000000000000000
0.226168000000000 9.034700000000001 -1.029700000000000 1.000000000000000
-0.336995000000000 8.860920000000000 -1.443180000000000 7.000000000000000
-0.336920000000000 8.899860000000000 -0.980111000000000 45.000000000000000
-0.050211400000000 8.934390000000000 -0.861871000000000 22.000000000000000
0.238634000000000 8.969490000000000 -0.882940000000000 5.000000000000000
0.240534000000000 8.981949999999999 -0.745031000000000 4.000000000000000
-0.323881000000000 8.926310000000001 -0.844340000000000 37.000000000000000
-0.037777400000000 8.944089999999999 -1.632850000000000 7.000000000000000
-0.036264300000000 8.955940000000000 -1.002990000000000 7.000000000000000
0.256004000000000 8.974259999999999 -1.022900000000000 2.000000000000000
-0.306608000000000 8.877829999999999 -1.445750000000000 6.000000000000000
-0.306125000000000 8.908930000000000 -0.980986000000000 19.000000000000000
-0.019075200000000 8.958399999999999 -0.864175000000000 9.000000000000000
-0.294147000000000 8.923349999999999 -0.843963000000000 35.000000000000000
-0.008096050000000 8.920560000000000 -1.628540000000000 6.000000000000000
-0.006568010000000 8.959980000000000 -1.003440000000000 2.000000000000000
-0.277166000000000 8.878790000000000 -1.445750000000000 14.000000000000000
-0.276704000000000 8.913869999999999 -0.981423000000000 15.000000000000000
0.010641500000000 8.966370000000000 -0.864944000000000 10.000000000000000
-0.264319000000000 8.916320000000001 -0.843210000000000 27.000000000000000
0.021495100000000 8.924469999999999 -1.629260000000000 5.000000000000000
0.023144400000000 8.959960000000001 -1.003440000000000 2.000000000000000
-0.246281000000000 8.883649999999999 -1.446400000000000 18.000000000000000
-0.245587000000000 8.914780000000000 -0.981423000000000 18.000000000000000
0.041921300000000 8.962300000000001 -0.864559000000000 9.000000000000000
-0.232257000000000 8.941110000000000 -0.845469000000000 24.000000000000000
0.054635000000000 8.995160000000000 -1.642190000000000 1.000000000000000
0.056108300000000 8.979690000000000 -1.005670000000000 2.000000000000000
-0.216035000000000 8.916029999999999 -1.451540000000000 20.000000000000000
-0.214562000000000 8.919560000000001 -0.981861000000000 26.000000000000000
0.073367900000000 8.981999999999999 -0.866480000000000 18.000000000000000
-0.200688000000000 8.925940000000001 -0.843963000000000 12.000000000000000
0.085883100000000 8.979179999999999 -1.639320000000000 1.000000000000000
0.087336800000000 8.967510000000001 -1.004330000000000 5.000000000000000
-0.184501000000000 8.897000000000000 -1.448320000000000 11.000000000000000
-0.183344000000000 8.916280000000000 -0.981423000000000 30.000000000000000
0.104581000000000 8.969749999999999 -0.865328000000000 15.000000000000000
-0.169907000000000 8.946500000000000 -0.845846000000000 11.000000000000000
0.117123000000000 8.970950000000000 -1.637880000000000 2.000000000000000
0.118744000000000 8.975099999999999 -1.005220000000000 6.000000000000000
-0.437391000000000 8.851290000000001 -0.820552000000000 44.000000000000000
-0.154193000000000 8.941010000000000 -1.455390000000000 5.000000000000000
-0.152355000000000 8.924810000000001 -0.982298000000000 32.000000000000000
0.135770000000000 8.961370000000001 -0.864559000000000 12.000000000000000
-0.138677000000000 8.947039999999999 -0.845846000000000 12.000000000000000
0.148762000000000 8.990159999999999 -1.641470000000000 7.000000000000000
0.150272000000000 8.986560000000001 -1.006560000000000 5.000000000000000
-0.412892000000000 8.890560000000001 -0.962150000000000 90.000000000000000
-0.407223000000000 8.868679999999999 -0.822027000000000 30.000000000000000
-0.122656000000000 8.917809999999999 -1.451540000000000 4.000000000000000
-0.121039000000000 8.913360000000001 -0.980986000000000 28.000000000000000
0.167496000000000 8.984719999999999 -0.866864000000000 10.000000000000000
-0.107493000000000 8.951449999999999 -0.846222000000000 21.000000000000000
0.179749000000000 8.969920000000000 -1.637880000000000 7.000000000000000
0.181640000000000 8.985980000000000 -1.006560000000000 2.000000000000000
-0.383257000000000 8.888380000000000 -1.306130000000000 57.000000000000000
-0.381344000000000 8.880030000000000 -0.960860000000000 44.000000000000000
-0.375081000000000 8.842190000000000 -0.819445000000000 26.000000000000000
-0.091688400000000 8.933970000000000 -1.454110000000000 5.000000000000000
-0.090285800000000 8.949510000000000 -0.984924000000000 12.000000000000000
0.198593000000000 8.972140000000000 -0.865712000000000 15.000000000000000
-0.076415500000000 8.971679999999999 -0.848104000000000 20.000000000000000
0.210596000000000 8.949570000000000 -1.634290000000000 8.000000000000000
0.213005000000000 8.985290000000001 -1.006560000000000 2.000000000000000
-0.352071000000000 8.885700000000000 -1.305540000000000 21.000000000000000
-0.351128000000000 8.901180000000000 -0.963010000000000 37.000000000000000
-0.344524000000000 8.851410000000000 -0.820183000000000 26.000000000000000
-0.060342100000000 8.910550000000001 -1.450250000000000 13.000000000000000
-0.059019400000000 8.945800000000000 -0.984486000000000 14.000000000000000
0.229706000000000 8.963440000000000 -0.864944000000000 18.000000000000000
-0.044997900000000 8.951980000000001 -0.846222000000000 20.000000000000000
0.242153000000000 8.960580000000000 -1.636440000000000 1.000000000000000
0.244477000000000 8.988460000000000 -1.007000000000000 1.000000000000000
-0.320767000000000 8.878970000000001 -1.304380000000000 23.000000000000000
-0.320770000000000 8.922219999999999 -0.965160000000000 33.000000000000000
-0.314047000000000 8.864500000000000 -0.821289000000000 47.000000000000000
-0.029302900000000 8.930450000000000 -1.453460000000000 14.000000000000000
-0.027755300000000 8.934020000000000 -0.983173000000000 15.000000000000000
0.261804000000000 8.990440000000000 -0.867632000000000 21.000000000000000
-0.013792200000000 8.979960000000000 -0.848857000000000 8.000000000000000
0.274270000000000 8.987209999999999 -1.641470000000000 2.000000000000000
0.275729000000000 8.983580000000000 -1.006560000000000 8.000000000000000
-0.289642000000000 8.876080000000000 -1.303800000000000 31.000000000000000
-0.289624000000000 8.923280000000000 -0.965160000000000 21.000000000000000
-0.283103000000000 8.865539999999999 -0.821289000000000 32.000000000000000
0.001871230000000 8.934440000000000 -1.454110000000000 12.000000000000000
0.003433490000000 8.942019999999999 -0.984049000000000 15.000000000000000
0.017600500000000 9.003850000000000 -0.851116000000000 6.000000000000000
0.305907000000000 8.994059999999999 -1.642910000000000 3.000000000000000
-0.259349000000000 8.900770000000000 -1.307290000000000 18.000000000000000
-0.258359000000000 8.920270000000000 -0.964730000000000 19.000000000000000
-0.252720000000000 8.886380000000001 -0.823133000000000 27.000000000000000
0.032853700000000 8.879110000000001 -1.445110000000000 3.000000000000000
0.034693100000000 8.953880000000000 -0.985361000000000 13.000000000000000
0.048877800000000 8.975849999999999 -0.848481000000000 11.000000000000000
0.336121000000000 8.961480000000000 -1.637160000000000 7.000000000000000
-0.228481000000000 8.909540000000000 -1.308450000000000 11.000000000000000
-0.227422000000000 8.929060000000000 -0.965590000000000 13.000000000000000
-0.221898000000000 8.895170000000000 -0.823871000000000 22.000000000000000
0.064273200000000 8.938160000000000 -1.454750000000000 3.000000000000000
0.065889200000000 8.945750000000000 -0.984486000000000 9.000000000000000
0.080280300000000 8.983590000000000 -0.849233000000000 18.000000000000000
-0.197204000000000 8.902369999999999 -1.307290000000000 10.000000000000000
-0.195990000000000 8.917880000000000 -0.964300000000000 29.000000000000000
-0.190932000000000 8.899870000000000 -0.824239000000000 21.000000000000000
0.095768000000000 8.965520000000000 -1.459250000000000 3.000000000000000
0.097244800000000 8.957390000000000 -0.985799000000000 21.000000000000000
0.111589000000000 8.979279999999999 -0.848857000000000 17.000000000000000
-0.166497000000000 8.922779999999999 -1.310190000000000 29.000000000000000
-0.165080000000000 8.930429999999999 -0.965590000000000 25.000000000000000
-0.161491000000000 8.904439999999999 -0.824608000000000 20.000000000000000
0.125332000000000 8.953310000000000 -1.457320000000000 9.000000000000000
0.127230000000000 8.976900000000001 -0.987987000000000 20.000000000000000
0.143122000000000 8.990780000000001 -0.849986000000000 17.000000000000000
-0.420295000000000 8.876120000000000 -0.943372000000000 58.000000000000000
-0.420318000000000 8.909509999999999 -0.808592000000000 14.000000000000000
-0.135349000000000 8.923310000000001 -1.310190000000000 29.000000000000000
-0.133906000000000 8.930949999999999 -0.965590000000000 28.000000000000000
-0.129026000000000 8.916919999999999 -0.825715000000000 27.000000000000000
0.158217000000000 8.956730000000000 -1.457960000000000 8.000000000000000
0.160202000000000 8.980350000000000 -0.988424000000000 24.000000000000000
-0.402270000000000 8.855259999999999 -1.190640000000000 46.000000000000000
0.173395000000000 9.014139999999999 -0.852245000000000 6.000000000000000
-0.392083000000000 8.905279999999999 -0.946328000000000 30.000000000000000
-0.390945000000000 8.914840000000000 -0.808953000000000 18.000000000000000
-0.105805000000000 8.927670000000001 -1.310770000000000 29.000000000000000
-0.104614000000000 8.959190000000000 -0.968599000000000 10.000000000000000
-0.099588900000000 8.929250000000000 -0.826821000000000 26.000000000000000
0.188083000000000 8.964060000000000 -1.459250000000000 9.000000000000000
0.190570000000000 9.007590000000000 -0.991487000000000 5.000000000000000
-0.373570000000000 8.872389999999999 -1.192770000000000 40.000000000000000
0.203107000000000 9.005549999999999 -0.851492000000000 5.000000000000000
-0.362550000000000 8.906530000000000 -0.946328000000000 37.000000000000000
-0.361703000000000 8.924049999999999 -0.809675000000000 15.000000000000000
-0.076266600000000 8.935879999999999 -1.311940000000000 8.000000000000000
-0.074970700000000 8.967440000000000 -0.969459000000000 8.000000000000000
-0.068175300000000 8.897679999999999 -0.823871000000000 26.000000000000000
0.219759000000000 8.979130000000000 -1.461820000000000 7.000000000000000
0.221619000000000 8.990970000000001 -0.989737000000000 7.000000000000000
-0.342750000000000 8.877599999999999 -1.193300000000000 43.000000000000000
0.236739000000000 9.028639999999999 -0.853751000000000 5.000000000000000
-0.330198000000000 8.915749999999999 -0.947173000000000 30.000000000000000
-0.328992000000000 8.925310000000000 -0.809675000000000 14.000000000000000
-0.043456600000000 8.924230000000000 -1.310190000000000 8.000000000000000
-0.042028200000000 8.951739999999999 -0.967739000000000 8.000000000000000
-0.037199300000000 8.917780000000000 -0.825715000000000 24.000000000000000
0.250769000000000 8.966469999999999 -1.459890000000000 10.000000000000000
0.253114000000000 8.994120000000001 -0.990174000000000 8.000000000000000
-0.312177000000000 8.890630000000000 -1.194900000000000 27.000000000000000
0.267780000000000 9.011830000000000 -0.852245000000000 19.000000000000000
-0.299474000000000 8.928780000000000 -0.948440000000000 13.000000000000000
-0.297437000000000 8.914460000000000 -0.808592000000000 20.000000000000000
-0.012294000000000 8.916410000000001 -1.309030000000000 8.000000000000000
-0.010785300000000 8.955810000000000 -0.968169000000000 24.000000000000000
-0.006078320000000 8.929800000000000 -0.826821000000000 19.000000000000000
0.282191000000000 8.969490000000000 -1.460530000000000 15.000000000000000
0.284005000000000 8.977290000000000 -0.988424000000000 93.000000000000000
-0.281517000000000 8.903549999999999 -1.196490000000000 16.000000000000000
-0.267111000000000 8.890010000000000 -0.944217000000000 14.000000000000000
-0.266793000000000 8.931369999999999 -0.810037000000000 13.000000000000000
0.018880300000000 8.940149999999999 -1.312520000000000 26.000000000000000
0.020458200000000 8.947839999999999 -0.967309000000000 22.000000000000000
0.025103700000000 8.933750000000000 -0.827190000000000 17.000000000000000
0.313912000000000 8.980280000000000 -1.462460000000000 39.000000000000000
-0.250436000000000 8.904480000000000 -1.196490000000000 14.000000000000000
-0.236922000000000 8.922700000000001 -0.947595000000000 11.000000000000000
-0.235405000000000 8.924289999999999 -0.809314000000000 9.000000000000000
0.050042700000000 8.932110000000000 -1.311350000000000 19.000000000000000
0.051829700000000 8.971579999999999 -0.969889000000000 19.000000000000000
0.056363500000000 8.945560000000000 -0.828296000000000 18.000000000000000
-0.219449000000000 8.909269999999999 -1.197030000000000 13.000000000000000
-0.206141000000000 8.939370000000000 -0.949284000000000 23.000000000000000
-0.205164000000000 8.964880000000001 -0.812926000000000 5.000000000000000
0.081581200000000 8.971460000000000 -1.317170000000000 23.000000000000000
0.083219800000000 8.979300000000000 -0.970749000000000 10.000000000000000
0.087589000000000 8.945309999999999 -0.828296000000000 22.000000000000000
-0.188768000000000 8.929800000000000 -1.199690000000000 16.000000000000000
-0.174935000000000 8.940040000000000 -0.949284000000000 25.000000000000000
-0.173560000000000 8.949610000000000 -0.811481000000000 5.000000000000000
0.112250000000000 8.919670000000000 -1.309610000000000 7.000000000000000
0.114563000000000 8.978949999999999 -0.970749000000000 8.000000000000000
0.118655000000000 8.933000000000000 -0.827190000000000 23.000000000000000
-0.446358000000000 8.928430000000001 -0.931701000000000 17.000000000000000
-0.157526000000000 8.926439999999999 -1.199160000000000 10.000000000000000
-0.143728000000000 8.940600000000000 -0.949284000000000 24.000000000000000
-0.142319000000000 8.950160000000000 -0.811481000000000 5.000000000000000
0.144020000000000 8.958800000000000 -1.315420000000000 7.000000000000000
0.145969000000000 8.982469999999999 -0.971178000000000 8.000000000000000